-4.43388 -4.08345 4.39041
-8.10786 -6.11891 -0.612352
10.1165 2.69133 -10.0077
-6.62225 -5.13701 -3.0844
-4.3726 -10.0084 8.13883
5.13888 -6.15526 15.3441
-6.08839 -10.013 2.93695
7.06832 -4.63564 -17.106
11.6548 9.84914 1.78038
-3.2849 -0.54906 -19.0048
-6.22949 10.0066 0.5734
9.24752 3.24178 5.04579
-6.27908 -10.0084 -0.889996
8.17164 -9.86234 -9.84623
8.33038 1.95935 18.9036
9.62379 -10.0057 -6.34929
-8.2094 -1.97487 7.88549
-1.83275 -5.97611 -11.9055
-4.76814 -10.0155 -4.35481
-8.13318 1.34655 -9.83546
11.7327 2.93904 -9.79693
0.689398 6.9201 -15.299
11.7141 9.85068 -4.68775
7.57897 3.57452 18.8742
6.42449 8.34544 -3.80621
4.10847 6.36083 5.5378
11.683 4.16857 -4.59894
5.18125 5.66243 -4.96563
8.07408 10.0067 7.86582
-8.20818 -7.9987 0.973543
3.94336 -6.67434 17.0805
-4.23887 9.85055 -9.88536
-6.72708 -0.655959 10.0146
-4.45697 -3.17511 17.0872
-2.89626 -9.79697 -3.91888
4.97426 -3.82233 19.0051
7.73152 -7.99795 0.717908
7.55902 10.0035 -5.87912
-8.06655 1.14764 6.03875
-6.26749 0.553392 5.98301
-1.19199 -3.08436 5.25825
-6.51816 -9.87062 -9.89894
-1.44806 1.7186 -5.74692
7.71264 5.94986 1.61273
-6.0088 -5.61564 2.09176
-5.72158 -10.008 6.49769
-8.20707 -5.83333 -8.14535
5.75654 -6.16428 -4.50898
11.6986 1.0789 6.09212
11.6446 -9.90926 2.13054
-8.12733 -5.55163 2.62399
11.7036 5.20702 -3.28504
10.0397 3.02794 10.0045
-8.21366 7.74656 3.40248
8.65779 0.465109 -18.858
7.69484 -3.78181 -15.4667
-8.11779 3.69995 -5.01026
-1.60699 -9.84851 5.04674
-6.32878 4.33443 -4.15271
5.39243 -6.00837 11.9239
5.06962 -6.18362 -11.8564
7.14949 4.52149 -15.5138
-8.21659 8.00703 1.49542
11.7148 -5.88397 1.69956
-8.20667 -8.31555 -5.61073
-8.07942 4.87887 -3.81749
7.1098 7.97474 -10.0134
-8.20708 -7.88566 6.08467
-4.7701 -2.42352 -13.5517
-4.70291 -10.0111 4.44862
-8.21412 8.22267 5.54567
-5.10583 1.20622 -17.1402
-2.01625 2.78043 19.0064
7.69732 -5.92413 -1.79824
11.7341 -7.77497 9.80225
-4.53044 3.94289 -4.52201
-1.19763 -6.46015 -10.1098
-4.96286 -5.00544 -3.29342
-3.04362 -5.05806 -15.3804
11.8078 7.93978 -1.62912
3.87916 -10.0106 7.70032
-1.8401 -5.99468 17.0833
9.75603 -10.0121 1.29074
-2.43927 9.90285 4.46055
2.57132 -6.80838 18.9027
11.5969 9.79689 9.81759
7.97516 3.30275 -15.1031
-3.64385 -5.39812 2.92255
3.35567 6.84256 15.3385
4.3745 -6.51695 13.5976
7.78497 9.80251 9.84883
-2.48851 -7.60914 -4.19813
0.809454 3.66975 5.9287
-8.07703 9.85905 -1.43253
-1.27417 9.86431 9.8653
1.82394 -10.015 8.03478
-8.20736 -6.47727 -4.41079
-8.09578 -4.55056 9.86125
-8.11129 2.34287 -5.73159
11.8088 2.08715 7.85021
-5.70149 -9.87064 9.9073
1.63984 6.99231 11.8413
-1.28304 0.405737 19.0027
-0.0104458 7.66795 5.71411
11.6755 9.87136 -6.37724
-5.01654 -1.63964 -15.3037
11.6928 9.81585 6.71196
0.505819 9.91779 -6.09248
1.74234 7.00353 -13.5612
-1.81137 -10.0171 -8.54821
9.91811 4.09594 -4.3713
4.46933 6.47726 -15.3733
7.22218 4.61157 -10.1235
11.6624 -5.17438 3.26564
-2.56656 -4.35815 4.21742
11.6244 4.64533 -9.91055
-8.20679 -7.8857 8.01706
9.52035 -5.47926 2.42668
-8.21059 -7.89831 2.87545
7.74907 3.67832 -11.8873
11.7182 9.82339 -2.95793
11.6882 9.8651 0.0769533
-4.75827 -2.74372 -10.1182
-2.7689 4.55589 -4.02527
9.94189 10.0121 8.00417
3.52539 6.36029 -5.75197
5.9467 -9.8734 4.592
0.135033 -6.69857 -18.9329
-8.20877 8.26584 -8.10823
11.6981 -3.84305 -4.866
-2.56649 5.47163 15.2564
-3.15222 8.17261 -10.0126
11.6396 -9.86836 -1.82766
4.2295 -6.69224 -5.48815
-6.29345 2.88569 -5.27205
7.99196 9.86168 -9.84741
-4.42337 2.84369 18.9248
8.12628 -2.98119 11.9877
-4.42767 3.22647 -17.26
5.39872 1.33949 -5.87929
-3.56151 -10.0107 -5.93049
5.22664 9.90752 5.15607
-3.51403 4.33833 -18.8304
-1.84953 -10.0081 -6.86898
11.8051 7.5119 6.25061
-6.57582 -10.0131 -4.94641
-8.2053 5.51373 -5.96161
-0.583225 -3.99492 19.0049
-8.20424 -5.59177 6.02948
1.80376 4.78806 -19.0037
-4.85465 -2.17908 15.3519
-8.20714 4.68451 6.33288
0.947246 6.96191 -11.8714
2.5753 0.938803 5.9627
9.84056 9.89599 -9.86432
-8.07119 9.85 0.306174
-6.31164 9.87249 -9.87024
-6.42526 -1.55356 5.78774
-3.55937 -10.0075 6.15613
-8.0622 4.81708 9.88946
9.78392 -10.0069 -0.799964
10.0493 10.018 -7.87408
-0.582352 -6.58008 11.9523
5.93129 9.89389 9.81473
-2.65701 -5.61678 -10.115
11.6364 6.52 9.90383
7.18004 -4.24537 -18.9236
-8.20761 7.86093 -2.42086
11.8114 -7.92541 -8.20499
4.69457 -6.2087 -18.9053
-8.20361 6.633 -4.25798
-6.24115 -5.99188 0.38763
7.72379 -3.71708 -11.9661
-5.13845 0.953621 13.6731
-0.441605 4.17572 19.0055
6.93538 7.89841 10.0087
11.8066 -6.89 3.47332
7.97232 -6.27919 10.0039
-8.09485 -3.33495 -9.8301
3.91994 9.88039 9.85938
-8.07526 3.31698 -9.8115
-1.45124 -1.17021 5.88536
7.01134 2.87532 5.26566
-8.03632 -8.26547 9.85048
11.6982 -2.25073 -5.7595
5.93837 -8.07083 -4.32717
-3.9038 -10.0091 -7.9339
5.90597 -10.0114 8.24878
-2.72136 4.54859 4.10859
-8.21714 8.04019 7.90145
-3.44018 9.86391 -3.22222
10.129 1.99486 5.6537
9.89027 -9.79638 -9.91985
8.11722 -10.0106 -7.72184
4.30112 1.03629 5.92095
3.46996 4.42366 19.005
-8.05176 -9.89302 5.98185
0.959886 7.07249 10.1018
-8.20932 -8.30597 -3.62698
6.03793 5.76156 10.1124
11.8059 -7.78694 -6.39007
5.62725 5.86698 -13.6399
4.66334 10.009 -7.97024
11.5969 1.19175 9.94701
9.63466 -4.60596 3.83374
10.0613 6.514 -10.0101
-4.34354 3.3574 -13.7995
-3.16083 4.96484 -16.7933
11.8083 7.94361 -5.83277
-1.61059 -10.0135 6.75089
5.34295 3.5918 19.0064
11.7256 -9.82324 -3.66629
-2.42514 9.79741 -4.40128
-2.92017 7.4774 -3.70942
-8.0723 9.88871 2.21351
8.71652 -1.09039 -13.6375
-6.17971 -10.0077 1.08605
11.7116 2.92168 9.82012
-4.68687 2.62749 -11.9723
-8.20684 -3.89258 7.54479
-0.324679 -4.405 -5.60774
8.35108 -10.0046 -4.50992
-8.21451 0.0956673 8.02642
-8.01991 8.23912 -9.94976
-8.10652 5.85007 1.93518
11.8079 4.38894 -8.27657
-0.0775541 0.633901 -5.98652
-6.14849 3.99666 10.0063
-4.52197 2.99939 13.6065
-8.20905 8.01589 -0.47496
-1.7861 6.02455 17.0281
9.06879 0.0105329 -10.0984
-1.67301 -9.83051 -5.02893
1.73106 -6.81321 -18.862
-8.16292 -2.31556 -5.82777
11.8038 -3.924 -7.38384
3.55117 -6.11502 5.74718
-6.11601 7.79729 10.0135
7.14778 -4.25721 18.9407
-1.35752 -9.86974 9.86887
11.8072 -8.40063 3.01919
7.93211 -10.0068 7.63456
10.1488 -10.0119 -4.57523
11.8108 0.186078 8.05265
-8.21327 -8.25859 -0.854915
-4.48611 4.60218 3.83056
0.0731847 2.09485 19.0026
-2.95438 0.880993 -5.94803
7.86298 -3.50507 15.5887
9.9314 -10.0124 -8.24523
-3.0818 2.84239 -5.28672
2.75372 -8.16131 -5.92163
11.6805 5.82529 -1.94948
7.20581 -5.26968 3.06221
-6.3575 10.0082 -5.79238
11.6333 5.25811 3.0929
-4.84351 -2.17175 11.9557
6.33926 -5.33093 -15.4274
7.39602 9.90234 -2.59159
4.1602 9.87024 -9.79693
0.851741 10.0079 -8.04956
-8.21356 3.90312 7.99981
9.47323 4.67015 -10.0017
10.0207 4.46956 3.99214
1.78498 5.41031 -6.01686
11.8024 -5.88891 -7.84295
-4.09807 -3.79767 -4.64253
11.714 -9.83815 -5.59913
-2.44539 5.28414 18.8371
-4.07116 3.81951 -15.6003
7.25824 4.37381 11.8802
4.48394 -8.4382 -5.34874
-0.109559 -9.87052 -5.82507
4.62832 -6.56992 10.1235
-4.75505 -9.85332 -9.88589
-3.75165 -9.87923 -2.55448
-8.20749 -7.01193 4.4336
-8.00778 9.92111 -8.14673
3.63812 4.38578 -5.71996
-4.73728 9.87492 9.86235
8.20391 -2.86163 -17.1519
8.02127 -8.23308 -10.0088
2.16171 6.83972 18.8732
11.6548 9.90364 -1.43273
-7.99126 -9.87341 9.79693
9.66936 9.83041 9.88287
-6.35912 -3.40824 10.0055
0.167417 -10.0168 -7.88193
-8.05205 9.86839 -9.8411
1.86643 -4.66561 -6.02185
-6.61396 -2.44361 -5.46735
2.90474 10.0122 7.93657
3.7349 6.74681 11.9005
9.81578 -6.54385 10.0061
7.15191 -4.51356 -13.7475
-1.48405 3.49498 -5.04622
-0.862182 6.49145 -11.8993
5.89669 5.69127 17.07
0.662966 2.96115 -19.0036
11.7052 -0.638692 6.1288
7.39719 0.977426 -5.92551
4.79258 8.26177 10.0114
3.21276 -6.72443 -18.9112
-0.948478 9.9174 5.50971
8.53006 -1.97761 -15.4455
-4.8726 -1.72352 -18.9059
11.5969 -0.536788 9.89835
5.89528 -2.76974 5.31529
-8.04314 -9.90064 -8.17319
-4.4937 -6.32899 -10.0053
3.79179 4.65962 -19.0077
6.83753 4.86266 15.3705
-5.05791 0.0136029 -18.8699
-3.75022 -4.04592 18.8697
2.98506 7.03563 10.1097
-4.84034 1.58353 -18.9047
1.64773 -6.10123 6.00562
-3.29856 4.79379 13.5332
-8.21208 -7.39091 -2.30483
2.555 -6.96049 -15.3073
10.1577 10.0078 -3.92877
-6.08483 -3.91881 -4.55606
-8.08192 -6.44443 9.87694
4.74242 10.0133 7.88888
9.90938 0.256737 5.99793
8.50056 -2.05038 -11.8834
-4.03739 6.78776 -10.0022
-3.19186 4.90898 -14.4904
2.82665 10.0158 -7.97521
8.85105 -1.49753 -10.1055
4.42054 -6.26136 18.8597
-5.19564 -0.137026 15.3814
-8.2123 2.19637 -7.88866
9.58905 -10.0081 -2.72264
-4.27874 6.08378 -1.04188
5.7868 6.12478 4.47747
-8.21047 5.91064 8.1754
-3.81776 7.84289 -2.08715
6.04929 -2.35477 -19.0072
-7.99699 -1.73339 -9.93049
9.82389 -3.20866 5.05722
-3.32775 -4.78791 17.0529
-1.54324 7.92612 -4.98638
6.56551 -5.11743 -11.9233
-5.43352 10.0109 -8.26773
2.2844 -6.37323 -5.9955
-0.224804 8.31309 10.0051
-8.10249 4.96503 -9.84286
8.45373 -2.20226 14.4834
4.40881 -0.179866 19.0037
6.53637 -2.35797 -5.51719
-6.06694 -5.81895 -1.44001
3.79426 9.91581 5.87545
-2.45079 -5.55497 11.9082
-8.20915 -5.90213 7.98825
-2.38245 -10.0117 8.22726
7.94547 -3.95799 4.51566
-1.4467 -8.24367 -10.0095
7.17051 -10.0054 -6.03145
0.584664 -6.75019 18.9003
-5.91753 10.0054 4.34588
-2.96895 -9.8682 3.88367
11.5969 -0.434094 -9.87575
-0.0100088 4.5248 -5.71227
-0.203499 -6.7153 -11.8689
8.09236 3.09386 -17.0225
-8.06553 -0.598971 6.14792
11.7169 -0.645804 -6.13445
0.397776 -6.86205 13.7434
-1.38074 6.06605 5.08778
-6.2771 4.11857 4.3687
-4.42449 -3.20429 13.6331
-0.325089 6.67546 -13.7735
7.6781 -9.90445 9.83194
-1.20592 10.0112 7.91548
11.6575 -6.72155 -9.88567
-3.9762 3.95061 11.8802
-3.58507 5.51767 -2.77703
4.51846 6.27768 -18.9134
11.8078 0.244633 -8.01168
3.7723 6.72355 -13.5679
6.32494 -7.8497 10.0133
5.93259 -0.543756 -5.99249
3.07404 -4.53475 19.0057
3.81961 9.94031 -5.84956
5.6495 5.83918 11.9162
-0.285531 9.90328 -9.82391
8.00466 -2.83947 18.9157
-6.36431 -7.70168 10.0147
9.5827 10.0078 -2.04223
6.53873 9.83177 3.91877
1.14352 6.75751 -18.8874
8.80096 1.49383 10.1068
-1.80044 5.84145 -4.80685
9.81666 -1.58508 5.78868
4.67471 -0.750094 -19.0035
-6.47685 9.80621 9.89935
1.88569 9.88613 -9.83765
6.18107 1.69431 19.003
3.13067 8.41152 -9.99778
-5.19744 0.306721 -15.3615
8.29544 -2.63818 17.1062
9.9866 -2.90424 -5.25096
-5.52642 -10.0031 -6.41101
0.431543 5.60365 5.84879
-8.06318 6.65637 -9.8393
-8.09844 -4.78123 3.94074
-8.1194 0.864387 -6.11765
11.8086 7.62404 2.55391
-4.18521 8.01262 -0.105841
5.20978 -10.0061 -6.68815
6.71646 2.75536 -5.33534
-6.06927 -10.0182 -8.06889
6.73584 -4.96524 15.3817
11.8026 -4.50688 6.51883
-3.92989 -4.02515 15.3287
11.808 -1.74342 7.83429
-5.09725 -1.18817 13.6638
-8.20384 6.659 6.53678
-2.96497 -2.69221 5.36797
8.82014 1.42712 -10.1234
11.6616 9.85621 -8.14799
11.8068 6.42306 4.48946
-6.24036 -5.42191 10.0066
-8.20771 4.10764 -7.53248
8.47751 10.0053 -4.10062
2.9795 6.91364 -11.8176
7.38419 7.82813 -2.17535
11.8067 7.93291 8.07079
-3.37661 4.73093 17.0132
-8.14733 6.20468 0.465727
6.68492 -0.326353 -19.0036
6.97296 -4.70885 11.9719
-8.20517 7.66724 -6.22939
7.91578 -6.20476 -0.115913
6.09555 5.33719 -18.9165
-0.101032 6.44187 -5.69111
11.811 -5.83236 8.24029
-8.09352 -3.6496 5.0406
1.95643 3.35883 -6.01006
11.615 -9.90883 4.19325
8.35567 2.4539 11.9558
0.264241 8.29111 -5.8052
6.25849 -10.0112 -8.1432
4.23439 -9.83154 5.65783
0.826807 8.48833 -10.0027
-3.82651 -4.16566 -13.6236
8.16426 -2.91722 -13.7184
11.7037 -4.11092 9.79693
-6.40838 -10.0166 8.24442
5.99737 5.60355 -15.4478
-3.23087 -5.21559 -3.39389
8.08252 4.34179 4.13266
-8.06842 -9.87499 2.06407
4.02897 -10.0103 -8.12547
11.8089 -7.99744 -0.918198
-8.20369 -4.84603 -6.18336
-4.2881 1.39667 5.83349
9.81213 10.0093 0.0810319
-4.74511 2.82394 10.1235
0.50114 6.66265 18.8825
-2.44791 -8.20053 4.23961
-5.06673 -1.37991 -11.8034
-0.600967 -9.79697 -9.86307
-4.13012 -5.96236 1.54036
7.58175 7.95948 1.55577
-8.05095 -5.04493 -9.85385
11.6651 4.25285 4.44055
-2.3421 -6.37344 4.33971
4.174 -9.90529 9.78158
-8.02001 9.91992 5.82002
4.50464 -4.24375 5.36033
2.87201 2.88318 5.89952
-2.74343 1.40414 -19.0047
-8.07425 -9.8865 -2.12888
7.40985 -4.48017 10.1306
-6.09186 5.78568 10.0092
-5.16128 -0.781813 -17.0863
-2.83935 -1.05462 19.0041
6.01186 4.194 4.37697
-8.20369 -6.66304 -6.40184
7.7809 8.04025 -0.353794
-5.20071 -0.113776 11.9705
8.79399 0.648148 17.1941
-0.293517 4.69739 -19.0047
5.25182 8.02917 -10.0028
-4.49456 3.21039 5.07336
11.8065 -8.1235 5.26331
4.88906 -0.741767 5.96261
-6.5764 1.94393 10.0025
-0.0508799 -6.77613 17.1518
-8.2066 6.25456 4.75358
11.6191 -9.87604 -9.62982
3.69208 8.15861 5.68662
3.27712 0.844424 -19.0018
6.72639 -9.86264 -3.69451
0.131785 6.81485 17.0376
-4.61994 -6.35357 10.0019
6.12523 -4.34237 4.26403
2.90612 6.79163 -18.8784
8.66889 1.35556 15.4711
-8.20499 6.19632 -7.9088
11.8058 -5.92122 5.08344
-0.954463 6.5899 10.1216
-8.07716 -3.60191 -4.97603
-8.00355 9.8528 9.69546
9.63767 10.0048 2.17265
11.8051 -7.93004 1.11453
-8.20911 8.34331 -4.3692
5.2747 6.08303 15.3529
9.78519 5.94834 0.808209
-5.92619 10.0073 -3.50943
-4.12599 -3.4266 -18.8601
-3.72429 -4.3354 -17.0548
9.65641 10.0034 -5.90907
8.06956 6.32415 -10.0017
-1.02345 9.88213 -5.47975
1.46395 4.87428 19.0055
7.88296 -6.39849 -10.0013
6.95918 4.76185 -17.2597
5.39799 -9.89903 -4.9709
5.99381 9.87603 -9.89516
-0.474235 -6.65059 -17.1612
3.70777 -2.30801 19.0029
-1.41709 -0.593603 -19.0034
-8.06133 -5.67842 -2.35875
8.23375 -3.10378 10.1183
-3.14547 1.01351 19.0056
-2.12127 5.81122 -13.4119
7.93509 -10.0043 5.3444
-8.09635 4.20432 4.50822
4.05997 2.09008 19.0028
5.06752 7.70217 -5.01987
6.18879 -5.66762 10.1235
11.8055 6.19491 -7.43747
-0.40887 -1.69287 19.0049
11.6232 1.13971 -9.91725
6.60638 4.91254 18.7446
-4.01061 3.90914 15.2788
0.732007 -4.70722 -19.0036
1.919 2.916 19.0022
-8.09421 0.99716 9.85651
-2.44539 5.28153 -18.8382
9.9557 -4.30822 -4.16229
0.609756 -9.81736 9.91649
5.87238 5.87812 -10.0976
-4.35401 -6.14519 -0.147159
7.61783 -3.89614 13.6812
-8.11238 5.75276 -2.3269
1.43957 -2.92375 19.0028
4.27422 -1.52025 -5.80629
3.79058 0.256651 -5.99984
-8.05111 9.87744 4.00929
6.82882 7.6093 3.25703
6.58567 9.90259 -3.9525
8.00466 -9.90693 -0.0931775
11.8088 7.96811 -7.93631
11.7434 -3.41097 -9.82533
4.39749 4.54791 5.41746
2.66569 6.94623 -15.3084
2.37268 -6.97942 13.6053
-3.35126 -9.84896 9.87917
-2.50378 -5.52057 -13.6443
0.657571 0.113391 19.0024
-8.06246 9.90074 7.69054
-8.12317 5.20263 3.21931
-2.46739 5.54596 11.8696
-4.29296 -3.45697 -15.3141
2.86448 -8.01709 5.89354
11.6967 -2.36187 5.73085
-8.05808 6.639 9.91462
-6.4624 1.01146 -5.91194
11.6885 -9.85047 -7.56358
-8.2146 -1.80298 -7.96405
8.7386 1.13568 -17.0938
-2.47568 5.53623 -11.6788
5.91856 -5.44795 18.8811
11.6144 -5.82113 9.8888
9.42723 5.24113 -2.92245
8.37834 10.0087 -7.76745
11.8052 3.90409 7.68574
4.12604 6.61565 17.1123
8.1114 3.28403 10.1234
-4.04948 -5.86156 -1.82852
-4.96637 1.27965 18.9117
-1.43526 -5.99092 -18.8959
-8.0872 6.06096 -0.901374
8.39602 2.36541 13.8527
-2.34432 7.89164 10.0097
0.487193 -1.02527 -5.93361
-1.67187 6.08411 -15.3657
-6.1863 -5.56583 -10.0067
3.60204 6.78772 -17.1215
-4.32474 6.11918 0.818087
5.89445 -9.84934 9.92039
2.9342 2.83066 -19.003
7.67265 -5.94048 1.60915
1.96827 -2.53558 6.00644
-4.31643 -9.86119 0.619528
-3.90679 -4.04287 11.9253
4.5762 -6.42891 -15.3356
7.68226 -9.86099 1.72137
-5.03951 5.23452 -2.93586
9.75128 5.88198 -1.14196
2.53923 -0.951848 -19.0032
-2.87039 -5.4185 10.1235
-5.38319 -1.2249 -10.0206
5.98719 -4.21176 -4.4383
-4.38249 -3.27132 -11.8874
11.6805 -9.85269 0.0777131
2.44208 6.97081 13.5718
-1.60413 6.12107 13.5642
11.6198 -8.45117 -9.91697
-4.54419 2.98052 17.0917
-0.89229 -8.2842 10.007
1.57274 -7.20016 10.052
-8.04457 -9.89467 0.0463026
1.7319 8.2847 6.01652
-5.1848 -0.504691 -13.5588
3.41322 -9.90313 -5.92945
-1.68796 8.0515 4.88582
7.24966 -7.84358 2.49877
9.21859 10.0049 4.08906
7.60307 -9.9006 -2.02538
11.6502 5.98583 1.41461
-4.75428 0.459937 -5.99844
-2.27062 -5.71857 -17.1473
5.37505 5.87812 18.9067
-8.05126 -9.4704 -9.82525
8.65779 0.339067 18.9348
-0.921258 -6.44922 -13.712
7.93872 -2.35789 5.52795
7.2263 4.70841 10.1226
-1.56331 -6.14063 13.6258
6.06228 -10.005 6.49136
-6.24286 2.43799 5.48115
0.487539 -6.88308 -15.4609
-4.43553 10.0082 -4.84018
-3.0431 8.29404 3.52433
5.44287 -5.99301 -17.0649
-8.07907 8.26507 9.88931
-2.2672 9.85179 -9.84038
4.11386 -6.61233 -13.5579
2.18512 -1.06515 19.0032
-0.708315 -6.54086 15.3663
-2.84733 6.51759 3.78701
-8.20797 2.08152 7.81696
-1.79475 6.20177 -10.0895
-8.20653 0.171037 -8.05322
5.39556 6.0239 -17.197
7.35805 4.28146 17.1067
1.27102 -6.97969 15.5356
4.01595 -2.43888 5.61722
3.75097 -2.60412 -19.0031
-3.4981 -7.66513 2.81204
4.71045 6.51871 10.1117
7.24791 -4.43444 17.2467
0.249488 -6.17183 -5.7963
5.74933 -5.79381 17.0965
2.1327 9.91712 9.80549
9.4174 5.42153 2.58953
9.55386 -9.92495 9.82839
7.94693 6.13861 -0.147511
-0.641024 1.29141 -19.0048
4.84867 -9.87139 -9.87036
4.85068 2.75362 5.36625
-0.954638 -8.03283 5.34755
7.57925 10.0023 5.6159
-8.07931 -4.68053 -4.00381
0.873381 10.01 7.95042
-8.06759 -7.19032 -9.87966
10.2012 2.48854 -5.46143
6.1624 -5.47302 13.652
1.10628 -2.88575 -5.9645
7.89246 9.89054 -0.922715
8.33694 2.55578 17.1716
-2.88504 -7.71842 10.0039
11.6534 0.979654 -6.04854
11.7501 2.62477 -5.5701
-0.191084 6.73175 -16.8027
6.5643 -0.183695 19.0045
8.5625 1.83923 -11.8592
-2.54014 -5.32 18.9083
-3.83476 4.37546 10.1152
11.6812 4.74894 9.86063
2.45438 -6.97181 -13.4691
8.73941 -1.05275 16.6151
-4.31899 2.92021 -18.9039
11.739 -5.19185 -3.43694
8.78666 -0.470184 14.8159
-4.85784 2.17961 -15.5052
9.51488 0.774454 -5.962
9.38208 -10.0033 3.36694
-6.02992 -4.8112 3.59488
-4.71617 -2.3948 5.50617
-1.70527 -5.87811 -4.87831
-4.07821 9.9015 -1.90512
1.36128 -6.97884 11.9092
-1.25802 8.1891 -10.0084
7.40379 3.86761 -18.9025
0.00373388 6.86616 -10.1045
6.0013 -2.05438 19.0077
11.8104 -8.09466 7.74627
2.27237 8.44766 10.0012
-4.20162 10.0052 5.35096
11.8045 -3.60159 8.01896
-0.265215 -2.44155 -19.0033
4.96988 1.33868 -19.0044
0.927761 -8.05103 5.95631
3.244 -6.86013 15.3382
2.15594 -10.0141 -7.96121
3.75933 6.5747 18.9345
-5.18424 0.659623 -11.8772
0.126958 -6.91586 10.1235
-1.14304 10.0085 -7.73187
9.80165 -10.0103 7.59806
6.67292 10.0097 -8.19502
4.45661 6.4847 13.6377
11.8039 -5.67299 -5.72919
6.5813 -9.84569 -9.85135
6.30951 10.0048 7.25922
-8.04405 9.9318 -4.90641
11.6376 8.16284 9.90393
8.58994 1.73601 -15.3097
1.79847 0.992661 -6.00474
11.5969 -9.82105 9.77852
-4.68093 2.17318 -5.59554
0.202499 -1.97822 5.80424
-3.63506 -0.881265 -5.93856
11.7779 9.79689 8.30936
11.5969 9.80979 -9.85239
2.14944 9.92264 6.12171
7.93911 -3.90248 -4.56232
-3.68907 4.34655 -12.2407
4.86426 -3.10311 -5.26615
11.8056 -7.51099 -4.53699
7.67049 -8.03823 -1.23083
5.22218 3.3376 -19.0046
-1.06682 -6.20476 18.9028
-3.2574 4.9761 -10.1235
0.773554 -6.93072 -13.6837
0.590982 -0.660354 -19.0034
8.76357 0.7841 -13.6014
6.50516 -6.53704 3.72763
0.842293 -8.01841 -5.92338
-5.03803 -0.582935 18.8888
-5.04399 1.49907 -13.6718
-2.83818 10.0068 -6.29264
-1.70519 3.18353 -19.0037
6.14723 -8.18409 4.10563
11.7483 6.37496 -9.792
2.82373 -9.84263 -9.88555
-8.21244 -8.00868 -7.92057
-8.20939 -3.72845 -7.77415
0.493685 9.89836 9.86806
-4.2718 6.37797 9.99979
-3.91446 5.65836 2.48519
-5.98609 -7.87073 -10.0163
-4.58915 -2.48149 18.9085
8.62514 -5.10433 -3.13926
-3.63846 4.17711 18.911
9.6653 5.19824 10.0047
-2.65792 2.83549 5.27971
-6.31021 4.07963 -10.0121
-3.52366 -7.91111 -10.0096
5.98499 -7.88019 -10.0067
-8.09382 -2.28836 5.75423
8.51308 2.57629 -5.42157
11.8039 5.19369 6.11299
-6.3142 -3.41835 4.92788
4.03874 6.74327 -10.104
11.8071 6.08226 -5.23323
11.7022 2.92124 5.48535
-8.07272 -9.83844 7.76403
-5.34923 0.265403 -10.0458
-2.97256 -9.82984 -9.8575
6.14941 -5.29788 -18.7932
-1.56829 -6.34174 10.1552
11.6795 -6.17717 -0.0971058
7.88504 9.85418 0.89037
-2.31568 0.943685 5.94058
1.68812 -2.83822 -19.0029
-4.10257 -7.99435 -0.95382
9.60782 -4.57222 10.0045
-1.13399 4.08055 5.23684
6.49138 5.19085 -11.9173
10.2215 -8.33539 10.0281
-4.92166 1.96974 15.3895
2.83599 -4.70665 -19.0033
-5.27995 -0.422015 10.124
-6.05775 5.33775 2.75407
3.57874 -6.79378 -17.0603
-3.21145 -4.88961 13.6068
9.80956 -5.95966 0.741138
5.30688 9.79689 -4.98672
-1.58428 -0.653166 -5.98035
11.8081 7.98367 0.528716
-0.736148 2.35182 5.57108
7.15197 4.51475 -13.6251
2.00041 -7.01862 17.2487
7.28233 -4.55169 -10.1132
2.62653 -4.28248 5.94319
11.6999 -4.98515 -9.82299
8.51073 -1.24599 18.8945
11.6841 -9.84727 6.30079
-6.50971 -10.0088 4.84385
-3.84444 7.80205 1.92451
-4.20253 8.2039 10.0138
6.27879 0.984375 5.92592
-8.06803 -9.89708 -4.17859
9.9499 -1.04055 -5.91218
4.07228 -4.87834 -5.55271
-8.03671 9.89538 -3.18006
11.8066 2.33922 -7.77177
-1.19115 -4.07891 -19.0069
-5.5348 8.19634 -10.0149
7.64927 5.83404 -1.91461
8.38854 -2.37751 -5.5103
6.22916 5.42159 13.6084
3.80648 -8.35432 -10.0056
-3.95597 -4.31312 10.0952
11.6235 8.13008 -9.90034
8.67052 -1.33874 12.6344
11.8065 7.60103 -3.67637
8.05106 4.14358 -4.33527
-6.11303 10.0199 8.17191
-8.05977 -2.72373 9.87271
-0.457739 0.387119 5.99687
11.611 9.89346 5.101
-0.535088 6.60261 11.7828
3.01551 -0.873453 5.95946
-2.19984 -2.92475 19.007
2.32067 -1.08566 -5.99843
2.12049 7.02052 17.0163
9.84736 -10.0084 5.45653
-2.46991 -2.47585 -19.0043
0.490776 9.85631 6.0202
-8.01076 -0.233233 -9.94522
-8.1172 -9.82165 4.0982
7.09816 5.31375 3.09835
-3.67763 9.90923 2.93908
9.62411 10.0052 6.05989
0.576985 -4.20727 5.8823
11.6247 9.87099 3.36207
11.642 -3.9305 4.67625
-4.32288 -9.90984 -1.03388
8.50828 -1.47125 -18.9407
11.8064 -1.93021 -7.92568
11.8079 8.27968 4.41301
-2.12515 -3.97494 -4.64528
7.98461 3.29709 15.4791
9.23912 8.17499 -10.0231
9.79923 -7.4431 -10.0092
9.49027 7.74936 10.0146
8.1574 -0.387822 5.99833
-4.01357 -4.25436 -10.1182
-0.291314 -6.36234 5.62661
8.21455 -3.24092 -10.1235
2.41805 -9.79402 9.9171
-4.36617 9.90433 -0.315967
1.10299 -9.80061 -9.9111
5.99919 4.20699 -4.35747
7.55974 3.97689 13.6347
-3.28478 -4.80655 -11.8471
6.97055 5.12039 -3.24645
-5.99918 10.007 6.34846
2.44943 0.966894 19.0016
1.5385 -7.00251 -11.8273
8.7834 -0.143387 -11.8489
5.48474 8.02944 4.72988
5.75197 -5.77882 -13.6617
-6.16931 10.0138 -1.51093
1.43532 1.13558 -19.0029
11.6729 -9.87965 8.11049
-6.05098 -10.0085 -2.83024
-5.14943 0.876302 17.1154
-6.61906 1.99163 -10.0127
1.81609 7.47392 -6.01597
1.01531 1.74272 5.95464
-2.98045 9.89309 9.79693
2.96828 -7.04036 10.1145
-4.79164 -2.3083 -5.54211
-8.11022 -1.0353 9.7891
4.67583 -7.93995 5.26703
-1.75431 6.05685 -17.3388
4.2657 -6.69503 -10.1137
-6.6158 5.40072 -2.59976
11.803 -6.69465 6.64321
1.61241 -9.87745 -6.14417
-6.19484 5.90864 1.01199
-8.07747 -6.08832 1.07282
0.324936 6.8469 13.4341
9.69013 -5.90628 -1.05406
-1.15186 -4.95874 5.23536
2.44799 4.78997 5.97308
11.7396 -2.27933 9.81618
-0.710606 6.54128 15.2994
-2.50143 -5.52791 15.2977
7.02497 -9.92667 3.2656
-4.62414 -8.35747 10.0117
8.79843 -0.145218 -15.4389
-3.17679 -0.748731 5.96595
4.83746 -4.09727 -19.0069
8.28915 2.28591 -18.8291
11.7069 6.1323 -0.326565
4.24088 -8.35482 10.0079
-3.52054 -7.66342 -2.76436
-5.20192 1.09217 10.1363
8.21991 1.54949 5.79503
-8.0657 9.86051 -6.54863
-3.93092 -9.87794 2.30093
8.76332 -1.50588 10.1855
-3.1668 10.0138 -8.13578
0.251245 -9.88481 5.90726
8.13281 6.38496 10.002
7.01863 -7.57428 -2.95456
-2.48191 5.69644 10.1134
-2.71533 -2.37304 -5.50816
6.49467 6.64154 -3.74729
3.43761 2.06142 -5.75757
5.93609 -5.81371 -10.1147
-8.09738 2.76682 5.55159
-5.96252 10.0066 2.53896
-6.31398 -3.41253 -10.0098
6.93578 -5.24959 -3.25767
10.1589 -2.40502 10.0059
-0.114922 -10.0096 8.00014
11.5969 -1.77873 -9.89529
-2.87524 -4.971 -18.8195
2.20384 -9.85193 6.15193
10.1804 -5.37607 -2.63744
-4.08135 10.0068 7.81784
8.22272 3.16746 -10.1224
9.0324 -0.0462491 10.043
11.8062 5.92569 7.9425
-6.40275 6.49898 -10.0088
9.59422 -5.2227 -10.0025
1.25718 6.97874 15.1971
8.77702 0.67418 13.4091
0.569782 -7.1242 -10.0707
-5.06118 1.94579 -10.164
-0.956293 -7.86735 -5.32423
1.56323 -7.01184 -17.0989
-5.05924 5.35313 -9.99966
3.04334 -3.08433 -5.87157
8.77928 0.348782 11.6952
7.96942 -0.713973 -5.97141
3.43734 8.28665 -5.76289
-4.10531 -7.99591 0.997682
10.0529 -3.14277 -10.0064
-4.22951 9.8453 1.29253
-2.62389 10.005 6.71371
1.70886 7.0158 -17.1066
7.3878 9.9141 2.61122
-8.08255 2.97925 9.81925
-8.08138 -0.708085 -6.11079
-5.09327 -1.25371 17.1223
-6.10098 5.93443 -0.902311
4.87496 6.28015 -11.8616
0.309596 2.50641 -5.81109
4.84404 3.10865 -5.20742
8.25691 2.69686 -13.478
1.21028 -0.410406 5.99836
5.82719 10.0047 -6.58591
11.8046 4.33309 -6.48997
3.44422 -6.82084 11.8725
-4.6181 -3.18713 10.1434
1.99782 7.09939 -10.1067
-4.69737 -2.64526 -17.1042
-4.84848 10.0063 -6.73494
-6.05027 -0.819713 -5.94864
-4.91519 2.00224 11.9366
-0.778897 -2.55147 -5.4995
1.13614 -4.97536 19.0055
6.70182 1.78883 -19.0123
2.25109 -7.16984 -10.0682
-0.52944 6.47233 -18.8132
-1.03649 6.24068 18.8849
2.09514 9.89602 -6.08835
11.8056 -7.7318 -2.81469
-5.12517 -1.79836 10.1218
-1.44205 -6.21198 -15.463
7.92761 -3.04898 -18.9003
-8.01472 -9.88881 -6.45371
2.11915 6.60438 6.01466
11.7184 -5.8728 -1.85667
3.35198 -6.84027 -11.7123
6.5513 -1.01997 5.92573
-4.81937 -0.527307 5.99205
5.26193 -6.06982 4.90508
-4.36334 3.52521 -10.1346
8.76892 -0.877364 -17.2366
8.30045 -8.16207 10.0086
