1.47789 5.68817 0.44179
-3.17176 5.90513 -1.04046
-2.75933 5.36885 -1.35751
0.710533 5.53583 -5.30183
0.674927 7.04419 -4.59573
2.38016 5.02975 -0.922528
-1.29599 6.8534 -2.92852
-2.21899 6.97981 -3.12741
-2.84494 6.2957 -0.929091
-2.56941 4.94589 -2.57326
0.511859 6.66625 -5.22104
-0.0199487 6.16562 -3.42264
-2.90274 5.39927 -2.13677
0.676702 5.01344 -0.268776
-0.490614 6.54271 -5.30882
-2.21074 6.56851 -0.311034
0.689841 6.46667 -2.89619
3.11905 6.42559 -1.7725
-2.97206 6.57337 -2.91182
-1.9079 4.86082 -4.26088
1.50075 5.23752 -1.88267
-2.2691 5.26263 -0.58437
1.15681 6.35705 -2.28258
-0.104639 5.49589 -5.33492
0.0517227 5.93453 -1.03649
1.32036 5.28537 -5.15157
-2.83961 6.68896 -2.49845
0.445046 7.01656 -0.622294
-2.92772 5.4638 -1.72672
-1.28122 7.14132 -0.269655
0.872481 5.96222 -2.90129
0.714417 5.81319 0.772261
1.38394 6.42208 -4.92035
2.08777 5.75566 0.0199585
0.255148 6.9771 -5.19153
1.60672 5.09401 -1.53518
1.77451 7.18974 -4.19853
-1.10452 5.14256 -3.35477
-1.54512 6.03924 -4.94262
1.31441 4.768 -3.35557
-0.701828 5.30353 -3.05551
-1.2792 6.51786 -2.62368
-1.43064 6.54061 0.372138
-3.37689 6.16289 -2.16777
-2.74744 6.12185 -0.563922
-1.78444 4.69375 -1.3898
0.238492 6.45483 0.84038
2.39642 6.54362 0.0311841
-2.50812 5.0756 -3.40752
-1.11142 6.81415 0.454505
-0.782421 6.87969 -5.20189
0.0891117 6.42524 -1.05241
1.06343 6.5289 -2.77259
-1.44177 6.66913 -2.29639
0.552019 5.04433 0.7071
-0.16911 5.01437 -3.91805
2.18647 4.69836 -2.10627
1.64751 6.99141 -0.626238
0.871596 6.0134 -2.31961
-1.89781 5.08057 -0.583652
2.46671 5.17513 -3.26225
1.50426 7.0653 -3.73911
-0.00630137 5.78051 -3.43021
-0.392246 6.47021 -3.39366
-2.18261 6.18869 -4.53925
1.37089 5.06594 -4.2759
-1.05987 5.45387 -1.39208
-1.24141 7.01752 -3.92885
-2.24947 6.86762 -3.56899
-2.19916 5.07747 -0.965693
-0.130307 6.99196 -4.03672
-2.54274 6.69772 -0.989693
2.37301 5.51488 -4.55932
0.995447 5.05569 -4.46521
1.80841 7.27752 -1.64276
1.34873 6.96363 -0.297513
-0.120773 6.11465 0.855649
2.31141 6.89965 -1.15707
1.51154 5.26279 -2.30146
-1.442 5.07041 -1.48364
2.67869 6.47678 -0.266381
-1.52537 5.05909 -3.28515
0.752006 5.11062 -0.839215
-1.34226 5.23649 0.390137
-2.04838 4.68219 -1.72957
2.23378 5.13557 -3.58412
0.286526 5.01813 0.348272
1.25482 7.08814 -0.741705
-1.49938 4.71922 -1.15543
-0.828186 5.48587 -2.76839
0.97642 6.63477 -5.06625
0.650402 6.98334 -4.16373
2.60473 5.35373 -0.991019
2.63553 5.58676 -4.29866
-0.502186 6.54633 -1.36917
1.80959 5.7801 -4.88263
-0.718163 5.11431 -3.48798
-2.5426 5.30231 -0.978126
1.02332 6.82449 0.724739
2.95143 6.53845 -1.40964
-1.94011 7.30061 -2.40025
-0.184936 5.17371 0.871461
-1.17621 5.25903 -2.97671
-0.326769 5.7739 -1.05708
-1.63262 5.8628 0.519314
-0.548382 5.23897 0.8772
-2.78124 5.7479 -0.33572
1.0176 6.7102 -3.15333
-0.23138 5.91431 -5.32654
2.00557 7.29441 -1.95756
2.6283 6.74723 -3.19376
3.12754 6.40269 -2.19024
-1.07611 6.12499 -2.50859
2.86002 5.46741 -3.32391
1.38699 7.10804 -4.12052
-3.14618 6.44616 -2.51483
-0.468381 5.18439 -3.28589
1.7805 7.12145 -3.41105
-0.255121 6.25546 -1.1289
-0.939627 5.13887 0.339462
-0.666004 6.88318 -0.698019
-0.834609 5.8993 -1.49472
1.16773 5.31053 -1.53316
-2.44236 6.60588 -4.37586
2.11022 4.69869 -2.48678
-2.72997 6.5274 -4.06214
-2.46369 6.16149 -0.258308
-1.35189 5.13106 0.0222045
0.616277 6.90224 -3.76898
2.0381 5.14487 -3.89762
0.268299 6.98611 -4.28135
1.70391 5.08017 -4.05767
3.1661 6.28452 -1.0461
0.205562 4.98755 -4.04468
-1.40196 7.11422 -3.4745
-3.03281 6.50891 -2.09047
1.92875 7.23183 -3.88377
-0.124964 5.06087 0.444335
-1.38658 4.93557 -4.25297
2.18517 6.95365 -3.87847
2.39163 6.25654 -4.18609
1.75381 4.8832 -0.085243
-0.188544 6.96938 -3.4972
2.91707 6.39298 -0.58117
1.83255 4.97731 -1.99059
1.66423 7.10328 -0.986239
2.81734 6.68863 -1.87435
2.91933 5.45793 -1.81606
1.40678 6.78554 -2.92676
0.560017 5.15572 -5.29215
0.610069 7.02095 -5.08241
0.522826 5.37475 -3.42653
-1.74102 7.27158 -2.74737
2.45627 7.04428 -2.9339
2.85078 5.63304 -4.0079
0.902631 5.11906 -4.91306
-2.06054 7.31386 -1.98638
-3.0792 6.38217 -1.68736
-1.8707 7.02161 -3.4656
1.44163 5.65082 -5.09137
-2.59285 5.01746 -2.16255
0.620274 6.12191 -3.15876
-0.885476 5.69436 -2.47364
0.960049 5.21022 -1.17574
1.6288 6.84588 0.0348535
1.45754 6.02422 -4.99237
1.82925 4.90482 -1.17374
-0.217338 6.74665 -1.14562
1.01071 5.01748 -0.482823
-2.50496 6.9348 -2.52592
2.42978 7.02899 -1.99292
1.5763 5.02687 -2.76345
-1.4138 5.01312 -0.362972
0.64695 5.38417 -1.445
-0.191888 6.59835 0.800334
-1.17609 6.34425 -2.14472
1.34113 5.16586 -4.73523
-0.545333 4.98525 -4.74663
1.0762 6.45644 -1.49769
2.89952 6.49289 -2.96355
-1.6056 6.87225 -4.54921
2.34617 5.67752 -0.287676
0.206467 6.94261 -3.80923
-1.97672 6.89217 -3.89734
0.67442 6.56159 0.811149
2.70647 5.9941 -4.01336
-1.94614 6.92556 -0.290866
-1.85439 4.87984 -0.995385
-1.7352 6.28294 0.290102
0.587722 6.91171 0.761936
0.699478 6.79474 -3.42462
-0.148704 6.31909 -5.32734
-3.16557 5.72443 -1.85257
1.18832 5.6012 -2.30942
2.18945 5.0567 -0.517601
2.39573 5.37064 -0.577961
0.286998 7.01701 -4.74161
1.04528 7.07165 -4.37384
1.10796 5.86036 0.649444
2.03892 6.74789 -0.0530386
0.758682 6.26463 -1.26338
-2.13874 4.87065 -1.35446
-2.89216 5.5724 -1.00063
2.95014 6.54574 -2.51723
1.73617 5.21874 -4.53376
-1.54821 6.948 -2.60505
-1.61365 7.00271 -3.77316
0.184123 5.11272 0.820257
-2.62795 6.68341 -3.68162
3.02504 5.5481 -2.9578
-2.74374 6.14549 -3.93212
1.81517 5.44543 0.133502
0.311884 5.01127 -0.0990787
1.54496 5.23716 0.278242
1.96108 4.87234 -1.6064
2.91808 6.09009 -3.61456
1.06791 6.15863 -5.12373
-2.50842 6.48351 -0.624976
2.82357 5.67775 -1.02496
-0.186205 5.08159 -3.45793
1.41223 5.09447 -1.17279
0.288326 5.96525 0.851671
3.20754 5.80148 -3.34916
1.70833 6.7154 0.474406
-1.22586 7.17431 0.188436
0.911795 5.2078 -3.31941
-2.97577 6.44119 -3.70545
-1.71475 7.00982 -2.18961
1.62059 6.86329 -2.57629
-0.848341 7.00409 -4.16085
-0.55119 5.03021 0.0319977
0.59577 4.99697 -4.26182
0.366663 5.62952 -1.13974
1.08357 5.49029 -3.00798
2.92066 6.03365 -0.798972
0.88168 7.12686 -1.00373
2.0516 5.27569 -0.178397
-0.986259 5.05484 -3.76269
1.71581 5.35621 -4.98734
-0.499518 7.02693 -3.87138
0.389733 5.8303 -3.37774
2.5711 6.83864 -1.57609
-2.77938 6.5784 -1.32217
-2.17349 7.10694 -2.72973
0.314341 5.52769 -5.34095
-0.024885 6.58025 -3.41761
2.10068 6.20088 0.183615
1.79971 4.94304 -2.40478
-1.95099 4.90371 -3.07993
2.29799 4.72137 -1.67302
-1.4015 6.42979 -5.06306
0.610531 5.05014 -4.65679
-1.52677 4.88771 -0.72944
0.202202 5.01508 -4.50401
1.77029 6.23382 -4.74623
-3.3685 6.16549 -2.53182
2.88611 6.5219 -0.945302
0.196874 4.99369 -3.55521
2.07413 5.44068 -4.78799
-1.49373 6.89167 0.174945
0.439313 5.2019 -1.18432
1.77652 7.03815 -2.20142
2.29072 4.9363 -2.87832
0.774977 5.67193 -3.21531
-0.155283 7.01617 0.710735
-0.017881 6.79037 -5.30138
-2.06979 6.33594 0.00433726
-0.479123 6.97157 -4.82163
-1.34516 6.17042 0.55021
1.18107 5.48071 -1.92967
-2.34721 6.7518 -4.00221
0.659993 6.18615 0.802173
0.969092 5.24069 -5.25252
-1.37271 5.00994 -3.73202
-0.706898 5.6211 -1.18023
-2.54094 6.79022 -3.27965
0.0838891 6.96497 -0.499083
0.450236 6.57949 -1.05926
0.16558 5.06677 -0.993644
3.15713 5.65492 -2.55262
-1.36632 6.90668 -1.13662
2.47749 4.91029 -2.04553
-0.663027 6.74067 0.666909
1.06896 6.1795 -1.91672
2.29599 6.72295 -0.391441
-1.91263 5.39536 -4.53285
0.703928 4.9786 0.196309
-0.63357 6.14621 -5.27925
0.792716 5.5714 -1.72135
-2.24825 4.77793 -3.57821
1.35234 4.91574 -3.79667
-2.11699 5.20988 -4.23535
-3.00714 5.56482 -2.51092
2.19905 7.29625 -2.73623
1.08356 4.94588 -0.0547907
-2.46098 6.96147 -1.40884
-0.534496 5.10835 0.470741
-1.20464 6.95671 -4.3596
0.0392389 5.60473 0.884378
2.39532 6.10745 -0.102384
-2.31443 4.69531 -2.42332
1.2038 5.37259 0.528717
1.7553 6.3275 0.437619
-3.20971 5.80575 -2.26113
-1.0275 4.97898 -5.00811
0.131481 5.10394 -5.30459
-3.00813 5.82169 -0.690569
-2.94755 6.06243 -3.55775
-1.74065 5.16112 -0.214019
-2.82634 5.70862 -3.43584
-2.21976 6.87999 -0.640597
-2.78552 5.25477 -2.55944
-1.13694 6.13109 -5.13972
-1.03322 7.12209 -3.30099
1.62793 4.73032 -3.12445
0.909871 6.01828 -1.60011
-0.989845 6.65816 -1.33294
-2.67308 5.1859 -1.77326
-0.925919 7.06943 -3.70603
1.90258 7.1171 -2.59392
-2.87234 6.60192 -3.31112
2.65804 5.23108 -2.92239
-1.89669 5.89816 -4.68678
-0.266712 6.89251 -0.712454
1.60105 6.9688 -1.83708
3.1756 6.25584 -2.69505
-2.57147 5.41718 -3.65922
-0.380146 6.90816 -5.25496
1.09842 6.88872 -3.56157
2.10321 4.76412 -0.816089
0.631384 5.9306 -5.27526
-1.62463 5.6224 -4.8214
-0.488212 6.99428 -4.35567
2.63996 6.71549 -1.17555
-0.315101 4.95864 -0.388991
0.434888 5.48613 0.824985
0.89586 4.99896 0.571098
-1.19179 4.75145 -0.960758
-1.00244 6.45284 0.612578
-1.68933 4.90622 -3.90885
3.40686 6.05572 -2.24282
-3.07205 5.66309 -1.38466
-3.17498 6.34239 -3.30155
2.73733 6.78047 -2.25106
0.864755 5.79265 -2.02263
2.49099 4.99483 -2.49613
-0.842705 4.80526 -0.866112
-0.195687 5.00565 -4.38302
2.26245 6.61234 -4.07457
-1.80622 6.68028 0.028072
-1.63336 5.23667 -4.73191
2.59826 6.36559 -3.82168
1.38876 6.73217 0.637775
1.43656 4.91494 -0.376812
-0.398898 6.00044 -3.35336
-2.00465 6.81248 -4.31556
-2.44127 5.45922 -0.292715
-0.666306 5.01244 -5.15311
-1.75385 7.0349 -1.76968
-0.869365 7.12506 0.428389
3.08053 6.1727 -3.17346
-0.703428 4.92396 -0.425657
0.929065 7.05744 -4.94506
0.854829 6.93131 0.389559
0.526774 7.02778 -0.966794
-2.3157 7.118 -2.2474
-0.56186 5.7106 -5.27636
0.993152 4.95187 -4.01352
-2.42627 5.89989 -4.19237
-1.30136 5.30839 -4.96852
0.665696 5.82047 -1.33986
1.89688 4.70541 -2.82365
2.13847 7.29948 -2.30735
-1.04326 6.86734 -0.90854
0.988402 6.96419 -0.0768847
-1.39609 7.07174 -0.677955
-0.201531 6.9846 -0.183993
2.0514 6.627 0.297147
-1.97124 5.93366 0.298033
-1.04078 5.73735 -1.77257
1.96436 7.09382 -1.24416
0.322401 6.32551 -3.32229
-0.989456 6.99786 -0.487545
2.63111 5.70662 -0.650636
0.844348 5.42386 0.698811
-1.56697 6.76732 -4.97628
0.127426 6.91086 -0.99539
-0.981799 4.9611 -4.56472
-1.25153 5.38311 -2.57922
-1.23428 6.90707 -4.76147
0.580333 4.92933 -3.53997
1.06332 5.72645 -5.2022
-2.1113 7.31392 -1.57876
1.42998 6.91867 -3.3065
-2.64345 5.77741 -3.8319
1.9445 6.82599 -4.30862
0.503498 6.64343 -3.13949
1.48156 4.88324 0.12434
-1.8315 6.33736 -4.82642
1.52912 7.13456 -4.51209
3.39287 5.96489 -2.58393
-1.16605 6.8199 -5.13131
1.92264 4.80833 -0.410845
1.36014 6.85859 -1.5529
1.32923 6.60159 -2.53171
1.48116 6.70841 -2.17072
-0.350158 5.62077 0.892861
-0.334115 5.54197 -3.34506
-0.105938 5.01718 0.0129413
-0.703204 6.7015 -3.32077
-0.56798 6.97949 -0.313094
-1.05027 6.32711 -2.91191
2.21374 7.08355 -1.60042
-1.74696 4.90838 -1.72706
2.64207 5.39001 -3.66261
-3.3662 6.06698 -1.83346
-0.786688 5.21052 -1.04937
-1.96475 4.91686 -2.63817
1.65821 4.91186 -0.769838
-1.22651 5.35593 0.755559
3.04369 5.71516 -3.70332
-1.1359 5.60902 -2.16233
1.42219 6.17791 0.568201
-3.16937 5.87128 -2.73374
-3.06251 6.24484 -1.28282
2.82928 5.3297 -2.58847
2.2393 4.73491 -1.24236
-0.500451 5.34963 -5.27298
1.85693 6.86941 -0.361997
-1.73447 7.07827 -1.36955
-0.642582 6.74655 -1.05974
-2.67423 5.49992 -0.643447
-1.59983 5.15024 -1.95762
-1.45195 6.71023 -1.91496
0.069521 4.99631 -0.470784
-1.40021 5.36417 -2.17788
-2.09134 5.33099 -0.129141
2.6442 5.12154 -1.71932
-1.88933 6.72603 -4.79468
-2.2683 5.98106 0.052998
-1.405 6.78856 -1.5221
-0.117874 7.0292 0.276887
-3.30654 5.97643 -1.46759
0.346711 5.05432 -4.94273
-2.67777 6.82551 -2.12476
2.10018 7.25347 -3.5457
1.20278 4.94204 0.377315
2.53013 5.0533 -1.34321
0.109418 5.40652 -3.45339
2.98652 5.48409 -2.22967
-1.85101 4.90199 -3.50847
-0.932325 6.47466 -5.22748
-1.60962 6.92806 -4.16132
0.411218 6.11397 -1.10332
-1.95632 5.51895 0.429792
-1.70344 4.90665 -4.52343
1.28287 5.09342 -3.09388
2.72892 5.19887 -2.16596
2.09396 5.28476 -4.31438
-1.11188 6.49021 -1.73222
1.29851 6.54197 -1.85354
2.78119 6.42805 -3.41181
1.07117 6.35204 0.718149
-2.36482 5.50361 -4.06215
-0.665924 5.74078 -3.14552
2.06363 6.37589 -4.44868
2.0818 6.90181 -0.783954
3.38209 6.11381 -1.83962
1.33679 5.37159 -2.69011
0.898633 7.04438 -0.540144
-0.692042 6.35455 -1.61288
0.202995 6.93447 0.785573
0.185376 5.92337 -5.32989
1.55657 7.24414 -1.38616
2.47319 6.70477 -3.64517
-0.882829 5.93418 -2.16014
-2.39129 4.91407 -1.74651
-2.33571 4.74516 -3.20812
1.74509 4.92548 -3.57813
2.81798 5.45163 -1.39787
0.2952 6.99418 0.412808
3.12762 5.78729 -1.62554
3.30007 6.20353 -1.43336
2.40979 5.93067 -4.3772
-1.3019 5.40042 -1.74479
-0.821733 5.64798 0.839851
-3.06368 5.91202 -3.14021
2.41746 5.35177 -4.01719
-0.0863272 6.99171 -4.95765
2.03896 4.91345 -3.23826
-1.58382 7.19742 -0.111127
0.00351627 5.45689 -1.00666
0.233614 6.83423 -3.3754
-2.59887 6.82014 -2.88844
1.07094 5.75398 -2.64959
-1.3831 4.93194 -4.77233
1.22919 5.05187 -0.813666
-1.83488 7.14438 -3.10522
-1.7697 7.25753 -0.454759
-0.977206 5.02753 -0.10957
2.10458 5.92807 -4.63431
-0.819399 6.14615 -1.88282
-0.893393 7.08908 -0.0489958
2.16884 7.28165 -3.14185
-0.55749 5.04175 -3.85391
-0.263868 5.04858 -5.2476
-2.10377 4.81785 -3.93495
-0.556438 6.35404 0.769438
-1.6469 5.14849 -2.43368
2.65841 6.05197 -0.419027
-0.394489 5.32207 -0.974552
-0.490748 4.87406 -0.832633
0.586549 6.9734 0.137593
1.34438 6.80047 -4.83018
3.06037 5.89203 -1.23595
0.429323 5.04873 -0.629274
1.69779 6.67011 -4.62357
-1.59076 5.12349 -2.85861
1.78866 7.05364 -2.99124
1.27349 6.88292 0.251275
-2.2888 7.03268 -1.02695
-2.23617 4.68774 -2.07162
-1.75121 5.29673 0.181782
-2.62665 5.08647 -2.96883
-0.499424 7.07363 0.594868
-2.54084 5.69195 -0.0448665
-1.91458 4.90996 -2.16724
1.7841 5.90724 0.309041
1.10695 6.87062 -1.28194
3.32863 5.89039 -2.96096
-1.97462 7.26826 -0.772836
-0.850431 6.95634 -4.67833
0.702356 6.31443 -5.2139
0.96072 4.82448 -3.51687
-2.50042 6.25292 -4.26941
-2.17584 6.63679 -4.62002
-1.14974 5.074 -1.19252
-1.09786 4.8927 -0.544768
0.818848 6.24254 -2.59768
-0.935953 6.0641 0.730766
2.46513 7.05852 -2.45001
0.199224 6.99014 -0.0506716
-1.27174 5.71347 -5.03893
0.600004 4.92943 -3.87097
-1.60991 5.44015 0.61455
-2.45474 5.10589 -1.35997
-2.34215 5.12831 -3.84284
3.20873 5.76273 -2.06545
-0.595785 5.00324 -4.2878
-2.72861 5.38805 -3.24788
-0.526661 5.96478 0.836056
2.52904 6.68716 -0.727784
-0.568215 6.07564 -1.27929
0.807999 6.68047 -1.16244
-0.102066 5.01304 -4.85169
1.26353 7.20155 -1.15231
0.575714 6.99702 -0.259514
-0.518509 7.06112 0.148118
-3.29584 6.26993 -2.9254
-0.998139 4.99888 -4.13209
-1.68167 7.13865 -0.958984
-2.15088 5.70606 -4.40656
1.20792 7.11294 -4.73932
-0.148577 4.96124 -0.877372
1.03206 6.98288 -3.94044
-1.02102 6.67319 -3.12086
-0.0998508 6.99333 -4.51265
-2.42143 7.0563 -1.82175
-2.35359 4.71705 -2.83451
2.69458 6.79627 -2.72358
-0.595428 7.04403 -3.45404
-0.90732 5.92959 -2.87185
-0.917048 5.82267 -5.19022
-0.742996 6.23591 -3.20377
-1.2507 5.75953 0.707132
2.36814 7.01054 -3.40158
-1.43356 7.21609 -3.06998
-0.920922 5.39638 -5.15457
0.266204 6.34273 -5.29933
-2.25782 5.56775 0.204366
-2.06777 7.30449 -1.19542
-2.90359 5.52742 -2.92703
-2.75394 6.71781 -1.72226
-0.890806 5.26596 0.808467
