4.51102 4.94961 -5.36434
3.67941 6.56553 -18.9998
-4.38619 1.55119 -5.79471
-4.36697 -9.99964 5.19878
1.06197 9.71489 -5.96028
5.45121 5.98301 -13.4026
11.7995 5.25749 -5.592
-2.5632 5.47286 17.6126
6.35972 -9.99948 9.62938
-8.19955 -1.17595 7.99674
-6.45079 6.22048 -9.99939
-6.11531 8.13845 9.99946
2.38831 5.321 5.9778
-4.1979 7.85223 0.337052
7.97572 3.29933 -11.6053
11.7995 2.13702 -8.04015
-7.92521 -9.99948 -5.98922
-2.37685 6.50505 -4.32429
-5.07093 -1.34069 17.4375
2.53995 -5.06899 19
11.7995 -6.18717 -4.34416
-6.53074 0.808233 -5.96374
5.74294 5.76537 -4.52407
1.36244 -9.77597 -9.99953
6.4557 9.63868 -3.7839
-8.19943 -6.13883 9.81105
5.35837 -9.77482 -4.84356
11.7996 6.09906 -0.834143
-8.1996 -3.3084 5.29265
1.74302 -6.48777 -6.00814
-0.946406 6.43635 -16.9107
-8.1995 8.09385 1.58747
7.87714 3.93779 -9.99994
7.46899 -9.9994 -9.68376
7.45158 2.72794 5.34256
11.7995 6.45884 4.39899
1.63594 0.279421 19
-4.31164 -8.43989 9.99953
10.4809 5.33493 9.99938
7.27375 4.3634 18.7978
-2.4561 9.99932 4.65809
-4.09836 -8.12832 1.10773
4.61751 -6.41451 15.015
8.43998 2.24956 15.4988
4.48206 -3.97923 5.3745
11.7994 -0.0152929 6.25938
5.49333 5.6764 -18.9999
3.19859 -6.87438 -10.2543
3.36727 -5.35622 5.81747
-8.19951 2.99703 -9.76677
7.74013 -3.70207 -17.509
-8.19954 -8.19363 -2.20829
9.70659 -9.99958 -1.07011
2.29362 6.76658 18.9995
7.83585 3.04974 -19.0001
-1.45589 8.09747 5.05843
6.76777 -4.94252 -16.78
-6.4526 -8.14495 9.9994
1.87363 2.22314 19
-8.19956 9.67646 -5.9469
11.7994 7.28722 -6.12832
2.80803 1.14864 -5.90183
1.6913 -8.3376 6.00015
-8.19965 -1.29655 -6.07243
11.3355 -9.6852 -9.99919
-3.99157 -7.94398 -9.99948
4.30203 -6.54665 -16.3182
11.7996 -1.58246 9.67594
-3.04877 8.13289 -3.54422
-8.1995 5.82783 -8.00329
-1.0179 -6.40577 -14.46
9.91595 -2.1002 -5.63363
7.67801 5.56856 -2.23304
7.95834 5.94635 0.817397
11.7995 -7.45843 2.59107
11.2809 9.99953 9.78083
-4.47929 -9.9996 0.0364048
2.83525 6.92132 -11.6351
7.21014 -4.4386 14.1381
-6.53261 9.99953 -4.99825
4.27889 9.72176 -9.99947
-8.19954 -8.77067 5.59503
6.8825 4.85924 -3.5667
-3.88212 4.092 12.548
-4.81838 -1.24838 18.9995
4.56173 6.44208 16.5742
-4.49451 -9.99932 1.46327
-8.19955 -9.76792 2.67324
-6.27851 4.4344 4.05234
-8.19951 -2.20893 -7.88153
11.7995 7.1832 2.2818
-8.19983 6.22529 1.18967
-8.19957 -8.00695 3.64273
-2.82355 2.0358 5.67671
-2.59203 -5.44825 -15.3166
11.7994 -6.25241 -0.373138
1.22682 -9.99949 9.75408
-0.833917 -6.48291 -18.7438
8.47757 -1.02429 -18.9998
4.23404 -2.9235 -19.0001
-4.68389 -2.66668 16.0409
-2.49318 3.59177 4.80348
0.548481 -9.99952 -8.08306
4.18763 6.39997 18.9999
4.42693 6.49867 12.7331
9.48472 -3.74671 -4.68934
-8.19949 -5.80187 8.31499
11.7997 0.891017 -9.79063
-4.71122 2.6043 16.2971
-4.39678 -3.2644 18.7247
-6.60202 6.09859 9.99947
-3.97669 3.95325 18.7508
-6.05041 -9.99961 -2.8235
11.5298 -4.65506 -3.80096
9.5025 -5.43208 2.56375
-5.17909 5.18363 -9.99955
11.7995 0.298202 -7.54472
-4.72547 2.56022 11.9386
-2.27232 9.83546 -4.42028
-3.04966 -5.06321 18.7872
4.49826 7.32239 -5.37862
-0.814632 9.99916 -5.64275
10.2084 9.99953 -3.75076
-3.92505 6.44918 -9.99956
-1.59002 8.0538 -4.96058
-4.27669 0.795513 5.97098
9.88634 -3.07921 9.99961
0.983735 6.97044 -11.7674
7.05126 8.44851 2.89423
-3.78067 -9.99957 2.88046
0.500061 4.76428 5.88277
6.18296 -8.55114 4.11264
6.38489 -6.8966 3.90064
-7.94725 9.99965 -9.56224
2.84166 -6.91771 18.7293
1.96311 7.0175 -13.5782
8.22645 -9.99967 -5.00927
-3.69069 9.99955 -6.22969
11.7994 -7.94449 -8.20057
-6.43342 2.44608 -5.47501
7.00539 4.68624 -18.8505
8.15349 1.34764 -18.9998
-4.48946 4.19743 4.28759
-8.1995 -3.55953 -9.2319
11.7995 -2.84132 7.52288
8.79365 -0.155978 15.4911
-0.811231 5.86741 -5.41562
-5.13314 0.966762 14.7805
9.4428 -9.99948 -6.58695
-8.19949 7.97487 5.51101
-8.19956 8.10931 -0.495366
-8.19953 7.69008 3.39614
11.4318 2.89954 -9.99945
-0.338776 -0.614646 -19
4.691 -6.7812 5.27147
8.17831 -2.89917 13.3628
1.95914 9.99952 7.91488
-8.19945 8.51666 7.71577
-5.11699 -1.06555 13.9661
5.60813 8.36417 4.64137
0.80552 -6.94884 -15.1345
9.76701 -5.61751 -2.11848
2.03437 -7.02017 12.243
8.22559 -2.76897 -18.8309
-4.04631 -6.22985 1.35636
5.98552 -5.61696 -15.363
11.5839 5.94032 0.887314
-3.72528 -4.32319 17.1936
-3.52606 -5.43765 2.7913
9.56087 9.99966 2.51414
-1.29046 -6.29142 13.1591
9.83145 3.68498 -4.73978
-8.19968 5.52282 2.93535
-6.07945 9.99961 0.0818347
3.89184 1.58112 5.79739
-2.88437 2.62693 -18.9998
11.7995 -0.867569 7.98459
-0.920153 -9.99945 9.82349
0.170159 -8.47812 9.99956
-1.87114 -8.0322 -9.99949
0.334589 9.99964 -7.94351
0.993493 -4.16699 19
11.7996 -1.19796 -8.47364
1.00916 -5.04902 5.95411
10.2108 -1.17307 9.99964
-1.23354 -6.31375 18.7252
2.00132 6.67991 -18.9997
-7.97118 9.99932 -0.11291
2.80007 -0.867025 -5.93982
-1.12877 -5.36373 5.22832
-4.21601 -9.99952 -1.97958
-4.28599 3.48905 -15.9618
0.830524 -6.95447 13.4982
8.91088 4.72011 -3.73784
-2.23694 -5.73366 17.1035
10.0277 5.75921 -1.76762
2.33522 9.99964 -8.08549
-4.49418 2.39741 18.9998
8.16144 2.92991 -15.6564
-2.59034 -5.18625 -18.9997
-7.97479 -4.38708 9.99958
4.64969 -0.803049 -5.97424
1.05809 9.84103 -9.99947
9.11638 0.690557 -10
7.1025 -9.9996 3.423
11.5849 -9.99937 -8.11324
-8.19955 -8.33365 -0.394261
-6.09828 5.59741 2.16383
-0.433461 -6.65172 -16.6438
11.7998 -4.59729 4.43869
0.623627 6.67681 18.9995
-3.79185 4.22679 16.7115
8.83494 2.36115 -9.99983
-7.91826 1.23861 -9.9996
6.72597 -9.99968 -5.64178
9.68227 5.97269 0.575867
-6.24099 -3.26597 5.03758
-5.53597 -5.66231 2.03185
-1.7516 0.807524 -18.9999
-8.19947 -5.49263 -8.38815
7.68977 -3.7825 -15.5045
2.30698 -6.56988 5.99237
-2.6145 -5.43001 -13.2543
11.7994 -7.86481 9.75458
-2.76884 -9.99967 5.43136
5.9737 -5.62286 16.0663
7.88619 -3.4611 -13.8661
11.594 8.39563 9.99927
-2.35531 -5.96492 -10
11.4537 -0.866065 -9.9995
11.5519 -1.5614 5.79541
-5.20054 0.412326 -18.7134
5.44366 -5.21979 -4.77116
2.16597 1.41503 6.01002
8.90613 -9.99955 2.83034
4.92143 9.75395 -5.11391
11.7998 4.30065 4.52069
8.58987 -1.71335 -13.4609
-6.35674 -9.99961 2.32743
0.953922 5.30182 -5.94827
8.0258 -9.99946 7.93038
4.16437 7.16347 5.51472
-5.11066 5.66697 -1.99273
-1.22613 6.32261 18.7386
0.0537978 -9.99895 -6.04318
7.6854 9.99922 1.94637
2.49601 -9.99947 -8.20041
11.4623 0.299119 9.99952
-1.23 -9.77545 5.18536
11.7996 9.7946 -5.2247
6.19396 -2.80056 -18.9999
-2.49071 5.53197 15.5722
1.63765 -9.99991 6.21867
-6.82903 -0.916111 -9.99972
11.7995 7.75036 -0.329483
8.4319 -1.18907 18.9998
11.7996 6.26662 9.72081
-1.27911 -6.29709 -12.3576
-0.856823 9.72322 -9.99934
1.12701 9.9995 9.76977
-5.13726 -0.961154 11.5555
5.73781 5.78455 18.4288
9.84004 2.06322 -5.65231
7.80285 -7.83489 0.442128
11.6161 1.1184 -5.89673
11.7995 -7.61718 0.946766
4.48133 9.99961 -8.16306
11.6168 -8.06047 -9.99953
11.7994 8.81699 -8.99279
4.47629 -6.48267 12.9253
6.47647 9.99955 -8.82113
3.95122 -5.09031 -5.60002
11.7996 -9.02934 3.34157
-4.66246 4.60522 -3.86796
-8.19955 9.73523 -4.06447
-2.41757 6.71681 4.29433
-4.79866 -2.33425 12.5915
2.11556 -9.99964 7.88228
9.08627 -1.06169 -9.99995
2.944 5.04697 18.9999
0.608596 -1.43248 -5.89667
-8.19957 5.67023 -5.96442
-3.38981 4.6953 -12.0262
9.15104 -9.8093 -9.99938
-5.06179 2.60088 5.40815
11.7997 2.74826 -5.54432
-8.19949 9.79176 4.98696
-7.90296 -0.106088 6.00203
-6.60133 4.20719 -4.27563
11.7996 -5.85331 -2.14887
-4.37865 3.29473 -12.4973
7.87431 -9.99969 -1.04628
-6.81929 -2.87829 -5.27432
0.306993 8.38183 -9.99958
-7.90997 -9.99946 -1.78371
11.7995 -6.74688 -6.31193
1.0356 -4.89884 -19
-1.91904 -5.92978 -17.0112
2.20571 -0.390118 6.00528
-3.31362 4.77755 -16.0474
0.193537 -6.69047 5.78007
1.2447 -1.07286 -19.0001
-2.04738 -3.54852 4.83744
-6.65487 0.326777 9.99964
5.10465 -3.48704 -5.0315
-3.90437 9.99949 -4.01829
-6.14247 -7.88361 -9.99942
-2.66358 9.77737 -9.99924
8.46001 9.99954 -7.14071
6.98587 -4.70385 -18.831
7.49777 9.9994 9.75877
6.51838 7.88629 9.99944
11.7994 5.87867 -7.49506
-4.65087 -6.75567 9.99958
-5.41853 0.108852 -9.99958
-3.27674 -6.973 -3.19243
-5.19655 -0.510491 15.919
9.79032 9.99952 -5.74985
-2.85643 -5.23433 12.1299
7.74421 -2.65351 -5.38216
4.792 -6.32665 -14.0942
9.46897 9.99936 9.84497
5.64906 6.28466 4.63091
-8.19952 0.535689 9.47058
4.47139 -5.22714 18.9999
4.87427 -1.98211 5.6835
-4.51671 -3.0157 -11.8282
-8.19954 -7.10925 5.51189
6.02435 -5.5873 13.3324
-4.84321 2.19932 -17.0561
-8.1996 -6.18579 -3.72262
-2.73876 5.32752 13.7368
-4.60169 -2.83426 -17.4011
-2.52342 4.80223 18.9996
6.40626 3.87751 -4.57658
8.80119 -0.144758 17.4357
10.1874 -9.99954 -2.61249
-5.3234 -5.46311 -2.46823
-2.28729 7.82894 9.99943
-1.73744 -1.34484 -19
3.50895 -9.9994 6.00847
-5.89744 -1.31947 5.8486
-6.24498 -5.78363 9.99942
9.96113 4.43258 -9.99952
7.97992 -2.87494 19.0001
-8.1994 6.64216 -9.80632
-6.42765 -3.39854 -9.9997
-5.13559 1.00375 10.2142
6.05791 2.60073 -18.9999
-5.17894 -1.86514 -9.99992
-1.04177 6.39905 -12.1855
6.95823 -8.25831 9.99947
6.90745 6.75142 -3.16867
3.05326 8.64626 5.88093
-5.11454 1.07206 17.1975
10.3107 9.99948 8.08271
-4.54256 -9.99951 -9.73619
6.0497 4.40062 4.23322
11.6462 5.29956 2.8309
-4.57662 2.88941 -14.1662
6.40434 -5.27127 -11.5105
11.7996 -9.65032 9.69262
8.40555 5.65269 -9.99961
-8.19943 -8.28935 -9.69967
3.69663 -2.76988 -5.71254
-3.56484 -9.99951 -7.9843
3.06098 9.99967 6.22392
8.26373 2.68004 13.7442
6.98124 -4.71708 18.7473
5.849 5.70926 11.6331
11.7996 9.76489 4.72933
10.0832 -0.008252 -5.99658
-0.133718 8.11004 -5.68904
-7.99444 -4.08533 -4.39528
6.80968 -4.20341 -4.30341
2.96079 -0.883206 -19.0001
-8.19949 1.62847 5.96045
-8.19945 -7.64763 7.44411
-5.19077 0.548562 -16.8612
6.68349 -0.718166 -18.9999
-1.14906 6.3496 14.2319
7.28903 -7.86543 2.43669
-8.19952 1.85582 -7.95223
7.47725 -5.39514 -2.6471
-0.0727138 -6.75483 10.1447
4.62805 6.41309 -11.9189
6.53012 9.99951 8.254
-2.44211 5.56997 -10.6471
-5.20464 0.480719 -11.8617
5.14705 4.40708 18.9998
7.68458 -9.77984 1.13909
9.92619 -7.86242 -9.99944
-8.19952 -6.95296 1.11808
8.58833 1.7556 -12.2241
11.7995 9.69501 8.29069
-8.19945 0.570325 -6.20447
9.861 0.509888 5.9933
-4.16194 9.78967 0.830782
6.74303 2.42041 18.9999
-4.97956 9.99943 8.29753
8.23982 0.925894 -5.94041
7.17911 -4.47831 12.0344
7.68873 -9.9995 -7.62454
-4.0581 -4.48364 9.99991
6.38444 5.29105 -10.2231
-3.67094 4.379 -10.2224
-8.19958 -2.88358 -5.74413
8.52079 -2.0315 -16.8832
8.4747 8.47878 9.9995
-1.93398 4.00889 -4.71283
7.35737 9.81098 -2.27246
11.7994 -6.66268 4.4904
5.65942 -5.37385 4.60662
11.7995 -4.74143 8.39826
11.7994 8.17394 -4.33609
4.71116 -9.99947 9.77737
1.55508 -6.99237 15.4557
8.17684 4.17531 4.31297
8.05893 3.16625 -13.6289
-4.0965 -3.77602 11.7822
-2.76737 -5.30418 10.2558
2.84227 -6.9213 -14.4886
2.57355 4.35769 -5.94799
1.31925 4.2526 19
8.51414 -9.99971 -3.08649
4.69005 9.99942 5.40062
6.42498 -6.1582 -3.84279
6.83307 -9.80706 -3.28256
7.60734 7.62851 1.53033
-5.96937 -4.30332 -4.18222
-5.91755 9.99954 1.78141
6.59831 -5.09606 -13.615
-4.5013 3.04684 10.21
9.61777 -9.99932 -8.49803
-2.16394 -3.13049 -18.9999
-8.19952 -0.285058 -7.64294
-3.35643 -4.73217 -17.4902
-4.5049 6.42827 9.99947
4.69844 -0.977348 -19.0001
7.82076 9.70517 -0.287977
2.33346 -4.70016 -5.99007
-7.90337 9.99937 1.79776
-3.82235 8.54154 -2.10637
-2.62341 8.14265 -9.9994
-4.03363 5.52227 2.35335
-8.19953 1.0883 7.58771
-1.42526 -9.74615 -5.04867
-3.50676 4.56806 -14.0563
4.94929 3.25673 -5.1089
11.7995 -7.9726 -4.36258
6.73716 9.99961 -7.06416
1.67677 2.78269 -6.00323
8.32192 2.11043 18.9998
11.7995 8.34138 -2.24538
11.5888 -9.99926 -0.595888
-8.19949 5.81561 9.83448
8.95707 -4.8374 -3.56538
1.66223 -7.40391 -10
11.7994 -4.86252 -6.50412
1.99041 7.02083 11.127
-7.92101 -9.99948 0.492467
-8.19949 -6.31863 3.93548
-4.17934 -8.46716 -0.659962
4.88836 -6.27887 -12.0811
8.532 -1.96996 17.137
5.03321 6.20911 14.4543
10.2613 7.40249 9.99939
-2.60967 -8.42749 -4.06594
-2.00078 -5.88063 15.2392
-4.83806 2.22203 -18.8068
11.7997 4.30503 9.59773
10.0093 -4.26493 4.21427
11.7996 2.93697 5.47081
-8.1995 3.26462 6.63767
7.95211 2.86028 -5.28065
-3.79472 9.99919 2.73967
2.95555 6.90392 17.176
-6.17784 -9.99965 -0.592826
-7.8718 -9.99957 6.48235
-1.65861 9.99954 -8.45042
7.38278 -6.93529 -2.20544
3.06593 -6.89108 -12.422
9.36738 -5.69437 -9.99943
3.08133 9.99973 -6.14221
-7.53798 -5.1563 -3.08896
-8.19955 6.05625 4.95812
0.807906 -6.57121 18.9997
3.65707 6.75328 -13.8727
9.62784 2.56177 5.42516
7.54063 9.81198 -9.9995
-5.1197 1.04248 -13.469
0.457189 0.145245 5.99503
-3.91261 -4.04547 -16.1187
-4.99974 -2.71567 -5.34989
11.7994 7.70774 8.29478
-3.40573 3.05861 -5.18243
11.5247 -9.9992 -6.25753
8.65732 -1.38864 -15.0414
-4.34847 -3.35715 14.02
-2.10898 2.18434 18.9999
2.84061 -9.63033 -9.99952
-2.07676 -9.9995 8.57915
11.7995 -9.82963 7.97782
-2.84336 -1.96429 18.9999
3.12518 -1.92011 5.85737
8.0602 -7.60673 -9.9994
11.7997 -2.72353 -9.75368
-4.71978 8.04686 -9.99939
2.65336 9.64681 -9.99952
11.7995 -5.94982 -8.357
1.02466 9.99967 6.21772
4.57621 6.43521 -15.3451
-4.07997 6.8301 -1.175
-4.35694 9.99951 -0.706528
0.045419 -8.43284 5.7438
11.7995 7.15491 -9.44182
11.7995 -8.2189 -0.581096
0.379886 -8.32657 -5.84074
-8.19955 -9.6293 8.14467
11.7994 6.37493 -4.14567
0.17382 1.57831 19.0001
5.42677 2.6454 5.37535
3.60314 6.77072 -16.7938
-0.386764 -2.47899 19.0001
-8.19956 7.33973 -4.3852
11.7995 -2.62234 -7.18985
-6.44984 8.07151 -9.9993
5.64407 -5.85 11.2116
5.63295 0.461003 19
-4.34612 9.99958 4.77892
-6.3476 9.99955 5.0803
7.04957 4.63275 16.9012
1.7981 3.33506 6.01322
-0.352981 -0.00287012 19
-2.66958 -9.99968 -6.13604
5.74117 8.98754 -9.99943
11.7996 1.09995 8.27848
-2.89374 4.97482 3.75832
7.04592 -5.46114 2.92459
-2.03522 5.85196 10.2838
-3.78015 -4.24197 -14.2738
9.20076 -4.63293 9.99956
11.7992 -5.42969 2.95764
6.58841 5.68347 9.99978
-4.5315 -2.98127 -13.5816
3.026 9.99951 9.84537
4.49658 -6.4757 17.6768
-2.23124 5.74179 -13.3997
10.0125 -9.99939 9.75887
6.42584 -1.25522 19
-2.06928 -8.6206 9.99945
-8.19952 -4.53173 -6.82593
2.11214 -3.00681 -19.0001
3.73432 4.91143 -18.9999
-2.52693 5.50419 -17.5635
8.33315 -2.50819 15.3708
8.1798 -9.99943 9.6952
8.73596 -8.4501 9.99943
1.86752 -2.76866 -6.01435
11.7995 -8.52734 -6.40986
-5.177 0.729995 12.5558
-3.47081 0.539049 -18.9998
5.02961 6.20983 -17.2675
2.10355 7.02001 -17.314
8.75508 0.917864 13.7589
-8.01633 9.9997 6.74758
11.7995 8.20691 3.98794
0.383353 2.23535 5.83838
11.7995 7.8658 6.18284
9.78777 -9.99952 7.10711
-7.95949 8.99965 9.99969
0.530819 -4.09701 -5.8822
-7.75654 -9.99956 9.79842
5.28131 -5.05335 -18.9998
1.81092 0.967378 -19
4.3774 -6.51716 -18.792
11.5565 9.9992 2.82879
8.98884 0.112545 10.0001
10.1167 3.51322 9.99952
-8.19963 2.24728 -5.905
-0.0589076 3.80904 -5.70084
-4.76195 -2.45434 -15.4166
6.18138 5.47282 15.6434
-8.19958 -4.97339 5.33613
-8.1993 -7.92712 9.76861
8.06591 -5.97639 -0.648041
6.30386 -8.22857 -9.99936
-2.04717 5.85272 -15.3662
7.9147 -5.87005 1.25787
-3.41644 -7.86245 2.97123
-4.7297 3.03907 -9.99998
-2.12241 -9.99961 6.95626
-7.93409 -4.56733 3.90938
5.94211 -6.18227 9.99977
-7.88583 -0.926795 9.99942
9.81917 9.99955 4.47897
11.2018 9.99932 0.89048
-2.24587 -5.90863 -4.43892
3.73651 6.72511 10.5265
8.12213 3.01514 11.9852
8.5539 9.9995 7.95958
4.48184 -1.47468 19.0001
5.35822 -7.40135 -4.8409
-5.02768 1.59814 -15.2607
3.15504 -9.99948 9.74466
-5.53673 -9.99939 9.74689
-0.831709 -2.40237 -5.49864
2.53458 -6.95891 -16.2756
4.68174 -8.73649 5.27524
-2.6325 5.41563 11.8195
1.05667 -6.9684 -13.2728
-8.19885 -9.67829 -7.78638
-7.77906 9.99958 -7.74454
-5.09294 -1.20946 -13.6331
2.27972 6.99356 -15.403
8.73311 -1.01046 13.6724
2.89393 -6.91249 14.0405
-6.65151 5.32929 -2.74673
7.44555 4.15506 15.0605
9.33013 -9.99958 4.75747
9.81219 -5.9937 0.0475049
8.15863 -0.984649 -5.92831
-5.0204 0.503021 18.9998
-8.19914 8.43639 -9.7974
-8.19952 2.00391 9.82173
5.98882 -2.02074 -5.67672
8.53248 1.96779 -17.3133
-4.14198 9.99919 -2.2525
-7.82801 -9.99852 -9.65315
11.6056 9.99939 6.58128
-4.75949 2.46022 13.8703
-7.91172 9.99945 3.4386
-4.05338 -4.49322 -3.98167
0.433925 6.87363 -18.4642
-8.19962 4.25013 4.64167
0.876035 6.95307 17.1735
11.7995 -7.93505 -2.42741
6.74752 4.95553 -11.9094
10.347 6.63935 -9.9994
-8.1996 8.13729 -2.46182
-8.19947 4.73351 -9.72129
-8.19964 6.24946 -0.636074
-0.380905 9.99954 7.92157
7.29269 4.33725 -15.4346
3.63129 3.41505 5.73369
-1.18209 6.1868 -19
8.14067 9.99961 4.21619
-4.01053 -1.10236 5.89934
11.7997 9.80395 -3.33781
-6.32858 5.99317 -0.262059
0.354961 6.8461 -13.3658
0.0149015 -9.99971 6.15814
-6.14815 0.820905 5.95466
11.7995 3.82118 -6.92844
-8.19955 -3.75522 8.24558
-4.13611 8.28035 9.99938
5.33072 9.99961 6.88045
7.45031 7.90925 -2.01489
-7.84049 9.99959 8.72682
0.300652 1.80846 -5.81088
3.18578 -0.613843 19.0001
-8.19949 6.91317 7.02624
11.7995 -8.44552 5.41222
9.14827 9.7515 -9.99966
-0.15384 -6.72737 14.9041
11.7997 -9.66332 1.42867
-6.54333 3.92341 -9.99953
11.5755 2.26699 9.99946
-7.97468 -1.67445 5.77579
-1.23896 4.44215 -18.9999
-8.19951 -8.0317 -3.96397
-4.06331 -3.43348 -18.9995
-4.13056 -2.82646 5.29785
1.23464 7.16225 -5.97005
-0.461658 3.0796 19
8.14727 -6.48773 9.99951
-5.4501 -1.2958 10
11.7995 4.10602 -8.67716
8.04076 5.93153 -0.913921
-4.08046 3.8001 -18.3255
-6.13745 -9.99957 -6.19685
-4.17002 -9.99948 7.74543
-3.28281 -9.99987 -3.78363
-3.66121 -8.45942 -2.48948
3.65494 -6.79908 -5.71982
11.7995 2.84082 7.95194
-3.02423 4.74309 -18.9995
-1.39215 -7.65953 -5.08944
11.7992 -3.18114 5.34466
6.91098 4.8055 -13.6511
5.80954 -9.99941 -9.74444
-3.48512 -1.40583 -18.9999
6.6972 6.82137 3.45521
11.7994 -3.34119 -5.19965
11.7998 1.4944 5.99871
7.79646 1.02184 5.91859
-1.36157 5.45714 5.10711
-8.19947 -8.2798 -5.89144
6.74948 7.19861 -9.99956
11.5503 -4.64128 -9.99934
8.38145 0.441561 18.9998
-5.74532 -9.99952 6.62174
5.5311 -5.9282 -17.5947
9.84344 -2.8383 5.30287
-1.09831 6.37378 16.7603
3.69706 2.74741 -5.70758
1.8265 -9.99956 -6.23876
-0.812224 -4.51086 -18.9999
-8.19963 -5.9643 -1.81371
3.51966 6.79677 14.8312
-7.98834 -9.99945 4.41527
-4.86748 2.12942 -11.5122
9.12116 -1.20017 5.87794
11.7994 -8.12498 7.64332
2.29999 -8.35449 -5.98807
6.45 5.23168 -17.209
-1.33478 2.49598 -5.46097
-7.96819 -5.55196 2.29798
-4.44453 -3.74406 -10.0001
0.81484 -6.95503 -11.614
-8.19966 5.02092 -3.80184
9.60207 9.99949 -8.5485
-7.98747 -2.43216 9.99949
6.03603 -3.86125 4.59257
-0.600903 6.57992 -14.6061
0.0215868 6.68568 5.72953
5.77532 -9.99959 -7.26617
4.37727 -9.99962 7.6062
4.11128 -8.47231 -5.54536
7.63426 -9.99967 5.67943
8.52425 6.77653 9.99953
-0.712308 9.71816 9.99943
5.84373 -5.71733 18.5716
8.16959 2.93249 10.1959
7.33204 -4.28947 16.0185
-0.0565728 -9.60845 -9.99949
11.7995 5.65957 5.86744
2.98278 6.15314 -5.88333
11.6476 -1.11771 -5.901
8.65528 1.38852 -15.2978
-3.9741 9.99958 6.61962
-0.0623438 -6.43792 -5.70067
4.36327 5.09487 5.42954
6.38023 9.99974 5.14227
1.24044 -1.67814 19.0001
11.7997 -3.14303 9.78713
-4.48698 5.99858 0.469727
9.35497 1.61725 9.99977
7.98918 -4.39086 4.08519
8.46603 9.99967 -4.25601
-4.04887 -6.42565 -1.35495
1.09565 -1.76267 5.96082
-2.26305 9.99959 7.17927
11.3324 9.80189 -9.99834
-2.40341 -6.63786 4.30538
5.68289 9.99945 9.82235
-0.452913 -3.29218 5.58055
2.83965 8.24364 -5.90472
-8.19953 7.74435 -6.36013
1.21796 -6.72386 -18.9995
3.36018 3.26905 18.9999
-5.23438 3.2744 -5.03181
-5.97942 -9.99942 -7.97655
-3.51276 -3.30407 -5.01654
9.5355 -9.99956 0.629157
6.06496 5.55946 -15.373
4.99383 -8.31301 9.99943
-7.49728 2.83622 5.30194
11.7997 -9.76328 -2.6025
0.592767 5.23333 -19
-0.536456 -6.60526 16.7023
-2.82446 -9.79229 -9.99946
-8.19949 5.50976 8.37269
-6.43672 2.61644 9.99974
-2.47187 -7.05964 9.99962
2.59927 -2.90476 19.0001
-2.16476 -3.60507 19
-0.0104717 -2.84061 -19
-2.11057 -3.8289 -4.62265
7.29702 4.33796 10.4188
11.7994 -4.98861 6.53223
-1.4625 -7.85121 5.06152
2.6574 -8.52552 9.99961
-0.540468 0.215503 -5.99488
2.65889 6.94614 13.0623
-8.19951 -6.11089 -5.63954
6.78832 -5.66965 -9.99972
-6.11064 -9.99961 4.46496
7.17463 5.53269 2.6691
-8.19965 5.8413 -2.29248
11.7996 8.6457 1.30633
11.7997 9.76194 -0.586721
8.65971 1.37609 16.9925
4.01603 -0.315728 5.99279
-3.00331 8.66508 3.61796
-8.19947 -7.28622 -7.66192
-8.1995 -2.09658 -9.81107
-2.82669 -4.5519 3.91797
-5.91046 -4.87935 3.48652
5.90303 7.62786 -4.37533
8.7499 5.31257 2.80087
3.73632 -9.99953 -5.99029
-3.44706 -9.99941 9.77346
5.04004 6.48769 -9.99971
-5.78002 9.99951 3.41079
9.71576 9.99957 6.256
5.65323 -9.99968 5.13741
-8.19953 4.89745 6.76398
10.1248 -7.88546 9.99931
3.54886 -6.78411 11.5906
6.19263 5.46224 13.4862
5.77069 0.405375 5.99739
4.61622 3.43238 -18.9998
-3.43713 4.64539 10.2245
7.67824 -3.79492 -11.9824
-4.56221 -4.18942 4.29571
8.79834 -0.140947 -16.4698
11.3728 5.09846 -3.18849
-3.47628 -5.43341 -2.88034
5.00635 2.47983 18.9999
11.7997 -9.76845 -4.50932
7.80036 7.44863 -0.333046
-5.08593 -1.24212 -11.8081
2.13574 4.52275 -19
-0.949415 3.34061 5.34463
0.122308 1.14091 -19
4.40019 -8.06945 -9.99956
-7.9718 -6.59021 -9.99957
8.79428 -0.0495843 -11.9803
7.68591 9.99964 6.41917
-1.33563 -9.9995 -9.58926
-3.03252 -1.99019 -5.69204
1.38139 0.303627 -5.99463
8.79373 9.99949 -2.31996
-0.856976 -4.93437 -5.3939
3.3477 -8.00867 5.81717
-8.19954 3.10998 8.38274
-1.46196 -9.99956 -7.5
8.69267 1.21875 11.6652
-5.61326 4.57981 9.99963
-8.00531 9.99932 -2.1708
-0.99254 2.66393 -19
11.6049 -4.76002 9.99936
3.6556 1.15718 19
4.23264 -9.99945 -9.7978
-8.19956 3.66916 -5.12474
2.17307 7.00874 6.00844
-6.07554 9.99952 6.88089
-4.52824 -5.99729 -0.0960087
1.81038 -6.99974 10.2042
8.65599 4.98586 9.99963
-3.96573 9.99944 9.7976
-5.05185 -1.43585 -18.7793
-7.9267 -9.99939 -4.00662
10.5756 -9.99947 2.34559
-8.19954 -5.36004 6.72853
11.3911 9.99906 -7.5574
11.7994 8.78623 -6.88901
-2.67778 -9.66002 4.00139
7.65076 -3.84539 17.4859
8.79689 0.571239 -13.8642
-0.00984449 -9.99956 8.19397
4.39849 8.77126 9.99951
11.7994 -6.74199 6.43831
0.766556 7.80028 9.99968
-3.44165 9.99955 -8.43687
4.91085 6.58272 9.99968
-8.19963 -2.84104 7.01903
7.10226 -0.884797 5.95647
-4.28395 -9.99959 -5.95087
11.5204 -9.99924 6.11167
1.99744 7.01629 15.3947
7.07486 9.9997 -5.25759
6.22882 1.98223 -5.69036
-0.668009 -1.28394 5.85726
11.3794 -5.82403 1.4117
7.65255 3.84162 -17.2891
10.4494 -6.14364 9.99938
8.50169 7.66536 -9.99947
-5.79221 9.99953 -6.36019
-3.12079 -4.98597 13.8294
-6.3694 -5.9232 -1.01944
7.95301 -2.93624 5.24545
-0.696666 -4.72058 18.9999
-1.13015 6.35621 12.1699
1.25929 -6.98331 17.3783
11.1653 9.99934 -1.91157
-2.89982 4.90872 -3.73365
-2.23583 -2.03206 5.67843
5.05345 9.9997 -6.53741
-0.798381 9.78965 5.43337
11.4539 -9.99926 4.17239
-1.80289 6.47585 -9.99989
-8.1995 7.37762 9.74416
-6.05039 9.99955 -3.44673
-2.26037 -0.0781825 5.99546
3.16571 -6.87253 16.447
-6.16458 -1.29838 -5.8533
-8.19955 3.93022 -7.4667
-3.63898 -4.42478 15.495
11.7995 -6.42019 9.00207
7.39748 -4.50147 10.0001
11.7996 6.50984 -2.34861
-8.03539 -6.00659 -0.26829
-1.79558 9.99964 -6.84901
0.0973124 6.7871 15.431
-1.9247 -0.599457 -5.99657
-7.9325 -4.74481 -9.99949
-3.66229 5.88974 -2.52268
6.06123 -3.2146 18.9999
10.0438 -9.99955 -4.58861
2.56881 7.56856 9.99979
-3.9527 3.9864 14.751
9.9017 -3.18563 -9.99957
-5.28668 9.99945 -7.98949
11.7996 -3.99726 -8.33592
11.7995 5.85605 7.72242
6.61294 -8.14802 -3.58958
7.62708 -8.38126 -1.47868
-3.87724 -0.579076 -5.99578
-5.26311 -0.0439603 -5.9967
11.7996 5.32832 -9.82374
10.2637 5.57352 2.2429
1.23797 -3.39963 5.97053
-2.33114 9.9995 9.65871
3.04856 -4.85212 -19
11.5817 4.05897 -4.4199
0.625081 6.91624 -15.9742
-6.1073 -5.58802 -9.99961
-1.57006 -0.824845 18.9999
-3.51219 7.03215 2.80812
-6.20921 -9.99947 -9.87993
4.31261 -9.99955 -7.93013
-0.260678 6.71805 -10.1919
8.03817 3.20626 17.3917
3.73825 1.25277 -19
-4.42564 -6.04458 -9.99978
-8.19951 -0.193491 -9.6016
-4.69647 -3.01703 9.99993
8.51802 -2.01753 10.1771
-8.19958 -8.37657 1.89996
9.02201 9.99961 0.621729
7.28503 4.34872 12.9228
1.15611 -6.9724 -17.345
0.572457 6.90404 12.0565
8.80792 0.306925 -18.4465
-0.416236 6.79557 10.0001
8.16101 -2.95364 11.4849
2.68802 2.80268 -19
4.26353 9.99951 8.36625
7.6445 -4.28464 -10.0001
2.94366 -6.89925 -18.7532
-2.3861 1.22369 -5.87283
8.24179 -2.75947 -10.2203
-8.1994 7.9158 -8.1304
-6.453 -9.99942 8.2179
3.49156 7.17275 -9.99989
8.54773 -1.90225 -11.7759
-0.415163 4.82604 18.9999
0.183929 -6.80771 11.8048
-1.02743 1.22621 5.87288
-3.23771 -4.87026 -10.2928
-5.19845 -0.339289 -15.0372
4.59561 1.04308 -5.91636
6.18615 -9.99961 7.23201
-4.60776 9.76964 -9.99935
0.662739 8.30878 5.91711
-6.3447 -3.45692 9.99962
5.11542 -6.34664 -10.0001
0.890125 6.95754 13.8614
-5.79673 1.76079 -9.99964
-1.42323 -6.22735 10.714
6.45048 0.021948 -5.99554
-3.91625 8.31101 1.84993
-7.96132 4.08399 9.99959
-3.02347 0.405485 18.9998
8.76207 -0.831402 11.8158
10.3853 8.35989 -9.99953
4.35795 -3.37654 19.0001
-6.42599 9.9996 -1.60472
11.7995 4.1479 6.95462
3.9097 -6.87537 9.99975
2.80579 -3.55475 5.91082
-5.54023 -9.99961 -4.42046
-6.36429 9.99943 -9.77925
-5.10541 -1.13611 -16.7927
-6.79789 -5.93432 0.927861
5.601 0.878904 -19
9.50928 9.99956 -0.885831
-6.11136 9.99947 9.81018
-1.03807 -6.3924 -10.3279
6.55109 9.82397 3.65557
10.1404 4.35084 4.12704
0.73038 3.15711 -19.0001
0.204957 -7.13297 -9.99982
-3.42352 -4.65692 -11.9536
11.5567 -6.31346 -9.99931
1.72194 7.32121 -9.99991
6.40896 -2.32845 5.54692
