4.61822 5.55807 -5.32492
4.00399 6.61698 -18.9998
-4.66134 2.01054 -5.68292
-4.79389 -9.99963 4.15209
1.07793 9.96026 -5.96073
5.55419 5.91223 -13.6543
11.7994 5.76427 -5.74467
-2.31837 5.67324 17.2292
6.46281 -9.99947 9.93849
-8.19955 -1.20556 8.04345
-6.37621 6.12126 -9.9994
-5.46505 8.27303 9.99945
2.56048 4.99838 5.9496
-4.19687 7.9682 0.152303
7.70985 3.7546 -11.8499
11.7994 1.98411 -7.88271
-8.14481 -9.99942 -5.44601
-2.75942 6.48996 -3.90421
-5.06678 -1.3625 17.1566
2.63782 -4.98232 19
11.7995 -6.44395 -4.46281
-6.40815 0.944542 -5.93325
5.84391 6.35055 -4.42728
1.75729 -9.89938 -9.99952
6.25123 9.99951 -4.08098
-8.1993 -6.56706 9.95181
4.61626 -9.99954 -5.37239
11.7996 6.06122 -0.491067
-8.19942 -3.46771 4.99307
1.91242 -6.7851 -6.02082
-0.349379 6.67714 -17.154
-8.1995 7.79784 2.05224
7.59751 4.08716 -10.0005
8.39713 -9.99934 -9.95202
7.12039 2.64224 5.38571
11.7995 6.35172 4.83425
1.4897 0.983204 19
-4.75027 -8.21943 9.99948
9.94557 6.03423 9.99945
7.23851 4.404 18.9529
-2.38521 9.99925 4.43044
-4.03426 -8.0431 1.42074
4.25373 -6.56071 15.4023
8.38026 2.39513 15.3345
4.90841 -3.189 5.14259
11.7995 0.0706026 6.07242
5.55286 5.8703 -18.9998
3.8649 -6.74494 -10
3.02957 -6.16888 5.87322
-8.1995 3.26415 -9.92817
7.64868 -3.84973 -17.0778
-8.19954 -7.87005 -2.30563
9.90745 -9.99955 -0.972533
2.13895 6.96911 18.999
7.79487 3.54477 -18.9999
-1.29958 8.22304 5.1417
6.46064 -5.22065 -17.1489
-6.48645 -7.49886 9.99937
0.685797 2.84357 19.0001
-8.19916 9.9444 -6.38751
11.7994 7.79899 -5.95981
2.62272 0.722353 -5.98037
1.25183 -7.82875 5.97165
-8.19952 -0.91334 -6.01604
11.7169 -9.90769 -9.99869
-3.51065 -7.96811 -9.99951
3.95037 -6.65886 -15.3313
11.7995 -1.23158 9.93527
-3.14118 8.17558 -3.40191
-8.19951 5.9303 -7.84712
-0.229137 -6.70689 -14.9731
9.86592 -2.16434 -5.60497
7.66074 5.80201 -1.58824
7.63107 5.75852 1.68512
11.7995 -7.86589 3.81985
11.6457 9.99957 9.92629
-4.21547 -9.99963 -0.891997
2.71022 6.93798 -11.8416
7.14161 -4.5233 13.7066
-6.49675 9.99954 -4.19898
4.58965 9.97161 -9.99943
-8.19954 -8.10222 5.63115
6.85852 5.03433 -3.28001
-4.32925 3.40958 11.9692
-4.97486 -1.65225 18.9992
4.97088 6.23754 17.1572
-4.23062 -9.99944 0.701008
-8.19954 -9.9545 2.53329
-6.45558 4.32978 4.15593
-8.19951 -2.53516 -7.91537
11.7995 6.92373 2.9816
-8.19997 5.98349 1.05331
-8.19956 -8.5158 3.68691
-3.51112 2.50939 5.45429
-2.27607 -5.70889 -15.5013
11.7994 -6.02733 -0.715869
0.483503 -9.99947 9.94719
-1.17668 -6.343 -18.945
8.59773 -1.46823 -18.9998
3.9355 -2.36131 -19.0001
-4.77324 -2.41717 15.394
-2.16036 3.82724 4.62293
-0.0511987 -9.99957 -7.79201
4.00738 6.63969 18.976
4.04751 6.6335 11.8637
9.95912 -3.88694 -4.59027
-8.19949 -5.72649 8.32434
11.7998 0.92813 -9.94482
-4.64008 2.75012 17.1094
-4.43306 -3.18826 18.9505
-6.53505 6.70315 9.99946
-4.17108 3.66081 18.9516
-6.08498 -9.99963 -2.15216
11.7996 -4.62391 -3.98465
9.54689 -5.6092 2.19386
-6.05747 4.24023 -9.99956
11.7995 0.0272778 -7.93702
-5.02573 1.58188 11.9516
-1.95455 9.94934 -4.6759
-3.39376 -4.68192 18.9516
4.17425 7.88128 -5.50762
-0.544998 9.99898 -5.60668
9.96531 9.99955 -4.47366
-4.41715 6.20374 -9.99953
-1.65428 7.97391 -4.91063
-4.87712 0.922867 5.93971
10.1134 -2.28177 9.99961
0.719591 6.92986 -11.9064
6.35702 8.29333 3.92905
-3.80852 -9.99903 2.34849
0.570841 4.59395 5.90532
6.23238 -8.17483 4.06424
6.27733 -6.32234 4.01159
-8.1192 9.99968 -9.90367
1.81631 -7.00954 18.9555
1.74444 7.00483 -13.638
8.12381 -9.9997 -4.54434
-4.077 9.99949 -5.67632
11.7994 -8.08463 -7.89232
-6.34208 2.82826 -5.30077
6.83517 4.88414 -18.9438
8.50174 1.95794 -18.9995
-4.48249 4.20055 4.28442
-8.19948 -3.55031 -9.92774
11.7995 -2.71148 7.72379
8.80365 0.578674 15.3899
-1.25534 5.87703 -5.15747
-4.93107 1.92533 15.3694
8.41898 -9.99957 -6.32246
-8.19949 7.71837 5.9925
-8.19953 8.07912 0.024013
-8.19952 8.27814 3.90991
11.7758 2.73267 -9.99944
0.133438 -0.841909 -19.0001
4.75973 -6.85639 5.22729
8.2343 -2.75258 13.7875
1.74104 9.9995 8.01004
-8.19944 8.34552 7.89917
-5.06426 -1.38435 13.6452
4.80371 8.17053 5.19777
1.91902 -7.01905 -15.3046
9.81102 -5.72774 -1.86422
1.73793 -7.00306 11.8838
8.05973 -3.13474 -18.9496
-3.99395 -5.88359 1.62255
5.84372 -5.71341 -15.3381
11.7998 5.94112 1.11648
-4.32464 -3.41473 17.1191
-3.3939 -5.25942 3.04453
9.32428 9.99962 2.87833
-1.19331 -6.3326 13.6351
9.96921 4.05602 -4.42645
-8.19971 5.47899 2.59963
-6.21733 9.9996 0.0358041
3.844 1.46516 5.82417
-2.75656 2.2578 -18.9998
11.7995 -0.687703 7.98892
-1.62539 -9.99942 9.94087
-0.584043 -8.31924 9.99956
-1.26862 -8.20003 -9.99952
-0.270136 9.99961 -7.8572
0.735378 -4.77813 19
11.7995 -1.81748 -8.165
0.69606 -3.80548 5.9322
10.2742 -0.143895 9.99966
-1.92841 -5.93182 18.9409
2.31748 6.9577 -18.9995
-8.15081 9.99929 -0.96903
2.55513 -1.18228 -5.96309
-0.85631 -4.93599 5.39716
-3.81088 -9.9994 -2.41216
-4.22897 3.58073 -15.3683
0.875586 -6.95716 13.6538
8.23419 4.76419 -3.68014
-2.98812 -5.12956 17.0963
9.83435 5.32387 -2.79079
1.66922 9.99965 -7.94994
-4.90639 1.91197 18.9998
8.55322 1.88138 -15.3387
-2.76856 -5.25251 -18.9997
-8.14531 -4.74869 9.99955
4.50883 -0.761017 -5.98162
1.02622 9.95589 -9.99946
8.85657 0.901157 -10.0002
6.61676 -9.99967 3.69774
11.7438 -9.99932 -8.36823
-8.19955 -8.09028 -0.311319
-5.86836 5.3678 2.69298
-0.484607 -6.63016 -16.8362
11.7997 -4.3538 4.23527
0.276 6.79811 18.9995
-3.64957 4.40983 17.1259
8.31557 2.73541 -9.99986
-8.16501 1.44727 -9.9996
6.64815 -9.99966 -6.05921
9.81505 5.9525 -0.807971
-6.03859 -2.57282 5.41334
-5.89134 -5.28516 2.87163
-1.34191 0.696062 -19
-8.19948 -5.22487 -8.16346
7.36779 -4.24899 -15.3162
1.03253 -5.70935 5.95684
-1.60072 -6.1227 -13.7426
11.7994 -8.32208 9.95366
-3.66318 -9.99964 5.96841
6.39008 -5.28663 16.8288
8.03436 -3.22037 -13.6318
11.7569 8.35514 9.99926
-1.96574 -6.01337 -10.0002
11.7048 -0.827883 -9.99948
11.7501 -1.58154 5.78434
-5.19169 -0.0955601 -18.9536
5.40618 -5.9455 -4.79412
2.0896 1.31806 6.01553
8.3912 -9.99964 4.18194
4.68876 9.93937 -5.2513
11.7995 4.44688 4.13793
8.69603 -1.20322 -13.6067
-6.02299 -9.9996 1.98107
1.98206 4.79527 -6.02729
7.55609 -9.99948 8.08721
3.85274 6.56216 5.63588
-6.05228 5.91498 -1.08868
-1.5511 6.14843 18.9537
-0.4134 -9.99857 -5.67317
7.66785 9.99911 1.53415
1.9146 -9.9994 -8.0339
11.7653 0.835806 9.99949
-1.57466 -9.99972 5.03553
11.7996 9.92905 -6.63846
5.19382 -3.92399 -18.9999
-2.42259 5.58818 15.3508
2.17491 -9.99995 6.062
-6.69192 -0.611541 -9.99971
11.7995 8.0324 -0.124917
8.70332 -0.980824 18.9997
11.7995 6.52348 9.94797
-0.706853 -6.53462 -12.2271
-0.990853 9.95604 -9.99929
1.13042 9.9995 9.90207
-5.20406 -0.452386 11.8793
5.7908 5.74521 18.9563
9.86975 2.20243 -5.58856
7.76248 -7.98892 0.712809
11.7479 0.54221 -5.97323
11.7995 -7.76009 2.02128
3.50197 9.9996 -8.19649
11.7471 -8.2276 -9.99966
11.7995 8.21228 -9.95605
5.06898 -6.19042 13.506
5.74368 9.99958 -8.3195
3.81663 -4.48208 -5.66329
11.7997 -9.94369 2.72489
-4.85985 5.02919 -3.27688
-8.19955 9.91906 -4.62357
-2.04661 6.48123 4.59963
-4.74698 -2.48574 11.8771
1.52904 -9.99962 8.01148
8.89548 -0.683261 -10.0001
3.55963 4.81495 18.9999
0.553385 -1.84264 -5.88933
-8.19957 5.65828 -5.69384
-2.95123 5.15917 -11.7979
10.061 -9.94269 -9.99921
-5.70019 2.91783 5.2618
11.7998 2.1219 -5.69653
-8.19949 9.94719 4.87216
-8.16218 -0.194807 5.99839
-6.37733 4.25813 -4.22422
11.7994 -5.57447 -2.4622
-4.22754 3.58399 -11.7956
7.86813 -9.99939 0.601311
-6.27323 -2.89686 -5.26385
0.120163 8.45262 -9.99957
-8.15577 -9.99944 -1.33995
11.7995 -6.68555 -6.49338
1.42414 -5.01235 -19
-2.03592 -5.86076 -17.3077
2.54278 -0.424002 5.992
-3.60267 4.46238 -17.1438
-0.69524 -6.78925 5.46615
1.90877 -1.12456 -19
-1.4904 -3.23929 5.07384
-6.68224 -0.109032 9.99961
5.50427 -3.80186 -4.7145
-3.04338 9.9995 -3.64541
-5.96996 -7.82546 -9.99943
-3.00937 9.94643 -9.99925
7.75639 9.99954 -7.94226
7.10163 -4.5661 -18.9564
7.13991 9.9994 9.96005
6.02458 7.95876 9.99945
11.7994 5.9549 -7.82672
-4.83797 -6.12472 9.99966
-5.21049 -0.726213 -9.9997
-3.23155 -6.66374 -3.2692
-5.19713 -0.299568 15.4068
9.95727 9.99946 -6.53708
-2.17382 -5.77499 11.8648
7.89035 -3.43413 -4.91358
5.11933 -6.16573 -13.6533
9.35618 9.99934 9.96353
5.81708 6.40003 4.45675
-8.19952 0.232532 9.93001
3.8681 -6.67157 18.9997
5.85027 -1.33726 5.84545
-3.81688 -4.19195 -11.8937
-8.19951 -6.65483 6.76961
6.15069 -5.50091 15.0003
-4.6392 2.7582 -17.1628
-8.19955 -6.58346 -4.24296
-3.24925 4.84861 13.5797
-4.49395 -3.06062 -17.1725
-2.99867 5.02256 18.9998
6.00407 4.12435 -4.38439
8.79258 -0.49305 17.0554
9.74419 -9.9996 -3.07321
-6.26474 -5.49508 -2.40717
-0.771372 8.38146 9.99952
-1.60926 -1.34499 -19
3.91071 -9.99945 5.71976
-6.3292 -0.697657 5.98205
-6.23772 -4.97318 9.9995
10.1494 2.66093 -9.9996
8.0576 -3.04208 19.0001
-8.19929 6.73719 -9.93909
-6.38503 -3.23626 -9.99971
-5.18213 0.762776 10.0473
6.6548 1.67634 -19
-4.93808 -2.14331 -10.0002
-1.26653 6.3076 -11.8727
5.95533 -7.86288 9.99939
7.00906 6.97989 -2.98838
2.90141 8.2482 5.89689
-5.16402 0.76106 17.1286
10.0839 9.99947 8.20471
-4.78121 -9.99951 -9.95213
5.95645 4.22428 4.32602
11.7998 5.32645 2.74381
-4.68237 2.67369 -13.5525
6.13909 -5.51055 -11.8479
11.7997 -9.91512 9.91386
8.3272 6.14825 -9.99957
-8.19932 -8.43052 -9.93967
4.1494 -2.49749 -5.52253
-4.1543 -9.99948 -7.80424
2.38915 9.99978 6.05497
8.01703 3.24853 13.5889
6.99859 -4.69316 18.9556
5.95645 5.63748 11.8347
11.7996 9.95055 4.62487
9.88522 -0.090792 -5.99711
0.07062 8.04904 -5.74585
-8.1998 -3.82424 -4.72345
6.69776 -4.81664 -3.61945
3.5107 -0.353896 -19.0001
-8.19945 1.59959 5.88625
-8.19946 -8.00329 7.95275
-5.15941 0.840044 -17.1566
6.33058 -2.25508 -19
-1.41293 6.23715 13.7263
7.25506 -7.69252 2.50329
-8.19952 1.86955 -7.95543
7.5378 -5.68588 -1.96208
0.69606 -6.90459 10.0552
4.63496 6.40968 -11.85
6.07327 9.99952 8.30616
-2.37102 5.62486 -10.0396
-5.19514 -0.396733 -11.8497
5.14462 3.79543 18.9998
7.38388 -9.95144 2.21285
9.62897 -7.75241 -9.99945
-8.19966 -6.0558 0.571704
8.56918 1.86091 -11.8127
11.7995 9.92979 8.16961
-8.19943 0.651102 -6.05273
10.0276 0.822512 5.96247
-4.12136 9.95241 1.01396
6.6008 2.38793 18.9999
-3.78592 9.99952 8.18873
8.22164 0.997233 -5.92392
6.53721 -5.15078 12.1181
7.52826 -9.99948 -8.15713
-4.00736 -4.06134 10.0003
6.55901 5.19801 -9.99979
-3.87306 4.38802 -9.99994
-8.19964 -2.38312 -5.58484
8.43334 -2.27284 -17.2031
8.00924 8.19179 9.99952
-1.82866 3.79018 -4.77946
7.49015 9.97103 -1.90092
11.7995 -6.19895 5.00026
4.74796 -5.07466 5.25837
11.7995 -4.72113 8.30189
11.7994 8.39875 -3.95012
4.72578 -9.99946 9.92804
2.00816 -7.01619 15.4131
8.09514 4.05877 4.43755
8.19542 2.85352 -13.5672
-3.72133 -4.32172 11.8777
-2.87201 -5.21672 10.0487
3.1887 -6.87529 -13.5825
3.50079 4.07113 -5.78735
1.66653 4.8411 19
7.28847 -9.99954 -2.75326
4.08534 9.99921 5.61903
6.77012 -6.52249 -3.35297
6.22275 -9.99923 -4.22012
7.73678 7.99101 0.900168
-6.28375 -4.35352 -4.13336
-5.9225 9.99953 2.11131
6.79902 -4.91505 -13.5892
-4.73608 2.53427 10.0559
9.72359 -9.99934 -7.81336
-1.97501 -3.35618 -18.9999
-8.19952 -0.380331 -8.01374
-3.428 -4.65329 -17.1801
-4.52887 6.25504 9.99951
5.21239 -0.666233 -19.0001
7.87147 9.9993 -0.206389
2.03098 -5.07564 -6.02606
-8.14798 9.99929 1.02818
-3.96289 7.80923 -1.76367
-2.12998 7.99733 -9.99945
-3.7182 5.4261 2.59039
-8.19952 0.787323 7.84792
-1.92729 -9.95252 -4.73263
-3.64181 4.42202 -13.5984
4.89311 3.14569 -5.14149
11.7995 -8.0541 -3.50387
6.49512 9.99968 -6.2874
1.91543 2.83229 -6.02119
8.24279 2.7021 18.9997
11.7995 7.84756 -2.05476
11.7635 -9.99922 -0.829995
-8.19949 5.87631 9.95744
9.02209 -4.91523 -3.44427
2.43471 -7.12406 -10.0001
11.7994 -4.88957 -6.11965
1.93074 7.01796 11.866
-8.15221 -9.99945 0.703971
-8.19952 -6.81343 3.58722
-4.19688 -7.96233 -0.484773
4.4436 -6.49588 -11.8497
8.39556 -2.3638 17.3417
5.01914 6.21495 13.5936
9.9617 8.01389 9.9994
-2.62457 -8.17698 -4.04933
-2.11811 -5.81061 15.3698
-4.94343 1.89841 -18.9567
11.7997 4.58153 9.97049
9.98583 -4.73106 3.69444
11.7994 3.07922 5.23242
-8.19951 3.47788 6.74595
8.00999 3.23951 -5.06055
-3.62075 9.99914 2.73845
3.08783 6.88476 17.1179
-6.26273 -9.99964 -0.111407
-8.14697 -9.99957 6.5488
-2.2087 9.99955 -8.39347
7.6842 -7.92025 -1.18938
2.60444 -6.95146 -11.8236
9.80483 -5.12773 -9.99942
2.94865 9.99959 -5.96277
-8.15247 -4.72907 -3.70922
-8.19957 6.44766 4.20826
-0.14682 -6.69503 18.9996
3.71691 6.73437 -13.6361
9.47429 2.59284 5.4103
8.35394 9.92309 -9.99965
-5.1764 0.697004 -13.5859
0.302648 0.552407 5.99519
-3.84459 -4.14707 -15.4149
-4.64855 -1.91087 -5.71346
11.7994 7.80649 8.15152
-2.99445 2.75702 -5.32536
11.7459 -9.99913 -6.54514
8.41879 -2.30106 -15.3616
-4.32404 -3.40667 13.6416
-2.78772 2.33738 18.9998
3.27468 -9.91169 -9.99945
-2.73648 -9.9995 8.27855
11.7995 -9.95811 8.23533
-3.30427 -1.19646 18.9998
3.74063 -2.05015 5.69486
8.19075 -6.25445 -9.9995
11.7997 -2.7569 -9.9451
-4.01974 8.01143 -9.99937
2.77346 9.89225 -9.99949
11.7995 -5.95967 -8.21088
0.676423 9.99945 5.98436
4.63295 6.40687 -15.4209
-4.18428 6.02389 -0.6502
-4.24096 9.99948 -0.621257
-0.458306 -8.50533 5.58309
11.7996 6.42845 -9.96099
11.7995 -7.99815 0.131704
0.660782 -8.2437 -5.92384
-8.19926 -9.94545 8.28028
11.7994 6.59931 -3.93051
-0.760098 1.22099 19
4.97924 2.92987 5.23229
3.60083 6.77321 -17.164
-0.212007 -2.57881 19.0001
-8.19958 7.38987 -3.93967
11.7995 -2.94466 -6.82089
-6.0634 8.01158 -9.99933
5.21638 -6.11583 11.6528
6.42227 0.493495 19
-4.62728 9.99955 4.29873
-6.07787 9.99957 5.98733
6.63482 5.06263 17.1112
1.78966 3.2081 6.0124
0.602448 -0.751307 19.0001
-2.51589 -9.99963 -6.43889
6.56619 9.94193 -9.99941
11.7995 1.34115 7.99272
-2.90001 4.77299 3.75625
7.21714 -5.35234 2.75714
-2.64024 5.41801 10.0005
-3.18044 -4.92421 -13.7125
9.59457 -4.24 9.99954
11.7991 -5.43722 2.73404
6.22045 5.51649 9.99993
-4.3882 -3.2795 -13.6488
2.88331 9.99951 9.92993
4.82305 -6.31195 17.1723
-2.14657 5.79422 -13.604
10.1266 -9.99939 9.93877
6.87608 -1.32148 18.9999
-2.5283 -8.54794 9.99942
-8.19952 -4.03895 -6.67275
2.11962 -3.18065 -19.0001
4.0231 4.68619 -18.9998
-2.13932 5.79923 -17.1854
8.57862 -1.75418 15.5286
8.4304 -9.99941 9.94242
7.71858 -8.23282 9.99951
2.23634 -3.0963 -6.00745
11.7996 -8.31027 -5.58965
-5.16526 0.783732 13.7015
-3.27087 0.295919 -18.9998
5.51147 5.94236 -17.1539
1.64512 7.00375 -17.1769
8.69537 1.20815 13.5256
-8.1431 9.99971 6.59556
11.7995 8.30353 3.97312
0.220466 2.14442 5.79119
11.7995 8.20776 6.05969
9.61469 -9.99945 7.68774
-8.11779 9.8837 9.99982
0.603858 -3.95633 -5.90479
-8.06429 -9.9996 9.92531
5.66827 -5.80956 -18.9992
2.52285 1.16791 -19
4.07636 -6.6178 -18.948
11.7301 9.99916 2.69115
8.79848 -0.963448 10.0002
10.1837 2.17912 9.99958
-8.19962 2.22556 -5.6636
0.182651 4.18188 -5.78199
-4.81483 -2.28913 -15.3908
5.88772 5.6832 15.3414
-8.19955 -5.87714 5.16072
-8.19945 -8.36775 9.94875
7.86389 -6.00901 -0.357507
7.21287 -7.97831 -9.99937
-2.91796 5.18248 -15.3531
7.73435 -5.86515 1.26194
-3.36468 -7.69732 3.04877
-4.69806 2.74636 -10.0001
-1.71479 -9.99962 6.73567
-8.19959 -4.83169 3.68734
6.01379 -5.6785 9.99982
-8.14684 -1.43861 9.99939
10.1266 9.99952 4.54666
11.7464 9.9992 0.701741
-1.91186 -6.26094 -4.70933
3.17658 6.88514 10.0554
8.46857 2.18735 11.8372
8.14557 9.99949 8.16296
4.8086 -1.00109 19.0001
5.88578 -7.95496 -4.39572
-4.98952 1.74526 -15.3524
2.66287 -9.99948 9.93837
-6.09231 -9.99938 9.9615
-0.976643 -2.68514 -5.3577
3.11274 -6.88727 -17.0915
4.76346 -8.47704 5.22292
-3.27221 4.82342 11.7226
1.01282 -6.96494 -13.518
-8.1987 -9.88988 -7.73094
-8.15073 9.99963 -8.1646
-5.06845 -1.35367 -13.602
2.65937 6.9433 -15.3796
8.77619 -0.802435 13.7259
3.02208 -6.89574 13.7355
-6.49458 5.35222 -2.70065
7.39074 4.22122 15.3248
9.78492 -9.99954 5.55978
9.82379 -5.99308 0.230621
8.13153 -1.33786 -5.84435
-5.17071 0.0935301 18.9997
-8.19901 8.38767 -9.9484
-8.19952 1.87561 9.9535
6.25169 -2.16731 -5.62315
8.73025 1.0789 -17.0856
-3.89001 9.999 -2.14385
-8.12639 -9.9979 -9.84926
11.7337 9.99935 6.4457
-4.55392 2.93501 13.7048
-8.14946 9.9994 2.82615
-4.82826 -5.01837 -3.29746
0.493624 6.89035 -18.9563
-8.19948 4.48591 4.10748
1.05928 6.97008 17.1069
11.7995 -7.81151 -1.75921
6.37499 5.30179 -11.9022
9.85406 4.99503 -9.99949
-8.19961 7.97307 -2.03392
-8.19946 4.93694 -9.93296
-8.19963 6.0537 -0.575201
-0.320626 9.99953 7.98031
7.72336 3.72888 -15.3435
3.4503 3.28093 5.80231
-1.31748 6.22584 -19
8.10285 9.99964 4.57884
-4.47231 -1.09982 5.9044
11.7996 9.95114 -5.00963
-6.28122 5.96286 0.781145
-0.31478 6.69249 -13.6529
0.354298 -9.99981 5.91433
-6.61087 1.41038 5.82826
11.7995 3.97676 -6.69454
-8.19955 -3.58765 8.39881
-3.09343 7.87427 9.99936
5.43687 9.99962 6.61549
7.01213 8.71233 -2.99869
-8.12678 9.99962 8.35054
0.662391 1.55252 -5.9111
2.63898 -1.01477 19.0001
-8.1995 6.59101 8.04217
11.7994 -8.10066 5.85348
10.1358 9.92663 -9.99967
-0.148684 -6.7282 15.3946
11.7997 -9.94584 0.976368
-6.55496 2.07453 -9.99963
11.7837 2.80434 9.99943
-8.05435 -1.77811 5.74982
-1.69583 3.96747 -18.9999
-8.1995 -8.37802 -4.26865
-4.05329 -3.79725 -18.9995
-3.96347 -3.03174 5.20031
0.715602 6.24234 -5.93659
-1.43058 3.46122 18.9999
8.04265 -6.28099 9.99953
-5.16778 -1.14403 10.0006
11.7995 3.899 -8.37111
7.88673 6.00474 0.0786325
-4.13674 3.69988 -18.9554
-6.27531 -9.99957 -6.19843
-4.63034 -9.99945 7.86795
-3.07367 -9.99987 -3.66116
-3.75395 -8.14378 -2.25839
3.672 -6.38078 -5.71991
11.7995 3.26914 7.75754
-2.91264 5.14862 -18.9987
-1.0826 -8.00911 -5.25711
11.7989 -2.99014 5.30548
7.08164 4.59712 -13.642
6.561 -9.99939 -9.94587
-3.33458 -1.71505 -18.9999
7.16412 7.52764 2.69734
11.7991 -3.15729 -5.17419
11.7998 1.74726 5.8324
8.1151 0.946526 5.9359
-1.04566 5.02588 5.28832
-8.19946 -8.08868 -6.24216
4.74905 8.2977 -9.99955
11.7424 -4.61239 -9.99933
8.71152 0.84057 18.9998
-5.97625 -9.99956 5.95077
4.91351 -6.26722 -17.0583
10.077 -3.18137 5.09618
-0.757953 6.51634 17.0872
3.72205 2.06763 -5.69743
1.40992 -9.99977 -6.06544
-0.492878 -4.66784 -18.9999
-8.19963 -5.60113 -2.40888
3.99565 6.64401 15.3448
-8.15033 -9.99942 4.76805
-5.01441 1.66937 -11.785
9.80174 -1.04711 5.90833
11.7994 -8.06246 7.99029
2.68534 -8.33216 -5.93213
7.0916 4.58436 -17.1243
-0.841221 2.51633 -5.45715
-8.13279 -5.64479 2.09419
-4.23245 -3.71745 -10.0002
0.848809 -6.96292 -11.6611
-8.19967 4.88668 -3.63311
9.65532 9.99947 -8.31825
-8.15509 -2.9955 9.99953
6.21617 -4.33384 4.1501
-1.29506 6.29122 -15.3907
-0.184856 6.61388 5.66564
5.54447 -9.99956 -7.61433
3.61222 -9.99963 7.94163
4.46774 -8.02836 -5.402
7.4794 -9.99967 6.04472
8.02808 6.23284 9.99961
-0.620982 9.97783 9.99942
5.66515 -5.83317 18.9421
8.21315 2.82103 10.0588
7.71102 -3.75002 15.4764
0.276421 -9.92262 -9.99948
11.7995 6.45422 6.7725
2.96511 6.3729 -5.88689
11.7637 -1.22233 -5.87185
8.79886 -0.276709 -15.3078
-3.88024 9.99961 6.16647
0.074882 -6.24916 -5.74241
4.58487 4.93914 5.33358
5.80757 9.99956 4.57131
1.74904 -2.88625 19.0001
11.7997 -3.12474 9.93772
-4.17834 5.88845 1.1102
8.78929 0.9987 10
8.2652 -4.24424 4.24639
8.01781 9.99965 -3.86961
-3.98498 -5.83694 -1.69277
0.846061 -1.00691 5.95663
-2.06395 9.99958 7.27165
11.7175 9.90836 -9.99762
-2.3506 -6.1946 4.34003
5.0164 9.99946 9.953
-0.303125 -2.18092 5.6435
2.08143 8.11521 -6.0238
-8.19954 7.81801 -5.90059
0.49383 -6.85429 -18.9991
2.8452 2.80845 18.9999
-4.48948 3.77384 -4.67317
-6.14546 -9.99942 -8.11646
-4.34623 -3.70287 -4.71981
9.79007 -9.99953 1.01918
6.36908 5.30644 -15.4205
3.92601 -8.38925 9.9995
-8.13203 3.17059 5.09295
11.7997 -9.94783 -2.59481
0.145212 4.77899 -19
-1.20869 -6.32713 17.1442
-3.0401 -9.95051 -9.99946
-8.19951 4.73033 8.19441
-6.51984 2.47345 9.99974
-3.07214 -7.03763 9.99965
3.6617 -2.80771 19.0001
-2.31758 -2.89453 19
0.158416 -2.80333 -19
-2.22408 -3.97012 -4.51535
7.39293 4.22258 10.0366
11.7995 -4.5683 6.36141
-2.17332 -8.09507 4.5062
1.64511 -8.51362 9.99964
-1.0434 0.779251 -5.97937
2.98929 6.90155 13.5677
-8.1995 -5.95002 -6.12131
6.76207 -5.02207 -9.99982
-6.62099 -9.9996 3.88827
6.92574 5.20723 3.1143
-8.19961 5.69984 -2.15701
11.7995 8.24843 1.74367
11.7997 9.94449 -1.19441
8.61745 1.59488 17.2673
4.40804 -0.36014 5.99309
-2.87846 8.39554 3.7606
-8.19946 -7.51822 -8.0475
-8.1995 -1.83398 -9.94461
-2.53479 -4.2578 4.22476
-6.46377 -4.0999 4.387
5.75785 8.14987 -4.51459
9.31771 5.22706 2.97807
3.14461 -9.99906 -5.95698
-3.9589 -9.9994 9.95221
5.31584 6.15778 -9.99991
-6.47851 9.99955 3.99124
9.48326 9.99958 6.34047
5.47099 -9.99931 4.88802
-8.19952 5.53442 6.13313
9.71534 -7.99228 9.99934
3.52476 -6.79195 11.8891
6.71984 4.98647 13.5528
6.00569 0.890403 5.94892
5.55917 3.36611 -18.9998
-3.96542 4.12514 10.0007
7.52893 -4.035 -11.8239
-4.68144 -4.37072 4.10895
8.80075 -0.661754 -17.077
11.7455 4.76845 -3.62979
-3.04559 -4.91883 -3.53447
4.77119 1.85206 18.9999
11.7997 -9.95568 -4.40912
7.70085 7.92152 -1.0854
-4.77143 -2.41974 -11.8489
2.10957 5.02172 -19
-1.07224 2.94725 5.27231
0.702499 0.968303 -19
5.02162 -8.26429 -9.99948
-8.13105 -6.73237 -9.99958
8.79267 -0.202946 -11.8585
7.31683 9.99964 6.34977
-1.34208 -9.99948 -9.94233
-2.82748 -2.41705 -5.49168
0.837318 -0.210752 -5.99163
9.62814 9.99952 -2.55047
-0.87459 -4.75934 -5.3866
3.11806 -8.11519 5.85585
-8.19954 2.62772 8.30619
-1.95517 -9.99953 -8.09188
8.79398 0.0990061 11.816
-6.04806 4.596 9.9996
-8.1584 9.99928 -2.85513
-0.505128 2.57074 -19
11.7332 -4.92162 9.99934
3.53837 0.645356 19
4.93094 -9.99942 -9.92072
-8.1995 3.64133 -4.888
1.80591 6.59102 6.01198
-5.9081 9.99945 7.93342
-4.27974 -5.99709 -0.120051
2.61854 -6.95059 10.0488
9.68767 4.18649 9.99955
-4.39189 9.99943 9.9604
-4.89863 -2.02762 -18.9405
-8.13681 -9.9994 -3.32728
9.81135 -9.9995 3.0333
-8.19957 -4.65151 6.63197
11.7472 9.9991 -8.28611
11.7994 7.96624 -7.98946
-2.82054 -9.9442 3.81093
7.55702 -3.9977 17.2756
8.77067 0.826369 -13.6124
-0.463299 -9.99954 8.12164
3.78475 8.421 9.99956
11.7994 -6.40255 7.32822
0.275175 6.90767 10
-4.18519 9.99951 -7.84816
4.78649 6.41071 9.9997
-8.19963 -2.78217 6.96675
7.67088 -0.781102 5.98101
-4.30127 -9.99963 -5.48634
11.7428 -9.99922 6.49099
1.92953 7.01292 15.309
8.22697 9.99963 -5.82192
6.5303 2.12753 -5.64057
-1.26345 -0.586675 5.99564
11.7443 -5.90608 1.04955
8.16523 2.91402 -17.1545
9.96151 -6.06197 9.9994
7.01014 7.76939 -9.99949
-6.05645 9.99952 -6.16726
-3.00161 -5.11506 13.6377
-6.13983 -5.98903 -0.754789
8.50991 -2.47376 5.46043
-1.09112 -4.40541 18.9999
-1.92247 5.92601 11.9704
0.803366 -6.94952 17.155
11.7427 9.99916 -3.01741
-2.81805 4.67709 -3.83745
-2.59497 -1.81061 5.73353
4.70165 9.99968 -6.90632
-0.889525 9.99887 5.44209
11.7456 -9.99919 4.56083
-0.974067 6.49553 -10.0001
-8.19948 8.00822 9.96115
-4.85203 9.99952 -3.84642
-3.11883 0.39303 5.99484
2.87996 -6.91265 17.1479
-6.37092 -0.938788 -5.93724
-8.19955 3.91586 -7.44438
-3.72222 -4.32289 15.3621
11.7996 -6.65982 9.93389
7.33812 -4.39169 10.0005
11.7996 5.70305 -2.06376
-8.19967 -5.96937 -0.92869
-2.28284 9.99967 -6.60636
-0.328642 6.68263 15.3391
-1.11167 -0.936174 -5.944
-8.13763 -5.10101 -9.99948
-3.75868 5.64983 -2.2695
5.81648 -2.96513 19
10.0499 -9.99951 -5.35063
1.69067 7.13391 9.99984
-3.95736 3.97969 15.315
10.0535 -2.81113 -9.99956
-6.16798 9.99944 -8.08999
11.7996 -4.02423 -8.19368
11.7996 5.38151 8.24773
7.02296 -8.27148 -2.95328
7.76661 -9.99973 -1.24918
-2.92142 -0.700885 -5.99297
-4.63762 0.126811 -5.99659
11.7997 4.59805 -9.96125
9.84879 5.89431 1.18944
2.01842 -2.4847 6.02537
-2.39524 9.99949 9.93447
3.4576 -4.78453 -19
11.7994 3.66221 -4.90843
0.635308 6.9181 -15.4237
-6.09797 -5.40183 -9.99961
-1.41152 -0.795585 19
-3.25807 6.80754 3.22469
-6.51303 -9.99943 -9.96043
3.81771 -9.99954 -7.93225
0.53072 6.88582 -10.0539
7.89522 3.44666 17.1458
4.73308 1.34401 -19
-4.41583 -6.30222 -9.99971
-8.19951 -0.0577517 -9.94119
-4.6817 -2.80114 10
8.23027 -2.75818 10.0548
-8.19958 -7.89264 1.6953
9.78936 9.99953 1.13915
7.49989 4.0827 11.8682
1.18961 -6.97446 -17.1209
-0.211992 6.7086 11.9066
8.79935 0.26873 -18.9519
-1.35011 6.34418 10.0008
7.75147 -3.68343 11.9011
3.44265 2.93401 -18.9999
3.83149 9.9995 7.95947
7.83163 -3.74564 -10.0001
2.35438 -6.99247 -18.9562
-2.80942 1.04095 -5.91681
8.43223 -2.22196 -10.0496
-8.19943 7.9545 -7.88447
-6.45463 -9.99943 7.95388
3.56735 6.84176 -9.99989
8.46073 -2.20492 -11.9028
-0.212539 4.82818 18.9999
-0.261104 -6.69986 11.8572
-1.66293 1.37863 5.83577
-3.16399 -4.95191 -10.0502
-5.19939 -0.269232 -15.3536
4.99042 0.890743 -5.9549
5.58223 -9.99962 7.41942
-4.80652 9.95134 -9.99936
0.762318 8.28742 5.92903
-6.44457 -2.80839 9.99963
5.49032 -6.06264 -10.0005
0.759537 6.94989 13.6396
-5.21496 0.87684 -9.9995
-1.22707 -6.35539 9.99982
6.56173 -0.168854 -5.99462
-3.88889 8.01719 1.92105
-8.14027 3.93273 9.9996
-2.98093 0.661111 18.9998
8.55939 -1.91487 11.9091
9.58806 7.71136 -9.99945
4.51992 -4.47217 19
-6.10676 9.99959 -2.04348
11.7995 4.6415 6.25433
4.41077 -6.5708 10.0004
3.01595 -4.18759 5.87537
-5.82057 -9.9996 -4.06415
-6.52356 9.99945 -9.95452
-5.10262 -1.14817 -17.1351
-6.13024 -5.89009 1.12456
6.95283 -0.223742 -18.9999
9.81583 9.99954 -0.775761
-6.41451 9.9995 9.94932
-0.496719 -6.63321 -10.058
6.97221 9.94494 3.03576
10.0699 4.11928 4.36744
1.44357 3.06462 -19
0.954536 -7.10846 -9.99998
-2.40615 -5.60154 -11.8851
11.7303 -6.50141 -9.99931
2.05472 7.12805 -9.99997
6.86449 -2.89211 5.25555
