1.47353 5.70734 0.448684
-3.17946 5.90024 -1.05858
-2.76115 5.36945 -1.36162
0.711906 5.56838 -5.29855
0.663354 7.04354 -4.60363
2.38461 5.03349 -0.927855
-1.27929 6.8534 -2.9497
-2.21306 6.98279 -3.12677
-2.84009 6.29324 -0.916869
-2.5657 4.94066 -2.57238
0.490416 6.68195 -5.22455
-0.0395216 6.16859 -3.42272
-2.88934 5.38205 -2.14882
0.684309 5.01038 -0.240051
-0.535263 6.53189 -5.3038
-2.18963 6.56534 -0.28331
0.696907 6.45467 -2.88332
3.12565 6.41993 -1.78399
-2.98658 6.56467 -2.88375
-1.88599 4.87578 -4.31112
1.48922 5.24955 -1.90174
-2.26125 5.25541 -0.592273
1.16004 6.3645 -2.29542
-0.110721 5.53645 -5.33452
0.0496414 5.94612 -1.03684
1.32614 5.29037 -5.15403
-2.83497 6.69294 -2.48344
0.490844 7.02679 -0.654316
-2.92631 5.46086 -1.73727
-1.24396 7.12809 -0.27405
0.858245 5.95391 -2.9401
0.671318 5.76246 0.780274
1.38676 6.43128 -4.91617
2.09457 5.74571 0.00942935
0.302407 6.98236 -5.17828
1.59733 5.10022 -1.53839
1.76349 7.19035 -4.2082
-1.11107 5.14408 -3.34675
-1.54471 6.0354 -4.94226
1.33759 4.76629 -3.33802
-0.672115 5.29228 -3.08405
-1.28536 6.5317 -2.62958
-1.42526 6.55779 0.368518
-3.38352 6.14046 -2.18112
-2.75039 6.11498 -0.560721
-1.78462 4.69334 -1.38728
0.249058 6.45592 0.840206
2.40135 6.54373 0.0264528
-2.49153 5.04778 -3.41368
-1.13536 6.83721 0.433824
-0.80163 6.87143 -5.20681
0.0987943 6.42867 -1.05163
1.07492 6.52119 -2.74889
-1.43963 6.66787 -2.30957
0.552727 5.04911 0.714585
-0.157702 5.01417 -3.89809
2.1912 4.69771 -2.11495
1.63259 6.99141 -0.614193
0.872152 5.99706 -2.28239
-1.8803 5.07646 -0.575798
2.46572 5.17773 -3.27393
1.49982 7.06771 -3.75705
-0.0874547 5.78687 -3.4217
-0.4025 6.45624 -3.38987
-2.18126 6.17211 -4.53533
1.33397 5.05745 -4.26844
-1.06282 5.45342 -1.39504
-1.24484 7.01507 -3.94071
-2.22883 6.87269 -3.58251
-2.19312 5.07516 -0.962214
-0.153364 6.99372 -4.03994
-2.54637 6.68089 -0.96786
2.3651 5.51288 -4.56606
0.983966 5.05392 -4.4625
1.82504 7.27944 -1.65918
1.36246 6.95344 -0.258742
-0.112509 6.11741 0.855799
2.31586 6.89576 -1.15161
1.51919 5.25362 -2.3173
-1.46921 5.05436 -1.50104
2.67919 6.47269 -0.263833
-1.52197 5.06383 -3.26886
0.732738 5.11473 -0.856418
-1.34716 5.24005 0.398407
-2.05059 4.68263 -1.72293
2.23931 5.14508 -3.60492
0.270411 5.01984 0.357447
1.25491 7.08347 -0.726849
-1.49068 4.71814 -1.14172
-0.819105 5.47868 -2.78526
0.968005 6.64738 -5.06732
0.644935 6.98529 -4.17827
2.6129 5.34965 -1.01506
2.63509 5.58663 -4.29914
-0.497235 6.55523 -1.36264
1.81028 5.81102 -4.87192
-0.747163 5.12129 -3.46678
-2.53715 5.29745 -0.980686
1.01786 6.8278 0.724636
2.95645 6.53588 -1.42062
-1.94846 7.30169 -2.38052
-0.187879 5.17139 0.869792
-1.16791 5.26354 -2.97125
-0.325308 5.77461 -1.05682
-1.64634 5.86531 0.511794
-0.548728 5.24142 0.878613
-2.80102 5.73825 -0.36396
1.00319 6.70351 -3.14715
-0.189306 6.04915 -5.32909
2.01522 7.29586 -1.9788
2.63574 6.73918 -3.18973
3.12745 6.40135 -2.20493
-1.08113 6.13323 -2.50006
2.85944 5.46641 -3.32087
1.35797 7.10114 -4.12884
-3.1423 6.44742 -2.47461
-0.385982 5.13984 -3.35644
1.77171 7.12136 -3.43517
-0.255177 6.26506 -1.13081
-0.942704 5.14046 0.343877
-0.633047 6.87853 -0.706358
-0.844663 5.88754 -1.50031
1.16662 5.30782 -1.52539
-2.4433 6.59862 -4.38293
2.10272 4.69722 -2.49486
-2.73607 6.51856 -4.06321
-2.46756 6.16804 -0.267847
-1.34211 5.13254 0.0341301
0.579376 6.90679 -3.78531
2.01503 5.13965 -3.91084
0.256846 6.98389 -4.2535
1.68297 5.08073 -4.07832
3.1744 6.27772 -1.06641
0.196307 4.98964 -4.0674
-1.39249 7.11406 -3.47825
-3.04132 6.49746 -2.06235
1.9417 7.22748 -3.89596
-0.153758 5.06147 0.426334
-1.334 4.94171 -4.27897
2.21527 6.93139 -3.85032
2.37412 6.24149 -4.21629
1.74389 4.86888 -0.0949896
-0.215463 6.97123 -3.49109
2.91434 6.39123 -0.574874
1.83412 4.9765 -1.97549
1.65788 7.10335 -0.981996
2.82135 6.68601 -1.88293
2.91053 5.44555 -1.82207
1.39382 6.7812 -2.93826
0.567533 5.16344 -5.30004
0.676825 7.02443 -5.06233
0.510542 5.32933 -3.43844
-1.76137 7.27457 -2.71738
2.45057 7.04663 -2.96032
2.84858 5.63725 -4.01576
0.901495 5.11834 -4.90956
-2.0693 7.31509 -1.98074
-3.07659 6.37908 -1.66771
-1.85064 7.03296 -3.44543
1.4581 5.65854 -5.08301
-2.58842 5.0111 -2.16811
0.606059 6.12111 -3.17282
-0.885699 5.68706 -2.47893
0.958558 5.21007 -1.17496
1.66733 6.83053 0.070164
1.43909 6.04087 -4.9965
1.82576 4.90483 -1.1617
-0.202105 6.76037 -1.13135
0.982695 5.02169 -0.488197
-2.507 6.93298 -2.52846
2.43204 7.02988 -2.00764
1.577 5.03555 -2.7489
-1.40089 5.01507 -0.350218
0.647515 5.3798 -1.44138
-0.186289 6.60567 0.800303
-1.17514 6.34344 -2.1439
1.33039 5.1652 -4.74294
-0.542903 4.98547 -4.74412
1.08236 6.44803 -1.51324
2.90007 6.49128 -2.9662
-1.61354 6.86949 -4.55779
2.35854 5.67417 -0.304424
0.166219 6.9457 -3.7858
-1.96916 6.89367 -3.90058
0.675279 6.53597 0.810493
2.70847 5.98441 -4.01869
-1.90202 6.92545 -0.237198
-1.84724 4.88095 -0.98639
-1.7248 6.26888 0.30329
0.590865 6.90339 0.772551
0.693489 6.80063 -3.43926
-0.134607 6.49667 -5.32392
-3.16519 5.72376 -1.87299
1.20132 5.58462 -2.28938
2.19328 5.05937 -0.521533
2.40182 5.36443 -0.593407
0.301223 7.01765 -4.7295
1.02194 7.06975 -4.39016
1.09253 5.8724 0.657089
2.06918 6.74184 -0.073424
0.769216 6.27235 -1.2688
-2.14021 4.87627 -1.34423
-2.89513 5.56897 -1.02494
2.93965 6.55437 -2.53414
1.70548 5.21181 -4.5422
-1.53821 6.94885 -2.62804
-1.61258 7.00337 -3.77118
0.167458 5.11002 0.818244
-2.63433 6.68002 -3.68376
3.02648 5.54746 -2.94007
-2.74411 6.14216 -3.92957
1.81291 5.40675 0.120908
0.31713 5.0112 -0.0997477
1.52089 5.25914 0.302908
1.95126 4.87809 -1.58567
2.92878 6.08457 -3.60306
1.04845 6.18285 -5.12625
-2.49019 6.48795 -0.602511
2.82936 5.6796 -1.03446
-0.0961816 5.07138 -3.47382
1.41036 5.09316 -1.16543
0.302561 5.98614 0.849815
3.20972 5.80367 -3.34434
1.70025 6.70102 0.49577
-1.23699 7.17563 0.180188
0.925088 5.21005 -3.31016
-2.98374 6.43588 -3.69372
-1.71035 7.00892 -2.21048
1.63746 6.88145 -2.60513
-0.849215 7.0035 -4.16601
-0.52861 5.03353 0.0547588
0.613108 4.99942 -4.277
0.371901 5.64621 -1.14025
1.05118 5.53641 -3.01313
2.92801 6.03721 -0.807335
0.904077 7.13061 -1.01466
2.0616 5.27758 -0.189011
-1.00142 5.05338 -3.76497
1.72061 5.36483 -4.99291
-0.509434 7.02807 -3.86601
0.339979 5.83369 -3.39192
2.57461 6.83732 -1.58204
-2.76759 6.59039 -1.31952
-2.18024 7.10544 -2.7211
0.304511 5.53329 -5.34115
-0.0395914 6.58296 -3.41951
2.11281 6.19526 0.172784
1.80841 4.93779 -2.39171
-1.9402 4.9044 -3.13364
2.28483 4.7149 -1.68271
-1.4061 6.42487 -5.06062
0.59615 5.05247 -4.68659
-1.50632 4.88368 -0.726207
0.207728 5.01573 -4.51331
1.76489 6.25842 -4.74062
-3.36865 6.1714 -2.53022
2.91771 6.49988 -0.936353
0.259243 4.98306 -3.55486
2.06464 5.44021 -4.7959
-1.55976 6.89657 0.119375
0.43738 5.21265 -1.1959
1.78526 7.04211 -2.22579
2.29594 4.9423 -2.88513
0.719244 5.65616 -3.26235
-0.137318 7.01358 0.714859
-0.0152777 6.91882 -5.26289
-2.09218 6.28068 0.0192481
-0.493225 6.96994 -4.83494
-1.33424 6.17167 0.554701
1.16287 5.48409 -1.91002
-2.35072 6.74941 -4.00879
0.721514 6.15457 0.788899
0.973895 5.23767 -5.24988
-1.38529 5.00882 -3.72327
-0.704587 5.61893 -1.1778
-2.51268 6.7999 -3.30694
0.126756 6.97028 -0.494257
0.460724 6.57862 -1.06104
0.174681 5.07234 -1.00087
3.16369 5.66193 -2.53954
-1.36116 6.90169 -1.14272
2.47368 4.90654 -2.05144
-0.678216 6.74345 0.661441
1.08537 6.204 -1.92006
2.30523 6.72384 -0.413867
-1.90738 5.34777 -4.52255
0.693049 4.97946 0.206119
-0.617263 6.15435 -5.28253
0.784032 5.56578 -1.70743
-2.2437 4.77727 -3.57743
1.37782 4.91637 -3.78724
-2.14811 5.22466 -4.20207
-3.0018 5.55842 -2.51709
2.20451 7.29438 -2.76822
1.0858 4.9449 -0.0485946
-2.45242 6.96459 -1.38384
-0.557078 5.1161 0.498024
-1.20479 6.95587 -4.36622
0.0356046 5.62116 0.883975
2.40119 6.09821 -0.112712
-2.31413 4.69541 -2.43008
1.1929 5.39352 0.53829
1.78139 6.29851 0.416365
-3.19591 5.78857 -2.27328
-1.01418 4.98366 -5.01993
0.115363 5.10773 -5.30812
-3.01948 5.81703 -0.710997
-2.94725 6.04719 -3.54482
-1.72986 5.16141 -0.203109
-2.84637 5.68248 -3.3592
-2.19117 6.88464 -0.598967
-2.78032 5.2495 -2.58271
-1.12554 6.12062 -5.14301
-1.04667 7.13082 -3.3019
1.62658 4.73001 -3.1141
0.912762 6.01722 -1.60934
-0.985429 6.65128 -1.34237
-2.67011 5.18227 -1.77576
-0.937942 7.06773 -3.71641
1.91599 7.12797 -2.62756
-2.85806 6.61358 -3.28396
2.65976 5.23242 -2.92193
-1.90281 5.87605 -4.67652
-0.228581 6.89919 -0.702637
1.61653 6.98575 -1.84251
3.17468 6.25882 -2.68852
-2.58836 5.4169 -3.62507
-0.392333 6.89839 -5.26565
1.09246 6.88684 -3.55991
2.1091 4.76584 -0.811934
0.620634 5.96152 -5.27394
-1.63123 5.62288 -4.81702
-0.501991 6.99354 -4.36705
2.65489 6.70769 -1.1829
-0.307603 4.95876 -0.393253
0.405859 5.45981 0.830354
0.895667 4.9957 0.567765
-1.16212 4.75522 -0.957107
-1.00184 6.46653 0.609198
-1.65196 4.90594 -3.99961
3.41044 6.03982 -2.24625
-3.08214 5.66912 -1.41513
-3.17335 6.35121 -3.30022
2.73592 6.78199 -2.25971
0.860893 5.78308 -2.00447
2.47813 4.98342 -2.49839
-0.823249 4.80864 -0.862336
-0.192065 5.00587 -4.36599
2.28798 6.59083 -4.05819
-1.83623 6.60428 0.0464938
-1.60886 5.24213 -4.75252
2.61454 6.32932 -3.83365
1.3839 6.75803 0.626879
1.42104 4.91832 -0.372391
-0.448202 6.02175 -3.33583
-2.00478 6.81202 -4.31821
-2.42479 5.4489 -0.294572
-0.665866 5.01502 -5.15675
-1.75596 7.0361 -1.78386
-0.864288 7.12461 0.429966
3.08178 6.1748 -3.16651
-0.689493 4.92925 -0.408306
1.0081 7.07237 -4.89361
0.845998 6.93282 0.385076
0.55621 7.03585 -0.968844
-2.31948 7.11655 -2.23706
-0.486698 5.74275 -5.29183
0.983614 4.9398 -3.97051
-2.43978 5.88942 -4.1718
-1.28616 5.33244 -4.98063
0.675341 5.82631 -1.34833
1.89097 4.70562 -2.82158
2.14401 7.3007 -2.33879
-1.02964 6.85987 -0.918697
0.965624 6.96747 -0.0865364
-1.39035 7.07044 -0.674613
-0.193791 6.98277 -0.196528
2.05135 6.62732 0.296919
-1.9963 5.92472 0.28569
-1.05394 5.72103 -1.77851
1.96708 7.09422 -1.2487
0.313468 6.32943 -3.32601
-0.96769 6.98848 -0.502675
2.63542 5.69402 -0.668712
0.836792 5.41087 0.70032
-1.56099 6.76859 -4.97878
0.1587 6.91771 -0.995378
-0.964605 4.96225 -4.57202
-1.24873 5.38326 -2.58284
-1.23921 6.90656 -4.76002
0.671353 4.88739 -3.55335
1.06928 5.74245 -5.19769
-2.10727 7.31464 -1.57789
1.4211 6.91766 -3.31694
-2.67663 5.77772 -3.77934
1.9773 6.84415 -4.25942
0.511015 6.64466 -3.13465
1.49475 4.89213 0.137835
-1.83718 6.32326 -4.82017
1.54142 7.14671 -4.48569
3.39284 5.96701 -2.5881
-1.16983 6.81865 -5.13086
1.92833 4.81007 -0.409096
1.36967 6.86546 -1.56006
1.36346 6.62763 -2.52346
1.49842 6.72801 -2.17397
-0.354637 5.61761 0.893033
-0.378274 5.53779 -3.32376
-0.0843224 5.01492 -0.00876794
-0.666479 6.71355 -3.33732
-0.561368 6.97732 -0.320121
-1.06561 6.3439 -2.89826
2.22261 7.08023 -1.60769
-1.77325 4.90272 -1.76687
2.64425 5.39503 -3.67855
-3.3677 6.06892 -1.8466
-0.804178 5.20314 -1.05448
-1.98207 4.90529 -2.68094
1.65332 4.91194 -0.759832
-1.23049 5.35776 0.754789
3.04436 5.71927 -3.70508
-1.14712 5.60059 -2.15369
1.43877 6.18981 0.563117
-3.16459 5.86557 -2.738
-3.04614 6.25753 -1.27049
2.8202 5.31968 -2.57686
2.23808 4.7343 -1.24382
-0.516929 5.36716 -5.27022
1.85255 6.86917 -0.355505
-1.72976 7.0724 -1.38037
-0.633001 6.74643 -1.06012
-2.67038 5.49434 -0.653134
-1.60913 5.1457 -1.97485
-1.45295 6.70858 -1.92647
0.0761603 4.99677 -0.490412
-1.40958 5.35386 -2.20678
-2.08135 5.3245 -0.134718
2.63265 5.10666 -1.71738
-1.8831 6.71901 -4.80586
-2.31953 5.94646 0.0305503
-1.4007 6.7806 -1.53597
-0.112244 7.02998 0.293252
-3.30823 5.98163 -1.47678
0.321525 5.05349 -4.96393
-2.67602 6.827 -2.11485
2.0925 7.25421 -3.55862
1.19684 4.94304 0.381423
2.52579 5.04489 -1.34953
0.0947638 5.42985 -3.45117
2.98299 5.47981 -2.23457
-1.82054 4.90525 -3.57549
-0.945819 6.46221 -5.22345
-1.60692 6.92725 -4.16911
0.424233 6.11309 -1.10788
-1.97634 5.51421 0.414754
-1.65015 4.90632 -4.56736
1.28716 5.11821 -3.07038
2.72172 5.19064 -2.16135
2.06834 5.27997 -4.33463
-1.10183 6.47985 -1.73911
1.31786 6.56342 -1.87046
2.78555 6.42179 -3.41229
1.10534 6.3808 0.711162
-2.39854 5.51599 -4.02217
-0.690819 5.75756 -3.12491
2.05235 6.40625 -4.44257
2.07267 6.90546 -0.784039
3.38449 6.11604 -1.85345
1.312 5.40324 -2.69395
0.914498 7.04145 -0.524401
-0.69149 6.36056 -1.60854
0.214205 6.94665 0.777713
0.193543 5.94452 -5.32831
1.56678 7.24709 -1.38805
2.49779 6.67117 -3.64122
-0.881758 5.92373 -2.1626
-2.38854 4.90944 -1.75219
-2.33593 4.74293 -3.19355
1.75925 4.92666 -3.56907
2.82162 5.45133 -1.41038
0.326631 6.99092 0.410922
3.12709 5.78463 -1.6305
3.30361 6.20229 -1.44857
2.42384 5.90826 -4.37728
-1.3201 5.38113 -1.74846
-0.823479 5.65565 0.838271
-3.08548 5.94523 -3.1335
2.40167 5.34969 -4.04041
-0.0851085 6.99305 -4.89284
2.04466 4.91629 -3.23795
-1.56819 7.22366 -0.146223
0.00926564 5.46292 -1.0083
0.22488 6.82878 -3.369
-2.60238 6.81579 -2.90311
1.05044 5.79112 -2.62001
-1.34888 4.9443 -4.81479
1.22074 5.05151 -0.80393
-1.84439 7.15106 -3.07603
-1.79885 7.25965 -0.481999
-0.959632 5.02887 -0.0983393
2.1104 5.95045 -4.61983
-0.817019 6.13944 -1.88306
-0.88057 7.088 -0.041336
2.16655 7.28045 -3.17239
-0.547524 5.04381 -3.83294
-0.273678 5.05353 -5.25418
-2.08828 4.82051 -3.96092
-0.545861 6.36317 0.770288
-1.6564 5.14029 -2.45311
2.66516 6.04438 -0.432734
-0.399499 5.32218 -0.975095
-0.486673 4.8761 -0.836249
0.584737 6.97517 0.104292
1.35042 6.78453 -4.83138
3.0644 5.89104 -1.24667
0.446827 5.04742 -0.605713
1.71339 6.70608 -4.59523
-1.59522 5.12198 -2.85382
1.78092 7.05235 -3.01865
1.26923 6.88653 0.231075
-2.28894 7.01315 -0.986864
-2.22719 4.68586 -2.07659
-1.75081 5.29749 0.184581
-2.61496 5.06513 -2.96246
-0.484777 7.06623 0.611317
-2.58181 5.68746 -0.0886889
-1.92457 4.91098 -2.21382
1.79482 5.87672 0.292962
1.10969 6.83553 -1.30167
3.32857 5.8872 -2.95808
-1.96901 7.27795 -0.802877
-0.85797 6.95506 -4.68592
0.677035 6.34407 -5.21664
1.01918 4.81498 -3.4859
-2.49339 6.24469 -4.27332
-2.17309 6.64578 -4.61878
-1.17513 5.07673 -1.21412
-1.08276 4.89428 -0.537364
0.822145 6.22932 -2.58284
-0.923629 6.07035 0.733045
2.46031 7.06463 -2.47027
0.178916 6.99117 -0.0254158
-1.25712 5.72581 -5.04724
0.552196 4.93914 -3.89729
-1.62442 5.44211 0.608434
-2.45781 5.10654 -1.36541
-2.34993 5.12702 -3.82742
3.19903 5.75344 -2.05323
-0.58471 5.00387 -4.2827
-2.70231 5.32833 -3.22712
-0.513244 5.9697 0.837164
2.54123 6.6837 -0.741417
-0.570343 6.07299 -1.27998
0.809775 6.68768 -1.16137
-0.116043 5.01186 -4.84335
1.26123 7.20018 -1.16497
0.538117 6.99781 -0.279221
-0.502556 7.05818 0.143509
-3.29815 6.26994 -2.91437
-0.96772 5.00203 -4.12555
-1.67458 7.13223 -0.967784
-2.15539 5.6813 -4.39282
1.29686 7.11629 -4.69331
-0.148351 4.96501 -0.884643
1.0107 6.97765 -3.93504
-0.997952 6.68667 -3.14458
-0.105465 6.99315 -4.49043
-2.4208 7.05635 -1.80538
-2.35949 4.7172 -2.83723
2.68449 6.80672 -2.73107
-0.63576 7.05509 -3.4526
-0.916769 5.93657 -2.85553
-0.868796 5.81544 -5.20474
-0.774903 6.25908 -3.18669
-1.25754 5.76064 0.704541
2.37803 6.99328 -3.40811
-1.44783 7.22034 -3.06172
-0.913322 5.40407 -5.15798
0.239435 6.37351 -5.30084
-2.28219 5.57224 0.183681
-2.06909 7.30477 -1.20245
-2.90408 5.53074 -2.93327
-2.74939 6.72144 -1.71694
-0.890777 5.27897 0.822108
