-4.43983 -4.07886 4.39493
-8.10878 -6.1109 -0.635527
10.1094 2.65354 -10.007
-6.63335 -5.12701 -3.10051
-4.42802 -10.0076 8.1577
5.12235 -6.16419 15.3555
-6.07922 -10.013 2.93517
7.07652 -4.62611 -17.1061
11.6411 9.86866 1.80145
-3.28779 -0.562564 -19.0049
-6.23885 10.0065 0.583352
9.24197 3.23979 5.04704
-6.27816 -10.0083 -0.891835
8.13605 -9.91211 -9.80786
8.33123 1.95574 18.9036
9.55301 -10.0055 -6.3615
-8.20937 -1.97312 7.86703
-1.85101 -5.96467 -11.8896
-4.76783 -10.0155 -4.35488
-8.13336 1.3778 -9.83146
11.6996 2.93904 -9.83231
0.606347 6.90671 -15.3436
11.7166 9.8592 -4.64828
7.59124 3.57076 18.8641
6.42157 8.33705 -3.81006
4.09985 6.36371 5.54148
11.6875 4.18165 -4.5719
5.15552 5.63508 -4.98269
8.04347 10.007 7.87755
-8.20821 -8.00865 0.987465
3.94801 -6.67321 17.1039
-4.30241 9.87336 -9.86599
-6.73541 -0.699057 10.0144
-4.45446 -3.18061 17.0834
-2.91753 -9.81093 -3.91877
4.97992 -3.8473 19.0051
7.73017 -8.00148 0.728435
7.55128 10.0035 -5.88416
-8.06654 1.13105 6.04158
-6.29312 0.571458 5.98181
-1.16841 -3.06501 5.26702
-6.46939 -9.87458 -9.89166
-1.43072 1.69734 -5.75261
7.70318 5.94274 1.62519
-6.00429 -5.61435 2.09491
-5.73326 -10.0079 6.50481
-8.20705 -5.84111 -8.16924
5.73554 -6.16214 -4.52937
11.6936 1.09932 6.08813
11.6325 -9.92221 2.13831
-8.12556 -5.55163 2.61251
11.7129 5.21577 -3.26564
10.0261 3.03856 10.0041
-8.21355 7.73549 3.39437
8.65779 0.477583 -18.8582
7.69905 -3.77524 -15.4562
-8.10933 3.70529 -4.99193
-1.5967 -9.84651 5.04891
-6.32044 4.34254 -4.14449
5.352 -6.02958 11.9117
5.06467 -6.18636 -11.8552
7.15185 4.51794 -15.5607
-8.21661 7.99544 1.49096
11.7108 -5.87819 1.67584
-8.20658 -8.32232 -5.62109
-8.07353 4.88666 -3.79465
7.12715 7.9686 -10.0134
-8.20709 -7.91541 6.00716
-4.77151 -2.42075 -13.5898
-4.68767 -10.0112 4.46606
-8.21419 8.22978 5.52065
-5.09542 1.27689 -17.1508
-2.00998 2.79192 19.0065
7.6845 -5.91786 -1.81918
11.7366 -7.77609 9.80035
-4.52922 3.9508 -4.51438
-1.21199 -6.44785 -10.1128
-4.98375 -5.00833 -3.28958
-3.05633 -5.04592 -15.3797
11.8079 7.93663 -1.60457
3.86147 -10.0106 7.69609
-1.83255 -5.99904 17.0765
9.76023 -10.0119 1.31868
-2.44147 9.90047 4.45477
2.5398 -6.80075 18.9138
11.4598 9.86203 9.79693
7.97197 3.30843 -15.0837
-3.64908 -5.41 2.90333
3.32944 6.84798 15.3251
4.35519 -6.52457 13.5928
7.77842 9.79689 9.86038
-2.50036 -7.61942 -4.18519
0.807461 3.67508 5.92818
-8.07609 9.85909 -1.44747
-1.26649 9.86918 9.86091
1.80139 -10.0154 8.02131
-8.20697 -6.47871 -4.43883
-8.09797 -4.58061 9.86033
-8.10652 2.34579 -5.72409
11.8085 2.10563 7.82298
-5.76024 -9.8667 9.9067
1.59434 6.9899 11.829
-1.29429 0.40594 19.0028
-0.0147717 7.68208 5.71265
11.6823 9.87286 -6.33883
-5.0192 -1.62809 -15.3277
11.6846 9.82476 6.72803
0.502081 9.91096 -6.08304
1.69979 7.00207 -13.5611
-1.82024 -10.0168 -8.54537
9.93497 4.0853 -4.38159
4.45102 6.48586 -15.3462
7.2205 4.6378 -10.1167
11.6818 -5.19078 3.26564
-2.56782 -4.35395 4.21799
11.6023 4.64506 -9.93525
-8.20636 -7.87668 7.97858
9.5069 -5.47493 2.43568
-8.21232 -7.91955 2.9019
7.7386 3.69591 -11.8951
11.7122 9.83037 -2.94471
11.6953 9.86168 0.049526
-4.73233 -2.74826 -10.1235
-2.77196 4.58239 -4.00767
9.92466 10.0124 7.99217
3.51871 6.36235 -5.75424
5.94566 -9.8703 4.5719
0.155269 -6.70426 -18.9407
-8.20984 8.11901 -8.07615
11.6933 -3.84968 -4.85255
-2.56527 5.47262 15.3056
-3.16725 8.1864 -10.0128
11.6572 -9.86126 -1.76352
4.19274 -6.69438 -5.50372
-6.29927 2.90143 -5.26425
8.00729 9.86587 -9.84403
-4.40817 2.89798 18.929
8.11225 -3.00934 12.0023
-4.40372 3.27583 -17.2174
5.40094 1.35637 -5.87513
-3.5647 -10.0107 -5.92537
5.03361 9.90888 5.18731
-3.514 4.33775 -18.8308
-1.84676 -10.0081 -6.8687
11.8051 7.49243 6.26362
-6.57994 -10.0138 -4.92721
-8.20526 5.4945 -5.96661
-0.607155 -3.98142 19.0049
-8.20424 -5.59695 6.02837
1.81524 4.78499 -19.0037
-4.85586 -2.17538 15.3645
-8.20739 4.70652 6.31634
0.956299 6.96236 -11.8273
2.56748 0.957998 5.96091
9.85749 9.89602 -9.86422
-8.0703 9.85299 0.294709
-6.33035 9.84649 -9.89914
-6.41591 -1.55557 5.78724
-3.5605 -10.0076 6.18325
-8.07267 4.82131 9.87895
9.77315 -10.0072 -0.776191
10.0598 10.0182 -7.86283
-0.631915 -6.56073 11.9337
5.91119 9.88802 9.82322
-2.66723 -5.5979 -10.1201
11.6449 6.54188 9.8963
7.18598 -4.24397 -18.914
-8.20748 7.84707 -2.42724
11.8114 -7.93157 -8.20261
4.69244 -6.20476 -18.9159
-8.20351 6.61495 -4.26652
-6.23826 -5.99208 0.385036
7.73115 -3.70535 -11.9618
-5.1376 0.960527 13.661
-0.405401 4.17893 19.0058
6.881 7.89547 10.0079
11.8073 -6.90005 3.38942
7.96756 -6.27945 10.0039
-8.08005 -3.3369 -9.8467
3.92386 9.89885 9.84258
-8.0519 3.36625 -9.85003
-1.46071 -1.14662 5.89086
6.99889 2.87454 5.26609
-8.03074 -8.28876 9.85682
11.6973 -2.23971 -5.7611
5.95983 -8.04673 -4.30788
-3.90644 -10.0091 -7.93399
5.89044 -10.0113 8.24435
-2.70581 4.52381 4.13568
-8.21701 8.04996 7.89443
-3.42509 9.85691 -3.21955
10.1433 2.00425 5.64999
9.87913 -9.79697 -9.91912
8.08883 -10.0115 -7.80195
4.30369 1.02323 5.92409
3.49797 4.44374 19.0052
-8.05209 -9.89406 5.97318
0.969799 7.047 10.1171
-8.20921 -8.29827 -3.64449
6.03166 5.75942 10.1155
11.8059 -7.78867 -6.38987
5.58113 5.89703 -13.6194
4.67662 10.0089 -7.96766
11.5969 1.21877 9.95044
9.63678 -4.59946 3.84184
10.0649 6.51012 -10.0101
-4.34116 3.36205 -13.7503
-3.15275 4.97189 -16.7396
11.8084 7.94834 -5.83566
-1.547 -10.0144 6.7151
5.33884 3.60573 19.0064
11.7171 -9.83173 -3.64087
-2.44539 9.80602 -4.39247
-2.91515 7.45675 -3.71527
-8.06668 9.89488 2.22644
8.71923 -1.07543 -13.6466
-6.18955 -10.0077 1.08155
11.7108 2.927 9.82017
-4.69006 2.62019 -11.9614
-8.207 -3.9112 7.55214
-0.362825 -4.40437 -5.5947
8.34793 -10.0049 -4.37882
-8.21389 0.074132 8.02559
-8.02787 8.25722 -9.94302
-8.12077 5.86429 1.92244
11.8079 4.3837 -8.2796
-0.0342178 0.630261 -5.98699
-6.15042 3.9971 10.0063
-4.5161 3.01161 13.6059
-8.20911 8.0171 -0.483392
-1.7808 6.02815 17.0606
9.03812 -0.0452521 -10.1085
-1.65835 -9.82452 -5.0247
1.75371 -6.81534 -18.8611
-8.15414 -2.32048 -5.81478
11.8037 -3.92584 -7.39142
3.56576 -6.12042 5.74214
-6.11054 7.79754 10.0134
7.1406 -4.26641 18.9407
-1.44163 -9.86798 9.86222
11.8086 -8.45361 3.06803
7.92693 -10.0068 7.61945
10.1435 -10.0112 -4.62152
11.8109 0.203647 8.05652
-8.21318 -8.24791 -0.865877
-4.45654 4.58636 3.84959
0.0653258 2.08001 19.0026
-2.95448 0.903086 -5.94469
7.88042 -3.47428 15.603
9.93742 -10.0122 -8.24181
-3.08247 2.86964 -5.27306
2.7537 -8.14692 -5.92167
11.6733 5.81467 -1.95395
7.18403 -5.26167 3.08292
-6.35913 10.0062 -5.8811
11.6428 5.24501 3.11272
-4.85347 -2.14368 11.9711
6.34033 -5.33009 -15.4298
7.33819 9.88356 -2.60162
4.23597 9.88928 -9.79693
0.850509 10.0079 -8.05312
-8.21277 3.86825 7.95486
9.49898 4.66049 -10.0018
10.0063 4.4616 4.00113
1.78225 5.41453 -6.01672
11.8023 -5.89621 -7.83859
-4.1062 -3.79685 -4.6432
11.7092 -9.84318 -5.6024
-2.42639 5.28362 18.8529
-4.06202 3.83269 -15.5278
7.22665 4.41312 11.8805
4.49809 -8.42905 -5.34149
-0.0963851 -9.8741 -5.83241
4.61894 -6.57246 10.1235
-4.73186 -9.85126 -9.89026
-3.75165 -9.88903 -2.57112
-8.20712 -6.95828 4.40855
-7.99699 9.9361 -8.25185
3.6071 4.37882 -5.73017
-4.73134 9.86959 9.86973
8.20858 -2.85112 -17.1588
8.01137 -8.22149 -10.0086
2.17662 6.83205 18.8766
11.6413 9.91951 -1.4418
-7.97366 -9.87615 9.79693
9.69309 9.82967 9.88419
-6.4166 -3.26999 10.0054
0.160374 -10.0168 -7.88198
-8.04477 9.85109 -9.86928
1.82934 -4.66354 -6.02174
-6.59769 -2.40868 -5.48368
2.88968 10.0121 7.94033
3.68638 6.76058 11.8899
9.8441 -6.53644 10.0063
7.15031 -4.51552 -13.7467
-1.5047 3.47728 -5.03843
-0.850404 6.49712 -11.8834
5.90943 5.6822 17.0595
0.665154 2.98008 -19.0036
11.7067 -0.600198 6.13079
7.39271 0.994008 -5.92245
4.7296 8.28256 10.0115
3.22231 -6.71233 -18.9387
-0.89224 9.9109 5.50817
8.52954 -1.97897 -15.4503
-4.88025 -1.70501 -18.9124
11.5969 -0.497426 9.90095
5.90952 -2.7529 5.32446
-8.03382 -9.90821 -8.14321
-4.51936 -6.31713 -10.0053
3.78431 4.66059 -19.0078
6.83036 4.87021 15.3721
-5.04087 -3.81e-05 -18.8873
-3.74846 -4.05891 18.8621
2.94828 7.02516 10.1159
-4.8416 1.56013 -18.9138
1.65477 -6.09117 6.00608
-3.29667 4.79625 13.5736
-8.21154 -7.38624 -2.32966
2.54869 -6.96131 -15.3115
10.1484 10.0076 -3.92013
-6.09265 -3.90883 -4.56456
-8.07062 -6.45327 9.88817
4.749 10.0132 7.88946
9.90425 0.276743 5.99758
8.50707 -2.03046 -11.8897
-4.0361 6.78754 -10.0022
-3.16054 4.94106 -14.4556
2.84044 10.0155 -7.98957
8.82651 -1.53104 -10.1129
4.41131 -6.26784 18.8562
-5.19563 -0.133099 15.3855
-8.21227 2.20815 -7.89298
9.65054 -10.0091 -2.71012
-4.28672 6.08112 -1.00875
5.77934 6.12182 4.48487
-8.21014 5.89332 8.18105
-3.81586 7.83804 -2.0922
6.05291 -2.34387 -19.0073
-7.99699 -1.72696 -9.93122
9.82398 -3.19994 5.06329
-3.32596 -4.79001 17.0591
-1.548 7.92061 -4.98332
6.57124 -5.11206 -11.9223
-5.7971 10.0153 -8.12929
2.24172 -6.37296 -6.00063
-0.231058 8.3169 10.0052
-8.09452 4.97534 -9.8487
8.45042 -2.21235 14.4426
4.40445 -0.172671 19.0036
6.5158 -2.35147 -5.52059
-6.06486 -5.81322 -1.46294
3.75997 9.90851 5.87678
-2.4556 -5.5514 11.9296
-8.20922 -5.92376 7.96734
-2.43934 -10.0113 8.17657
7.93512 -3.95297 4.52087
-1.43175 -8.24277 -10.0092
7.23331 -10.0055 -6.0196
0.545901 -6.75497 18.9035
-5.93468 10.0054 4.35634
-2.95656 -9.86943 3.89902
11.603 -0.472677 -9.87633
-0.00860504 4.51928 -5.71269
-0.213999 -6.71169 -11.859
8.09197 3.0947 -17.0183
-8.06891 -0.647955 6.14514
11.7147 -0.653166 -6.13111
0.333636 -6.84871 13.7244
-1.38412 6.06771 5.0857
-6.28305 4.10522 4.38141
-4.4367 -3.17894 13.6515
-0.303512 6.68243 -13.7359
7.6811 -9.902 9.83416
-1.24914 10.0107 7.91573
11.6632 -6.76411 -9.89021
-3.97126 3.95762 11.8857
-3.59546 5.52446 -2.74894
4.49396 6.29533 -18.9146
11.8078 0.241805 -8.01301
3.72304 6.73772 -13.5507
6.35793 -7.85733 10.0136
5.93266 -0.544018 -5.99248
3.0628 -4.52976 19.0057
3.80704 9.94352 -5.85352
5.60425 5.86901 11.9256
-0.296634 9.9083 -9.81994
8.00466 -2.82589 18.9264
-6.35937 -7.63047 10.016
9.58219 10.0078 -2.03653
6.53446 9.83191 3.92665
1.18099 6.76748 -18.8884
8.80434 1.48046 10.1049
-1.78463 5.82857 -4.81966
9.82642 -1.57422 5.79091
4.68026 -0.751324 -19.0035
-6.48434 9.81093 9.89366
1.89119 9.90118 -9.82323
6.18338 1.7071 19.003
3.15532 8.45339 -9.99941
-5.19731 0.326335 -15.3669
8.30373 -2.62052 17.1278
9.96382 -2.90634 -5.25101
-5.53485 -10.0031 -6.40067
0.426142 5.61338 5.84718
-8.05378 6.66958 -9.85162
-8.08866 -4.78002 3.9197
-8.11045 0.890686 -6.10095
11.8086 7.63333 2.57876
-4.18529 8.01566 -0.107986
5.23215 -10.0062 -6.68057
6.72179 2.77465 -5.32533
-6.07034 -10.0182 -8.07001
6.73322 -4.96775 15.3795
11.8026 -4.51196 6.50199
-3.93249 -4.02159 15.3362
11.8079 -1.72336 7.83638
-5.09943 -1.17506 13.6647
-8.20388 6.68143 6.55697
-2.92996 -2.73042 5.34857
8.82153 1.41728 -10.1235
11.7042 9.81281 -8.08847
11.8061 6.4349 4.51993
-6.12532 -5.32863 10.0081
-8.20774 4.10225 -7.53191
8.4737 10.0052 -4.10426
2.97258 6.91455 -11.8229
7.38471 7.81931 -2.17404
11.8074 7.96405 8.05892
-3.38978 4.71681 17.0357
-8.01575 6.07341 0.490386
6.68849 -0.314284 -19.0037
6.94415 -4.7399 11.963
-8.20505 7.6443 -6.23561
7.9611 -6.16576 -0.089872
6.07754 5.36301 -18.9102
-0.0861336 6.44206 -5.69587
11.8108 -5.8152 8.24094
-8.08626 -3.68277 4.99901
1.95303 3.35504 -6.01005
11.6203 -9.90547 4.22681
8.35102 2.4654 11.9403
0.262071 8.28962 -5.80456
6.21825 -10.0116 -8.14036
4.25487 -9.83349 5.64973
0.840033 8.48648 -10.0027
-3.83174 -4.15837 -13.6501
8.1691 -2.90597 -13.707
11.5969 -3.98991 9.91446
-6.44168 -10.0181 8.25873
6.00318 5.59942 -15.4105
-3.25965 -5.21518 -3.36108
8.07406 4.33846 4.13624
-8.06961 -9.87382 2.06417
4.02121 -10.0103 -8.10808
11.8088 -7.98927 -0.910444
-8.20363 -4.89285 -6.16953
-4.30259 1.394 5.83405
9.80488 10.0094 0.0779219
-4.7472 2.81772 10.1235
0.513882 6.65846 18.8914
-2.44845 -8.1962 4.23912
-5.06376 -1.39624 -11.8212
-0.626853 -9.79697 -9.86431
-4.13134 -5.95681 1.54526
7.58148 7.94868 1.5579
-8.05332 -5.03948 -9.85214
11.6645 4.24975 4.44082
-2.33632 -6.36332 4.34506
4.12004 -9.90711 9.79693
-8.03189 9.90584 5.85996
4.53035 -4.24221 5.34766
2.85814 2.89236 5.90211
-2.75628 1.39572 -19.0048
-8.07499 -9.88737 -2.14585
7.39841 -4.49599 10.1235
-6.1001 5.79783 10.0097
-5.16834 -0.731523 -17.0875
-2.84308 -1.04875 19.0041
6.01093 4.18753 4.38101
-8.20373 -6.71122 -6.45167
7.78117 8.04675 -0.354435
-5.20079 -0.0958943 11.963
8.79387 0.651445 17.1691
-0.286342 4.69484 -19.0047
5.2672 8.0402 -10.003
-4.49373 3.19791 5.08148
11.8064 -8.11044 5.26489
4.90947 -0.741833 5.96273
-6.5878 1.93608 10.0029
-0.043564 -6.77778 17.1463
-8.20658 6.256 4.75347
11.6057 -9.87574 -9.65319
3.69666 8.15408 5.685
3.25721 0.796066 -19.0018
6.68331 -9.86197 -3.73345
0.159166 6.82168 17.0665
-4.54539 -6.41768 10.0022
6.1214 -4.31942 4.27302
2.92131 6.78697 -18.8823
8.66851 1.35886 15.448
-8.20555 6.1634 -7.91486
11.8056 -5.94999 5.05692
-0.951672 6.59348 10.1211
-8.08128 -3.59738 -4.98986
-8.04399 9.79689 9.76062
9.63442 10.0048 2.16891
11.805 -7.92118 1.14358
-8.20951 8.332 -4.40039
5.24756 6.09798 15.3462
9.78328 5.94989 0.795609
-5.92998 10.0077 -3.53733
-4.15073 -3.40674 -18.8333
-3.71775 -4.34326 -17.0941
9.64885 10.0033 -5.89201
8.06366 6.30671 -10.0015
-1.0349 9.88351 -5.47563
1.4964 4.89669 19.0054
7.86874 -6.39424 -10.0013
6.95293 4.76852 -17.279
5.40707 -9.8998 -4.9653
6.06249 9.87723 -9.89529
-0.477425 -6.64984 -17.169
3.72971 -2.29937 19.0029
-1.41067 -0.581661 -19.0034
-8.06073 -5.67093 -2.38498
8.20844 -3.12472 10.1235
-3.1373 1.026 19.0056
-2.07617 5.8397 -13.4081
7.92987 -10.0044 5.34143
-8.08403 4.20178 4.49241
4.05989 2.08797 19.0028
5.07083 7.68453 -5.01783
6.19442 -5.66931 10.1212
11.8055 6.19968 -7.44772
-0.401992 -1.70761 19.005
11.6273 1.1015 -9.91758
6.64011 4.89843 18.7343
-4.02081 3.89445 15.2944
0.734009 -4.72327 -19.0036
1.90895 2.93372 19.0021
-8.08748 0.987591 9.86227
-2.44539 5.28266 -18.8371
9.96945 -4.31258 -4.15746
0.589779 -9.84997 9.88733
5.86955 5.87812 -10.0987
-4.34577 -6.14681 -0.175461
7.5973 -3.92688 13.6949
-8.1173 5.75669 -2.3395
1.46032 -2.93884 19.0028
4.26809 -1.52902 -5.80449
3.80551 0.257052 -6.00001
-8.05667 9.87354 4.0335
6.82945 7.60568 3.25592
6.56215 9.88427 -3.94091
7.97716 -9.87538 -0.049678
11.8088 7.97936 -7.93496
11.7339 -3.41391 -9.83451
4.3951 4.55503 5.4187
2.61821 6.95203 -15.2846
2.32748 -6.98355 13.6368
-3.43229 -9.85375 9.87463
-2.49701 -5.526 -13.6506
0.639578 0.0975435 19.0025
-8.06414 9.9022 7.73395
-8.12191 5.21985 3.19464
-2.47582 5.53922 11.8723
-4.29516 -3.45322 -15.3556
2.84911 -8.01308 5.89625
11.7017 -2.36437 5.73697
-8.06942 6.65856 9.90516
-6.45457 1.04043 -5.90589
11.6855 -9.85512 -7.57627
-8.21476 -1.81436 -7.96049
8.73809 1.14303 -17.1154
-2.47507 5.53682 -11.6907
5.91178 -5.45142 18.8841
11.6137 -5.78696 9.89382
9.43672 5.23667 -2.93045
8.38343 10.0083 -7.75288
11.8057 3.91886 7.73578
4.13477 6.61237 17.1196
8.12484 3.31328 10.1155
-4.04501 -5.86729 -1.82459
-4.96228 1.30128 18.914
-1.42492 -5.99727 -18.8949
-8.07901 6.04378 -0.93486
8.39451 2.36977 13.8166
-2.33628 7.88708 10.0096
0.503868 -1.033 -5.9344
-1.6154 6.11635 -15.368
-6.20363 -5.55838 -10.007
3.60651 6.78557 -17.0966
-4.32149 6.11416 0.836103
5.84879 -9.86008 9.91574
2.95798 2.81163 -19.0031
7.67962 -5.92425 1.61339
1.99139 -2.50758 6.0066
-4.31759 -9.87131 0.655458
-3.92458 -4.0179 11.9229
4.57826 -6.42798 -15.3382
7.70714 -9.87804 1.75419
-5.05385 5.24564 -2.91583
9.75045 5.88001 -1.15135
2.52465 -0.970954 -19.0033
-2.88737 -5.3942 10.1235
-5.32352 -1.23767 -10.0583
5.99182 -4.21525 -4.4334
-4.38563 -3.26568 -11.9038
11.6825 -9.8508 0.0774254
2.40846 6.973 13.5622
-1.62117 6.11103 13.5962
11.6316 -8.46967 -9.91059
-4.55587 2.95582 17.094
-0.717728 -8.27675 10.0066
1.53878 -7.18445 10.0556
-8.04888 -9.88967 0.0380941
1.74793 8.27731 6.0174
-5.1852 -0.4965 -13.5724
3.4632 -9.92642 -5.93262
-1.69305 8.05412 4.88207
7.24494 -7.87074 2.51088
9.22616 10.005 4.08537
7.60929 -9.9071 -2.0086
11.6433 5.97689 1.39261
-4.75356 0.45619 -5.9987
-2.25958 -5.72629 -17.1262
5.34902 5.87812 18.9093
-8.04113 -9.4704 -9.83929
8.63961 0.353467 18.9407
-0.918724 -6.45031 -13.6989
7.94946 -2.3552 5.52924
7.2273 4.73077 10.1137
-1.59375 -6.1233 13.6301
6.06239 -10.005 6.47227
-6.24782 2.43766 5.48132
0.487435 -6.88307 -15.4523
-4.46095 10.0083 -4.84635
-3.04485 8.29917 3.52189
5.44082 -5.99451 -17.0732
-8.06788 8.2833 9.90299
-2.30802 9.86717 -9.83705
4.10679 -6.6149 -13.5681
2.18527 -1.07002 19.0032
-0.711118 -6.53983 15.382
-2.84696 6.5118 3.78734
-8.20818 2.04853 7.82949
-1.79226 6.19632 -10.0932
-8.20656 0.17458 -8.03936
5.39215 6.02603 -17.1782
7.36302 4.2749 17.0943
1.25879 -6.97901 15.49
4.03269 -2.42856 5.61228
3.75561 -2.60062 -19.0031
-3.49716 -7.6632 2.81382
4.71129 6.52294 10.1073
7.26051 -4.41805 17.2342
0.220721 -6.16661 -5.78767
5.76868 -5.7802 17.0973
2.1138 9.92289 9.80188
9.43074 5.42301 2.58647
9.55128 -9.9296 9.82405
7.94957 6.13567 -0.145702
-0.645841 1.30252 -19.0048
4.82089 -9.8711 -9.87393
4.8279 2.75805 5.36572
-0.951557 -8.02021 5.34925
7.57791 10.0024 5.62009
-8.08141 -4.66812 -4.01533
0.845583 10.0107 7.95689
-8.06817 -7.22325 -9.87532
10.1963 2.4772 -5.46688
6.13766 -5.49314 13.6502
1.08017 -2.89405 -5.96157
7.88909 9.88974 -0.937969
8.33892 2.55023 17.1634
-2.79218 -7.83734 10.0043
11.655 0.963447 -6.05161
11.7493 2.63785 -5.55159
-0.17916 6.74205 -16.9358
6.56953 -0.179275 19.0045
8.55772 1.85936 -11.8613
-2.53412 -5.32932 18.9094
-3.83469 4.35802 10.1188
11.6845 4.7947 9.86757
2.44999 -6.97214 -13.4909
8.73725 -1.06374 16.6209
-4.36219 2.91114 -18.8835
11.7388 -5.20149 -3.40077
8.78501 -0.495833 14.8281
-4.85268 2.19524 -15.4967
9.51051 0.775151 -5.96193
9.38697 -10.0033 3.39652
-6.04042 -4.8078 3.59943
-4.67503 -2.36724 5.51924
-1.73823 -5.90693 -4.85217
-4.07821 9.90343 -1.90871
1.34074 -6.978 11.9361
-1.26113 8.19224 -10.0084
7.40629 3.87516 -18.892
0.00101519 6.85781 -10.1053
6.00413 -2.06691 19.0077
11.8104 -8.09265 7.75884
2.27077 8.45174 10.0014
-4.21052 10.0052 5.32594
11.805 -3.58596 8.00263
-0.24839 -2.4403 -19.0033
4.93294 1.35944 -19.0045
0.910892 -8.03912 5.95461
3.24499 -6.85994 15.3459
2.1452 -10.0141 -7.96503
3.75933 6.58399 18.914
-5.18592 0.641821 -11.8746
0.0842491 -6.91091 10.1235
-1.15238 10.0086 -7.73918
9.79459 -10.0104 7.63905
6.69112 10.0098 -8.19236
4.42205 6.50122 13.63
11.8039 -5.66319 -5.71614
6.56003 -9.85136 -9.84601
6.3059 10.0047 7.24042
-8.03965 9.93502 -4.84164
11.6367 8.16407 9.90476
8.58666 1.75062 -15.3346
1.82958 0.990526 -6.0039
11.5969 -9.82119 9.77802
-4.68487 2.18498 -5.59109
0.201673 -1.95163 5.80461
-3.60618 -0.857299 -5.94304
11.6582 9.9054 8.27723
11.6281 9.79689 -9.8181
2.113 9.92414 6.12118
7.94118 -3.89361 -4.56935
-3.68407 4.35282 -12.2351
4.85908 -3.11018 -5.2657
11.8057 -7.51619 -4.54105
7.6759 -8.04269 -1.20341
5.24608 3.3617 -19.0048
-1.07439 -6.20476 18.8997
-3.23282 5.00088 -10.1235
0.769925 -6.93003 -13.6694
0.59701 -0.649981 -19.0034
8.76201 0.797348 -13.621
6.52921 -6.52429 3.69613
0.838221 -8.02724 -5.92264
-5.04413 -0.596089 18.8844
-5.04297 1.50403 -13.6675
-2.83647 10.0068 -6.28867
-1.71805 3.18119 -19.0037
6.12304 -8.16741 4.1324
11.7488 6.38374 -9.79693
2.79379 -9.84894 -9.87848
-8.21303 -8.03499 -7.95656
-8.20907 -3.74179 -7.75489
0.493685 9.88785 9.87956
-4.27507 6.35812 9.99958
-3.89243 5.61321 2.54063
-5.99446 -7.87466 -10.0163
-4.58942 -2.50506 18.9052
8.62086 -5.09471 -3.15526
-3.62104 4.2084 18.9081
9.66113 5.23189 10.0044
-2.66269 2.79263 5.3024
-6.29188 3.97484 -10.0136
-3.51452 -7.88283 -10.0098
5.97452 -7.88303 -10.0067
-8.10561 -2.33684 5.74224
8.51571 2.59018 -5.41526
11.8048 5.13563 6.12347
-6.28983 -3.40152 4.93915
4.03074 6.73102 -10.1123
11.8069 6.08846 -5.23474
11.6999 2.93904 5.4702
-8.08017 -9.83169 7.75252
-5.34026 0.277869 -10.0502
-2.99727 -9.83771 -9.85624
6.17219 -5.27761 -18.7991
-1.60613 -6.33161 10.1343
11.6807 -6.17803 -0.102411
7.8841 9.85394 0.894394
-2.34355 0.905658 5.94744
1.69804 -2.84731 -19.0029
-4.10529 -7.99924 -0.939335
9.61285 -4.57366 10.0045
-1.13246 4.03834 5.23826
6.47158 5.20962 -11.9143
10.2442 -8.35301 10.0289
-4.92478 1.95995 15.3792
2.83334 -4.71104 -19.0033
-5.28609 -0.397637 10.1235
-6.03014 5.31965 2.78998
3.57687 -6.79435 -17.0533
-3.24138 -4.85755 13.6005
9.80803 -5.95715 0.755452
5.29528 9.80809 -5.01055
-1.57078 -0.65209 -5.98016
11.808 7.9935 0.553228
-0.737246 2.35332 5.57042
7.13353 4.5379 -13.6477
1.99163 -7.01847 17.2364
7.27385 -4.55032 -10.1172
2.64321 -4.27481 5.94046
11.701 -5.00612 -9.82042
8.51397 -1.25357 18.8843
11.6818 -9.85275 6.32228
-6.49321 -10.0087 4.84015
-3.84289 7.79407 1.92943
-4.19418 8.18652 10.0135
6.28171 0.984544 5.92588
-8.06835 -9.89699 -4.18924
9.9438 -1.0259 -5.91545
4.0612 -4.88461 -5.55698
-8.03943 9.89065 -3.16501
11.8066 2.32939 -7.7707
-1.18413 -4.06011 -19.0068
-5.56718 8.16842 -10.0153
7.64727 5.82928 -1.92229
8.358 -2.35742 -5.51901
6.20212 5.44391 13.6101
3.78879 -8.35578 -10.0059
-3.92404 -4.32948 10.1046
11.6264 8.18862 -9.90126
8.66951 -1.34253 12.5984
11.8066 7.6074 -3.66579
8.07151 4.15647 -4.32252
-6.0989 10.0195 8.18122
-8.06762 -2.75055 9.8602
-0.45448 0.404313 5.99596
11.6121 9.89289 5.11347
-0.547219 6.59802 11.8201
3.03238 -0.843218 5.96148
-2.23446 -2.90082 19.007
2.32857 -1.09816 -5.99799
2.15166 7.01819 17.0089
9.83435 -10.0085 5.50867
-2.45926 -2.46954 -19.0044
0.505201 9.85225 6.01538
-8.01658 -0.217496 -9.93933
-8.12069 -9.81992 4.11075
7.09461 5.28924 3.1149
-3.67728 9.90053 2.91355
9.61796 10.0052 6.056
0.592269 -4.18936 5.8848
11.6232 9.87203 3.36586
11.6558 -3.94594 4.68574
-4.31894 -9.90759 -0.997425
8.50464 -1.49515 -18.9407
11.8065 -1.93524 -7.9313
11.8076 8.28071 4.43643
-2.13945 -3.98834 -4.63824
7.98668 3.29348 15.463
9.24329 8.16122 -10.0229
9.79719 -7.45244 -10.0093
9.46738 7.76245 10.015
8.16238 -0.38855 5.99832
-4.01083 -4.24396 -10.1221
-0.289424 -6.33702 5.62704
8.22517 -3.25907 -10.1096
2.33043 -9.81291 9.9113
-4.357 9.8961 -0.316776
1.0679 -9.81062 -9.90544
6.03368 4.23478 -4.32274
7.5486 3.99249 13.6193
-3.29137 -4.79933 -11.8684
6.98559 5.13905 -3.21657
-5.98385 10.007 6.35559
2.43203 0.967301 19.0016
1.53711 -7.00254 -11.8346
8.78368 -0.127667 -11.864
5.48147 8.0401 4.73269
5.74986 -5.78034 -13.6596
-6.1724 10.0137 -1.51299
1.43364 1.15284 -19.0029
11.6694 -9.88654 8.07634
-6.04783 -10.0085 -2.82473
-5.15274 0.853782 17.1149
-6.66964 1.83087 -10.0128
1.82023 7.49304 -6.01625
1.00153 1.74808 5.9528
-3.00686 9.88356 9.81085
2.96673 -7.06591 10.1008
-4.78503 -2.27464 -5.55611
-8.11541 -1.05997 9.78875
4.6566 -7.97225 5.27741
-1.78816 6.03682 -17.3317
4.25082 -6.69645 -10.1137
-6.60975 5.40878 -2.58152
11.803 -6.68167 6.6559
1.62609 -9.87981 -6.14631
-6.18761 5.89854 1.058
-8.08663 -6.09111 0.986789
0.307244 6.84308 13.4856
9.68521 -5.91105 -1.03543
-1.14866 -4.93007 5.23731
2.44456 4.79103 5.9735
11.7339 -2.24423 9.82434
-0.726272 6.53521 15.3256
-2.50718 -5.52326 15.3157
7.02497 -9.9267 3.26564
-4.61834 -8.37214 10.0118
8.79824 -0.133703 -15.4415
-3.21467 -0.789263 5.96026
4.84885 -4.08986 -19.0067
8.28067 2.28591 -18.8426
11.7099 6.13587 -0.319754
4.26193 -8.35398 10.0078
-3.52841 -7.68091 -2.7504
-5.20422 1.09918 10.1238
8.2222 1.56073 5.79217
-8.07873 9.84157 -6.51509
-3.9271 -9.87544 2.30131
8.75948 -1.53759 10.1671
-3.24753 10.0159 -8.14034
0.291653 -9.88636 5.90801
8.10625 6.404 10.0019
7.03165 -7.57778 -2.93293
-2.46627 5.69484 10.1162
-2.73789 -2.39113 -5.49985
6.48039 6.61978 -3.76564
3.46249 2.05983 -5.75241
5.9346 -5.81155 -10.1159
-8.09382 2.75824 5.54915
-5.96033 10.0066 2.54263
-6.31173 -3.39777 -10.0098
6.93821 -5.24235 -3.25732
10.1534 -2.40732 10.0059
-0.164664 -10.0095 8.0336
11.5969 -1.78811 -9.89402
-2.85759 -4.9781 -18.8283
2.22861 -9.85112 6.15077
10.1604 -5.38642 -2.61975
-4.05015 10.0073 7.81937
8.21974 3.1689 -10.1235
8.99753 -0.0611876 10.0459
11.8062 5.96139 7.93117
-6.41407 6.43903 -10.0103
9.60278 -5.23472 -10.0025
1.22647 6.97697 15.2214
8.77885 0.657018 13.4139
0.565937 -7.11084 -10.0786
-5.05791 2.02416 -10.1364
-0.956553 -7.87191 -5.32401
1.56768 -7.01219 -17.0922
-5.08236 5.34778 -9.99959
3.03116 -3.09694 -5.87347
8.77899 0.362051 11.7036
7.96157 -0.690707 -5.97531
3.4524 8.29511 -5.75729
-4.10631 -7.98658 0.993148
10.0386 -3.15576 -10.0061
-4.23094 9.84434 1.28293
-2.63143 10.0064 6.64434
1.752 7.01809 -17.1069
7.35153 9.90416 2.61069
-8.07999 2.98464 9.82202
-8.08101 -0.709367 -6.11014
-5.09144 -1.26503 17.1266
-6.12138 5.9437 -0.834081
4.84819 6.29362 -11.8431
0.312339 2.49822 -5.81188
4.86968 3.14682 -5.18533
8.25203 2.70835 -13.4801
1.21378 -0.404245 5.99871
5.81148 10.0047 -6.58513
11.8046 4.33236 -6.49108
3.39789 -6.83298 11.8749
-4.61727 -3.20945 10.1235
2.03163 7.09565 -10.1055
-4.70611 -2.62627 -17.1095
-4.78829 10.0063 -6.72561
-6.07186 -0.780328 -5.95541
-4.90978 2.01923 11.9288
-0.801451 -2.55083 -5.49307
1.103 -4.9915 19.0054
6.68989 1.75876 -19.0117
2.24236 -7.16678 -10.0716
-0.534006 6.4853 -18.796
-1.02058 6.23937 18.9012
2.08938 9.89079 -6.08245
11.8055 -7.74199 -2.79669
-5.11425 -1.77185 10.1381
-1.4457 -6.21025 -15.4605
7.93696 -3.08393 -18.8911
-8.00536 -9.89811 -6.45312
2.12651 6.59943 6.0146
11.7134 -5.87042 -1.85172
3.34596 -6.84175 -11.7191
6.57359 -1.0049 5.92977
-4.85103 -0.49301 5.99386
5.27885 -6.10383 4.89321
-4.35279 3.57365 -10.1283
8.7701 -0.868595 -17.225
8.34683 -8.14534 10.0084
