1.48113 5.63375 0.427397
-3.1135 5.8508 -0.902361
-2.78643 5.39293 -1.3593
0.67713 5.71743 -5.28921
0.663627 7.04224 -4.58969
2.37157 5.06719 -0.851069
-1.27905 6.7779 -2.89866
-2.09674 7.04487 -3.0909
-2.91543 6.20793 -0.925161
-2.52454 4.88185 -2.66122
0.663367 6.77954 -5.15944
-0.0494397 6.09142 -3.42388
-2.98482 5.50309 -2.19946
0.614005 5.01966 -0.307361
-0.607074 6.48437 -5.29372
-2.25724 6.56899 -0.368193
0.723019 6.38844 -2.82896
3.11344 6.42966 -1.73095
-2.85167 6.65394 -2.92456
-1.9456 4.83713 -4.14871
1.4427 5.28343 -1.89781
-2.24273 5.24656 -0.588559
1.24974 6.43072 -2.11183
-0.0187382 5.44872 -5.3406
0.0882029 5.88707 -1.03754
1.26915 5.27183 -5.16394
-2.83043 6.69478 -2.53606
0.524347 7.02209 -0.56902
-2.96197 5.49577 -1.77272
-1.27391 7.12574 -0.321369
0.916865 5.95535 -2.78833
0.70769 5.81848 0.774299
1.3886 6.46359 -4.90586
2.08615 5.77215 0.028321
0.189549 6.92008 -5.24386
1.60439 5.09546 -1.53552
1.78742 7.17806 -4.20863
-1.16319 5.14287 -3.32335
-1.51783 6.023 -4.95481
1.16972 4.78739 -3.46617
-0.814455 5.33144 -2.96612
-1.29443 6.49859 -2.52678
-1.45339 6.51954 0.366735
-3.27638 6.28226 -2.10175
-2.7374 6.11675 -0.545414
-1.85772 4.69313 -1.4256
0.238619 6.48107 0.839491
2.33154 6.54253 0.092923
-2.53765 5.08487 -3.3317
-1.11449 6.81267 0.453345
-0.72341 6.87764 -5.22293
0.0227355 6.30108 -1.05574
1.06069 6.54479 -2.80476
-1.47922 6.71296 -2.2191
0.510613 5.05161 0.722575
-0.244226 5.01773 -3.9587
2.15735 4.70685 -2.10617
1.55833 6.98505 -0.533829
0.908731 5.90084 -2.27503
-1.86247 5.06414 -0.58777
2.47938 5.1548 -3.15789
1.49375 7.05514 -3.71254
0.103958 5.66524 -3.43889
-0.415014 6.47865 -3.38841
-2.1333 6.11277 -4.55738
1.38602 5.00672 -4.05557
-1.0387 5.46108 -1.37404
-1.22119 7.02951 -3.87441
-2.23049 6.88677 -3.51213
-2.19611 5.08497 -0.942268
-0.121559 6.99125 -4.02313
-2.66204 6.55858 -0.998694
2.33523 5.50174 -4.58796
1.0687 5.04888 -4.3923
1.87591 7.28264 -1.76457
1.32832 6.941 -0.170465
-0.127401 6.16046 0.851379
2.22199 6.94 -1.13878
1.47754 5.29473 -2.33349
-1.37912 5.14957 -1.49107
2.73016 6.49667 -0.380534
-1.58034 5.03406 -3.3136
0.707736 5.0974 -0.788859
-1.28745 5.22632 0.403019
-2.08988 4.68939 -1.72692
2.38679 5.19431 -3.50224
0.201987 5.02729 0.389227
1.22632 7.09619 -0.76117
-1.54397 4.73114 -1.22966
-0.832052 5.58065 -2.72283
1.02879 6.56821 -5.05745
0.594963 6.97838 -4.15333
2.60767 5.38632 -0.952355
2.66395 5.59652 -4.267
-0.533045 6.57913 -1.3586
1.69715 5.78975 -4.93995
-0.764672 5.14014 -3.40316
-2.51983 5.26631 -1.03658
0.99869 6.83545 0.724171
2.92891 6.54778 -1.34521
-1.95245 7.30006 -2.34216
-0.249194 5.23756 0.899719
-1.30167 5.22055 -2.97125
-0.30239 5.84486 -1.06453
-1.65029 5.87865 0.505156
-0.580763 5.23108 0.863655
-2.70643 5.75294 -0.235949
1.00406 6.70806 -3.15594
-0.273755 5.78053 -5.32179
2.14262 7.26073 -2.03157
2.69729 6.70634 -3.06866
3.11322 6.41812 -2.17304
-1.07271 6.11937 -2.47399
2.82261 5.44356 -3.34433
1.40597 7.11443 -4.12507
-3.12821 6.4618 -2.54244
-0.517701 5.28523 -3.21779
1.79735 7.13049 -3.40988
-0.314868 6.31477 -1.17256
-0.956633 5.10672 0.195811
-0.619516 6.87336 -0.721313
-0.856007 5.89538 -1.532
1.16225 5.31455 -1.53744
-2.50082 6.59533 -4.31645
2.07933 4.69911 -2.53335
-2.75553 6.52012 -4.03091
-2.44219 6.1631 -0.236674
-1.33558 5.11087 -0.0301846
0.709908 6.90541 -3.77726
2.16828 5.18096 -3.83361
0.223747 6.98859 -4.31317
1.80995 5.10292 -4.0282
3.15058 6.31493 -1.03939
0.154387 4.99413 -4.10351
-1.38166 7.1207 -3.46073
-2.95835 6.57918 -2.11999
1.89081 7.23082 -3.8595
-0.194441 5.07886 0.538163
-1.44665 4.92957 -4.20381
2.13476 6.92377 -3.98801
2.4719 6.12279 -4.19069
1.80357 4.94202 -0.0864925
-0.150303 6.9681 -3.5061
2.96402 6.3307 -0.648403
1.77782 5.02416 -1.98012
1.6848 7.09163 -0.969237
2.81756 6.68179 -1.79615
3.00579 5.57536 -1.78546
1.39975 6.76777 -2.88716
0.5743 5.14349 -5.27308
0.562532 7.04552 -5.0151
0.510433 5.4192 -3.41982
-1.74819 7.26846 -2.7183
2.4585 7.04234 -2.9291
2.89357 5.63536 -3.92818
0.906903 5.11683 -4.89429
-2.02642 7.30208 -1.95638
-3.0213 6.45366 -1.73476
-1.83988 7.02379 -3.48977
1.38009 5.65649 -5.1131
-2.66897 5.10279 -2.21702
0.659649 6.1157 -3.11894
-0.890842 5.74312 -2.40245
0.928142 5.20489 -1.15284
1.6192 6.84057 0.0774935
1.31143 6.08899 -5.04231
1.82264 4.91409 -1.21168
-0.153936 6.76928 -1.11659
1.00899 5.0137 -0.4609
-2.52234 6.91917 -2.54876
2.49371 6.96574 -1.93694
1.59987 5.00492 -2.75345
-1.44515 5.00676 -0.398481
0.606156 5.34732 -1.38916
-0.212213 6.61968 0.794829
-1.16277 6.34386 -2.10538
1.33422 5.16857 -4.75577
-0.561085 4.98444 -4.73763
1.14356 6.39417 -1.68042
2.94296 6.41791 -3.01987
-1.66755 6.8566 -4.5714
2.38313 5.81316 -0.248471
0.257457 6.93396 -3.79356
-2.0107 6.88538 -3.8814
0.744966 6.55488 0.801286
2.77044 5.97499 -3.94803
-1.9764 6.92504 -0.328709
-1.88984 4.88017 -1.0294
-1.77877 6.26094 0.271111
0.542729 6.89846 0.78568
0.668758 6.7936 -3.41851
-0.214442 6.19134 -5.32746
-3.19864 5.76482 -1.81496
1.17781 5.62961 -2.44608
2.16659 5.08489 -0.45778
2.39876 5.43782 -0.52635
0.240514 7.01393 -4.75314
1.00661 7.05453 -4.31399
1.12127 5.77005 0.631903
2.00537 6.75392 -0.0279785
0.724976 6.31794 -1.22198
-2.20909 4.91658 -1.36227
-2.8501 5.54741 -0.957827
2.95948 6.52685 -2.57058
1.56495 5.15106 -4.44602
-1.51235 6.91425 -2.6362
-1.59448 6.99507 -3.82241
0.129738 5.13163 0.836586
-2.62825 6.69161 -3.62588
3.04005 5.55395 -2.87947
-2.69496 6.12398 -3.98368
1.81939 5.45576 0.133832
0.256223 5.01166 -0.060315
1.5504 5.20904 0.265509
1.98272 4.85886 -1.65745
2.89974 6.16126 -3.55843
0.888194 6.17425 -5.18084
-2.52892 6.4706 -0.640605
2.84599 5.66068 -1.09707
-0.291604 5.08573 -3.44912
1.37517 5.11015 -1.17897
0.254921 5.9598 0.854824
3.1962 5.7485 -3.2866
1.64116 6.73272 0.501274
-1.25676 7.18538 0.141842
0.864767 5.1227 -3.37641
-2.98539 6.43049 -3.6948
-1.707 7.02127 -2.27623
1.58777 6.83338 -2.56768
-0.87861 7.0099 -4.10189
-0.605206 5.02723 0.00333683
0.645939 4.99027 -4.21763
0.407556 5.62606 -1.16485
1.03668 5.36649 -3.14943
2.91043 5.98358 -0.832314
0.986028 7.0832 -1.10654
2.09398 5.37762 -0.170294
-0.994015 5.06307 -3.71698
1.65989 5.33073 -5.00061
-0.502748 7.02664 -3.87685
0.415253 5.87915 -3.3595
2.56806 6.81991 -1.46969
-2.7218 6.66491 -1.385
-2.14826 7.13635 -2.67635
0.383937 5.48929 -5.3394
-0.0456478 6.54249 -3.41985
2.13051 6.1634 0.147883
1.80455 4.94708 -2.37305
-1.80096 5.00407 -2.89445
2.31738 4.73431 -1.61816
-1.4343 6.40892 -5.04633
0.662345 5.04855 -4.6119
-1.55916 4.86837 -0.789919
0.24599 5.01668 -4.5097
1.72173 6.17951 -4.79809
-3.36749 6.15277 -2.53135
2.81676 6.55491 -0.880712
0.0469088 4.99508 -3.68033
1.99116 5.42432 -4.84382
-1.46947 6.86252 0.207363
0.375552 5.15529 -1.11889
1.78323 7.05522 -2.16206
2.30818 4.93509 -2.83611
0.785828 5.69572 -3.19628
-0.239039 7.03304 0.684029
-0.138659 6.61742 -5.32055
-2.05758 6.4589 -0.0645772
-0.583278 6.96562 -4.8097
-1.35617 6.17795 0.542581
1.1509 5.54032 -2.01728
-2.37855 6.74907 -3.94677
0.580527 6.20313 0.815685
0.912094 5.28236 -5.28078
-1.37135 5.00657 -3.75149
-0.687222 5.64163 -1.17615
-2.5199 6.80717 -3.24356
0.127056 6.96758 -0.552026
0.309857 6.5516 -1.04431
0.0315529 5.04894 -0.962329
3.07064 5.56791 -2.39996
-1.41455 6.92972 -1.14302
2.44916 4.87432 -1.99785
-0.691264 6.73546 0.658743
1.03761 6.13485 -2.00686
2.35634 6.67648 -0.288869
-1.8653 5.39087 -4.5754
0.647827 4.98442 0.204099
-0.63942 6.0751 -5.27548
0.790948 5.51145 -1.66775
-2.31951 4.8011 -3.49439
1.53622 4.89561 -3.65059
-2.07233 5.19725 -4.28516
-3.13494 5.75124 -2.52109
2.21433 7.29185 -2.74058
1.02123 4.95451 -0.0414973
-2.42794 7.01191 -1.46932
-0.579545 5.10282 0.408359
-1.29926 6.95751 -4.27205
0.0498063 5.61003 0.883316
2.49 6.26929 -0.113271
-2.39081 4.7436 -2.35309
1.20814 5.32549 0.51736
1.74736 6.31892 0.439917
-3.30846 5.92708 -2.15567
-1.03258 4.9652 -4.97851
0.147469 5.09302 -5.28801
-2.92216 5.75674 -0.555195
-2.89084 6.03374 -3.63147
-1.7953 5.19271 -0.178854
-2.73549 5.64787 -3.56015
-2.24965 6.88371 -0.697487
-2.81498 5.29609 -2.55356
-1.08307 6.16879 -5.1619
-1.03114 7.08904 -3.27067
1.57959 4.73605 -3.20839
0.924059 6.08873 -1.5593
-1.03578 6.69025 -1.30026
-2.72929 5.23734 -1.81073
-0.917261 7.08351 -3.63488
1.87871 7.09606 -2.58285
-2.90079 6.58576 -3.30297
2.69338 5.24978 -2.87132
-1.85855 5.86498 -4.70737
-0.227168 6.89801 -0.709229
1.58735 7.0065 -1.75094
3.20241 6.22628 -2.69124
-2.52017 5.31652 -3.66599
-0.343458 6.91342 -5.25445
1.11252 6.88232 -3.53195
2.08901 4.76455 -0.808057
0.495746 6.08213 -5.2844
-1.59104 5.60352 -4.84055
-0.509156 6.9956 -4.33112
2.57561 6.73362 -1.07355
-0.442764 4.95957 -0.329562
0.43553 5.48878 0.824939
0.871951 4.99686 0.577077
-1.25179 4.74241 -0.987176
-1.01433 6.44057 0.611106
-1.73905 4.91001 -3.75778
3.3962 6.09154 -2.25379
-3.07175 5.6643 -1.37449
-3.16462 6.28349 -3.32529
2.77386 6.74491 -2.21868
0.845328 5.76638 -1.89289
2.44831 4.94835 -2.46519
-0.891499 4.82667 -0.915471
-0.197359 5.00541 -4.41497
2.25882 6.53443 -4.13986
-1.77356 6.73138 0.0267164
-1.59692 5.19171 -4.74986
2.58363 6.35799 -3.8515
1.30752 6.5765 0.670577
1.43858 4.91419 -0.375474
-0.456423 6.02371 -3.33259
-2.08914 6.78585 -4.32833
-2.45029 5.5058 -0.168323
-0.659812 5.01819 -5.16215
-1.69261 6.96524 -1.87209
-0.92151 7.13824 0.380321
3.1018 6.12687 -3.2062
-0.679279 4.87223 -0.603849
0.968073 7.02979 -4.95506
0.748768 6.94336 0.41327
0.705744 7.09695 -0.904422
-2.30163 7.12862 -2.25075
-0.62679 5.61171 -5.25748
1.00821 4.9257 -3.91852
-2.3608 5.85342 -4.2448
-1.28623 5.30743 -4.97679
0.696911 5.83099 -1.37362
1.87101 4.7102 -2.88366
2.12554 7.29925 -2.35833
-1.04483 6.86783 -0.908396
0.959795 6.9508 0.0528187
-1.43341 7.07156 -0.732872
-0.175512 6.98014 -0.21548
2.0013 6.62058 0.335589
-2.00843 5.85366 0.310881
-1.07209 5.68516 -1.73923
1.91948 7.15291 -1.3509
0.303743 6.29931 -3.33576
-0.970999 6.98557 -0.515153
2.64762 5.72807 -0.65675
0.836244 5.41152 0.700592
-1.53537 6.76407 -4.99525
0.258362 6.96222 -0.960332
-1.00351 4.96221 -4.51839
-1.15448 5.42479 -2.60583
-1.29114 6.90586 -4.70323
0.385463 5.00175 -3.52576
1.03283 5.74318 -5.20798
-2.10549 7.31474 -1.56675
1.44055 6.91151 -3.26714
-2.57848 5.74321 -3.90658
1.90835 6.7955 -4.36626
0.531929 6.60376 -3.10315
1.45321 4.87264 0.0802149
-1.8305 6.31887 -4.82355
1.53467 7.1283 -4.51651
3.35898 5.88052 -2.57154
-1.07572 6.88817 -5.04754
1.89472 4.80014 -0.446807
1.27176 6.89276 -1.41952
1.24507 6.51567 -2.49174
1.50884 6.73989 -2.17697
-0.310839 5.6931 0.887387
-0.290132 5.61985 -3.3671
-0.187216 5.02666 0.0909431
-0.69141 6.74099 -3.33229
-0.563538 6.98017 -0.308129
-1.085 6.35311 -2.87396
2.23976 7.06712 -1.59954
-1.67752 4.93765 -1.65526
2.61017 5.40018 -3.7868
-3.33046 6.08808 -1.68238
-0.794728 5.24012 -1.06439
-2.04628 4.85034 -2.47522
1.63156 4.93042 -0.815697
-1.17211 5.40205 0.78962
3.08622 5.74473 -3.62866
-1.14651 5.60071 -2.15559
1.41117 6.10636 0.560448
-3.18592 5.97624 -2.90316
-3.01074 6.32808 -1.33663
2.79867 5.29196 -2.50595
2.24112 4.74086 -1.20166
-0.407656 5.3403 -5.2912
1.91166 6.85485 -0.36836
-1.78179 7.09949 -1.45933
-0.639831 6.74294 -1.06761
-2.58672 5.45355 -0.597794
-1.59472 5.1595 -1.97312
-1.34214 6.61566 -1.86653
-0.036289 4.991 -0.340116
-1.41623 5.34207 -2.27639
-2.13816 5.3244 -0.213604
2.62596 5.10351 -1.67948
-1.93366 6.70241 -4.78041
-2.1471 6.10938 0.0766237
-1.43318 6.80696 -1.52863
-0.0844255 7.02329 0.245525
-3.25172 5.96964 -1.27372
0.35341 5.0533 -4.92174
-2.63902 6.85859 -2.17455
2.15457 7.2049 -3.58322
1.17627 4.93987 0.380948
2.52481 5.07117 -1.27453
0.0533414 5.28176 -3.45389
2.86689 5.3647 -2.00056
-1.97951 4.86971 -3.29867
-1.0454 6.56599 -5.20127
-1.7217 6.9013 -4.19096
0.423776 6.09498 -1.10996
-1.8733 5.49783 0.478602
-1.74567 4.90669 -4.48693
1.29345 5.05 -3.11563
2.65993 5.12181 -2.15825
1.95955 5.26637 -4.43655
-1.02747 6.49331 -1.64319
1.36975 6.68976 -1.77021
2.69037 6.52767 -3.45155
1.01223 6.20292 0.720655
-2.3367 5.45262 -4.07164
-0.672032 5.73193 -3.13687
2.07826 6.3041 -4.4736
2.00723 6.92641 -0.771573
3.38064 6.12549 -1.83144
1.3444 5.32489 -2.75686
0.98715 7.02738 -0.457354
-0.651026 6.35164 -1.55718
0.133354 6.92648 0.789706
0.146091 5.88704 -5.33312
1.554 7.23769 -1.40647
2.4012 6.75244 -3.72176
-0.877332 5.94356 -2.08485
-2.44411 4.92736 -1.86126
-2.38904 4.75696 -3.09432
1.92706 4.97967 -3.54421
2.81262 5.42931 -1.4331
0.255432 6.99908 0.454888
3.1409 5.82734 -1.57241
3.29092 6.22134 -1.41909
2.34576 5.89668 -4.45442
-1.32771 5.39419 -1.81067
-0.782654 5.60643 0.853497
-2.98735 5.85227 -3.24664
2.3167 5.34108 -4.16554
-0.135797 6.98882 -4.93028
2.0822 4.91682 -3.18782
-1.59162 7.1825 -0.100788
0.0372783 5.48853 -1.0151
0.251832 6.82074 -3.35918
-2.44846 6.90749 -2.90642
1.09036 5.62886 -2.85085
-1.37755 4.91612 -4.71731
1.20564 5.05341 -0.798618
-1.74043 7.166 -3.13098
-1.7406 7.25703 -0.43897
-0.95061 4.98177 -0.254987
2.03354 5.87688 -4.70734
-0.80359 6.17873 -1.83951
-0.893283 7.08706 -0.0582651
2.1506 7.28066 -3.15692
-0.601047 5.0476 -3.81945
-0.248577 5.02822 -5.20841
-2.10733 4.79428 -3.7749
-0.565178 6.36372 0.765855
-1.74867 5.07165 -2.3693
2.67938 6.07989 -0.425826
-0.360658 5.37307 -0.980632
-0.509422 4.95966 -0.895913
0.443476 6.98224 0.139612
1.42143 6.82078 -4.77214
3.07564 5.93089 -1.21188
0.286724 5.02949 -0.616087
1.73783 6.56866 -4.63521
-1.53512 5.19521 -2.65532
1.7844 7.04828 -2.97592
1.25414 6.87117 0.368145
-2.39591 6.92108 -1.07437
-2.21693 4.68525 -2.08597
-1.6893 5.28002 0.195934
-2.66696 5.14198 -2.93079
-0.586427 7.08904 0.557455
-2.3965 5.78689 0.0568774
-1.89465 4.89234 -2.03074
1.77716 5.9083 0.313957
1.01165 6.59141 -1.34051
3.32967 5.89648 -2.95471
-1.98357 7.25398 -0.744102
-0.917978 6.96263 -4.54559
0.519784 6.4903 -5.2392
0.76475 4.85821 -3.57481
-2.45255 6.22811 -4.30736
-2.23524 6.53663 -4.58443
-1.16526 5.05594 -1.19248
-1.13184 4.86862 -0.612056
0.88675 6.21164 -2.47222
-0.946238 6.03384 0.734749
2.46412 7.0565 -2.40592
0.212613 6.98716 -0.152128
-1.25031 5.72567 -5.05039
0.510636 4.93839 -3.86827
-1.54745 5.43754 0.645158
-2.51291 5.12116 -1.45986
-2.28883 5.06992 -3.89265
3.22225 5.77727 -2.07411
-0.605514 5.00335 -4.28156
-2.76585 5.44042 -3.22293
-0.54917 5.98151 0.830441
2.40126 6.7397 -0.682204
-0.592216 6.04007 -1.28496
0.681852 6.74996 -1.09074
-0.102357 5.01232 -4.82517
1.30314 7.20919 -1.14104
0.650762 6.99267 -0.198854
-0.491514 7.05695 0.145677
-3.24275 6.35832 -2.95133
-1.01952 5.00067 -4.10287
-1.73894 7.15666 -1.03152
-2.10946 5.64251 -4.42455
1.18263 7.12518 -4.69235
-0.217016 4.92428 -0.745942
1.08028 6.98731 -3.92155
-1.01181 6.68047 -3.13112
-0.156278 6.99261 -4.50239
-2.39098 7.08596 -1.86193
-2.18657 4.77545 -2.81936
2.69019 6.8101 -2.6611
-0.540554 7.03759 -3.47215
-0.920915 5.96977 -2.87554
-0.92276 5.80228 -5.18701
-0.783155 6.28235 -3.18615
-1.26589 5.78074 0.696411
2.42817 6.95157 -3.34752
-1.40301 7.18145 -3.04143
-0.921924 5.35379 -5.15026
0.163998 6.37779 -5.3096
-2.15453 5.48534 0.213483
-2.11305 7.27945 -1.1571
-2.94471 5.56535 -2.85568
-2.69649 6.78409 -1.77943
-0.908714 5.21349 0.676074
