4.62365 5.52661 -5.32234
4.02382 6.60005 -18.9999
-4.66291 2.00781 -5.68421
-4.76376 -9.99963 4.17191
1.09768 9.94877 -5.96217
5.55765 5.90985 -13.6392
11.7994 5.73928 -5.74004
-2.32676 5.66639 17.2208
6.49258 -9.99947 9.92707
-8.19955 -1.19136 8.04843
-6.37559 6.12131 -9.9994
-5.48802 8.26279 9.99945
2.57631 5.00656 5.94707
-4.19689 7.97358 0.158235
7.72015 3.73675 -11.8524
11.7994 1.97358 -7.86558
-8.1325 -9.99942 -5.42552
-2.71166 6.46283 -3.96123
-5.06383 -1.37923 17.1583
2.60419 -4.95189 19
11.7995 -6.44017 -4.44117
-6.4021 0.946916 -5.93273
5.82851 6.35082 -4.44208
1.72817 -9.88726 -9.99952
6.26019 9.95971 -4.0276
-8.1993 -6.57279 9.9453
4.73696 -9.99958 -5.36128
11.7996 6.06205 -0.511176
-8.19942 -3.46854 4.99913
1.88439 -6.80139 -6.01867
-0.365615 6.67318 -17.1589
-8.1995 7.81575 2.03205
7.59921 4.09773 -10.0005
8.38437 -9.99934 -9.94438
7.12242 2.63505 5.3891
11.7995 6.35685 4.85198
1.53733 1.02734 19
-4.71131 -8.24634 9.99949
9.9531 6.04512 9.99945
7.2387 4.40384 18.9442
-2.377 9.99925 4.45336
-4.03294 -8.02573 1.42671
4.27916 -6.5525 15.4154
8.3916 2.36746 15.3589
4.90362 -3.18871 5.14576
11.7995 0.0431949 6.08243
5.58974 5.83507 -18.9998
3.85724 -6.7568 -10
3.06267 -6.18128 5.86779
-8.1995 3.25946 -9.91636
7.65645 -3.83693 -17.0617
-8.19954 -7.87283 -2.30584
9.84296 -9.99956 -1.03909
2.1443 6.96048 18.999
7.79706 3.52283 -18.9999
-1.29535 8.2298 5.14395
6.4653 -5.21638 -17.1361
-6.45998 -7.54396 9.99938
0.66293 2.87068 19.0001
-8.19916 9.93645 -6.38158
11.7994 7.7806 -5.97555
2.64066 0.71498 -5.98254
1.25056 -7.85151 5.97187
-8.19953 -0.938852 -6.02212
11.7061 -9.89725 -9.99871
-3.53871 -7.97937 -9.9995
3.96448 -6.65438 -15.3383
11.7995 -1.25256 9.92846
-3.14691 8.1324 -3.39242
-8.19951 5.93086 -7.83617
-0.276025 -6.69545 -14.9267
9.85573 -2.1601 -5.60694
7.66632 5.78934 -1.6366
7.6345 5.75207 1.70792
11.7995 -7.85359 3.80363
11.6312 9.99957 9.91541
-4.2176 -9.99963 -0.910372
2.73862 6.93411 -11.8523
7.17861 -4.47785 13.6674
-6.49679 9.99954 -4.26849
4.57516 9.9494 -9.99943
-8.19954 -8.10127 5.6414
6.86941 5.02783 -3.29034
-4.31888 3.43142 11.9524
-4.97082 -1.64614 18.9992
4.97203 6.23696 17.1467
-4.2382 -9.99944 0.705918
-8.19954 -9.94973 2.54603
-6.45898 4.33294 4.15278
-8.19951 -2.56394 -7.91738
11.7995 6.91988 2.96796
-8.19997 5.9913 1.05946
-8.19956 -8.51018 3.6899
-3.52219 2.51946 5.44915
-2.29272 -5.69515 -15.5016
11.7994 -6.03432 -0.740019
0.526219 -9.99947 9.93792
-1.16104 -6.34938 -18.9359
8.59461 -1.45093 -18.9998
3.95788 -2.40572 -19.0001
-4.77205 -2.42087 15.4023
-2.16559 3.8193 4.62908
-0.0159555 -9.99957 -7.81871
4.00274 6.61448 18.9999
4.06884 6.62743 11.8693
9.95888 -3.8751 -4.59878
-8.19949 -5.72359 8.32019
11.7998 0.903917 -9.95268
-4.64414 2.74165 17.1002
-4.42924 -3.19628 18.9455
-6.53129 6.68631 9.99946
-4.1751 3.65477 18.9412
-6.08949 -9.99963 -2.16212
11.7249 -4.55514 -3.92724
9.54644 -5.60947 2.19286
-6.05347 4.25763 -9.99956
11.7995 0.0233532 -7.93571
-5.01973 1.6165 11.9461
-1.95656 9.93969 -4.67441
-3.38742 -4.68897 18.9427
4.18641 7.88834 -5.50275
-0.542533 9.99899 -5.6226
9.98094 9.99955 -4.5395
-4.41164 6.1992 -9.99953
-1.66149 7.96982 -4.90496
-4.86443 0.930223 5.93796
10.1202 -2.33307 9.9996
0.748896 6.93642 -11.9058
6.33257 8.28714 3.96156
-3.81111 -9.99905 2.3616
0.564998 4.61983 5.90355
6.2552 -8.18987 4.04263
6.28237 -6.31929 4.00674
-8.11052 9.99968 -9.88736
1.82276 -7.01013 18.9492
1.75821 7.00564 -13.64
8.17757 -9.9997 -4.51837
-4.10775 9.99949 -5.64821
11.7994 -8.06475 -7.91493
-6.33712 2.82487 -5.3023
6.8585 4.86307 -18.938
8.49335 1.94868 -18.9995
-4.49443 4.21155 4.2729
-8.19948 -3.55488 -9.91522
11.7995 -2.72002 7.71307
8.802 0.471867 15.4047
-1.17861 5.88514 -5.19983
-4.93908 1.90025 15.3642
8.50264 -9.99956 -6.39719
-8.19949 7.77458 5.97796
-8.19953 8.07914 0.0146869
-8.19952 8.22118 3.88319
11.7595 2.69367 -9.99944
0.10245 -0.811766 -19.0001
4.79527 -6.84359 5.20408
8.23838 -2.74255 13.7505
1.74418 9.9995 8.00732
-8.19944 8.34094 7.92126
-5.06407 -1.38551 13.6471
4.81525 8.1847 5.19062
1.85737 -7.01503 -15.3288
9.81154 -5.72092 -1.87991
1.72747 -7.00254 11.9036
8.06355 -3.12637 -18.9435
-3.99686 -5.8684 1.61478
5.862 -5.70098 -15.3391
11.7998 5.96301 1.12645
-4.31114 -3.44272 17.1184
-3.43356 -5.2945 2.98678
9.33522 9.99963 2.85882
-1.20809 -6.32641 13.6373
9.96255 4.01715 -4.46496
-8.19971 5.49132 2.61491
-6.21937 9.9996 0.0709151
3.86734 1.46377 5.82362
-2.73659 2.27195 -18.9998
11.7995 -0.705806 8.00512
-1.56942 -9.99942 9.93449
-0.551725 -8.29748 9.99956
-1.31237 -8.19472 -9.99952
-0.260751 9.99961 -7.85958
0.730829 -4.78434 19
11.7995 -1.80593 -8.16716
0.725591 -3.86448 5.93421
10.2845 -0.151809 9.99965
-1.9199 -5.93663 18.9337
2.31271 6.94791 -18.9995
-8.13912 9.99929 -0.95506
2.55444 -1.18532 -5.96315
-0.844055 -4.93503 5.40433
-3.80712 -9.9994 -2.44083
-4.21319 3.60382 -15.3588
0.846998 -6.95568 13.6718
8.36965 4.77936 -3.65097
-2.9596 -5.15266 17.1049
9.84505 5.37011 -2.68398
1.68591 9.99965 -7.95523
-4.89567 1.8975 18.9998
8.54956 1.89913 -15.3377
-2.75399 -5.2526 -18.9997
-8.13727 -4.74045 9.99955
4.51483 -0.754648 -5.98298
1.00725 9.94243 -9.99946
8.8727 0.895594 -10.0001
6.64595 -9.99967 3.66872
11.7386 -9.99932 -8.3638
-8.19955 -8.10088 -0.303011
-5.89217 5.37564 2.67526
-0.494668 -6.62597 -16.7998
11.7998 -4.37448 4.22378
0.275972 6.79101 18.9995
-3.64576 4.41398 17.0999
8.33528 2.71537 -9.99986
-8.14795 1.44035 -9.9996
6.67584 -9.99966 -6.05507
9.79836 5.96679 -0.736216
-6.0402 -2.57026 5.41453
-5.9063 -5.29112 2.85816
-1.36879 0.673745 -19
-8.19948 -5.23392 -8.16457
7.3757 -4.23946 -15.3043
1.10065 -5.75051 5.96172
-1.64838 -6.09362 -13.732
11.7994 -8.28614 9.94611
-3.66104 -9.99964 5.99535
6.37585 -5.29979 16.785
8.03507 -3.21922 -13.6292
11.7482 8.32271 9.99926
-1.9997 -6.00618 -10.0002
11.6863 -0.847863 -9.99948
11.7418 -1.59125 5.78223
-5.19168 -0.106453 -18.9453
5.41631 -5.95409 -4.78766
2.10349 1.34846 6.01625
8.38615 -9.99964 4.18018
4.7329 9.92988 -5.22485
11.7995 4.44977 4.15874
8.69596 -1.20333 -13.6179
-6.02373 -9.9996 1.96174
1.91611 4.84634 -6.02215
7.58155 -9.99948 8.07417
3.86078 6.5787 5.63276
-6.03757 5.90997 -1.10909
-1.55652 6.14527 18.9461
-0.407025 -9.99859 -5.68911
7.67955 9.99915 1.52728
1.94875 -9.9994 -8.03548
11.7594 0.802756 9.99949
-1.57879 -9.99972 5.04574
11.7996 9.92288 -6.58219
5.24507 -3.85935 -18.9999
-2.41674 5.59299 15.3623
2.18014 -9.99995 6.07091
-6.69989 -0.678383 -9.99971
11.7995 8.02098 -0.116971
8.6902 -0.985175 18.9997
11.7995 6.50103 9.93868
-0.71454 -6.53143 -12.2343
-1.00708 9.94602 -9.99929
1.14514 9.9995 9.9362
-5.20385 -0.431061 11.8795
5.77737 5.75416 18.9456
9.85718 2.17168 -5.60265
7.76643 -8.00623 0.689055
11.7397 0.55133 -5.97247
11.7995 -7.77077 1.99148
3.53361 9.9996 -8.1971
11.7349 -8.22549 -9.99966
11.7995 8.20161 -9.94543
4.99316 -6.228 13.519
5.77379 9.99958 -8.31927
3.83946 -4.48258 -5.65324
11.7997 -9.93293 2.73129
-4.87809 5.0369 -3.26605
-8.19955 9.9013 -4.6102
-2.04314 6.50636 4.60241
-4.75226 -2.46961 11.8782
1.57512 -9.99962 8.01731
8.90904 -0.715299 -10.0001
3.54266 4.81763 18.9999
0.564008 -1.86401 -5.89281
-8.19957 5.65544 -5.70352
-2.93842 5.16942 -11.8198
10.0544 -9.93196 -9.99925
-5.69045 2.92081 5.26045
11.7998 2.14336 -5.69782
-8.19949 9.93753 4.86409
-8.15099 -0.187692 5.99844
-6.38803 4.25134 -4.23113
11.7994 -5.57133 -2.47815
-4.21779 3.59825 -11.8105
7.87254 -9.99939 0.516453
-6.27522 -2.88572 -5.26906
0.0913665 8.42999 -9.99957
-8.1394 -9.99944 -1.3432
11.7995 -6.68775 -6.45788
1.46978 -5.01179 -19
-2.03454 -5.86159 -17.3117
2.5338 -0.420747 5.99242
-3.60445 4.46045 -17.1375
-0.640427 -6.7623 5.49616
1.86363 -1.12998 -19
-1.51042 -3.24923 5.06622
-6.67648 -0.0496357 9.99961
5.51292 -3.81017 -4.70762
-3.05711 9.99949 -3.64885
-5.96845 -7.82998 -9.99943
-3.00778 9.93764 -9.99925
7.75895 9.99954 -7.92028
7.10134 -4.56651 -18.9449
7.14534 9.9994 9.95078
6.03817 7.9642 9.99945
11.7994 5.9458 -7.82442
-4.82649 -6.13835 9.99966
-5.22411 -0.666372 -9.99968
-3.23887 -6.67001 -3.25715
-5.19714 -0.306086 15.4015
9.93958 9.99946 -6.57471
-2.17037 -5.77708 11.873
7.88284 -3.42512 -4.92014
5.11434 -6.16818 -13.6504
9.35531 9.99935 9.95098
5.81431 6.40878 4.45962
-8.19952 0.247367 9.91691
3.84217 -6.6563 18.9997
5.8532 -1.34181 5.84431
-3.82781 -4.1754 -11.9044
-8.19951 -6.64231 6.77143
6.14042 -5.50802 14.8835
-4.63852 2.75967 -17.1455
-8.19955 -6.58402 -4.24258
-3.24507 4.8532 13.5991
-4.49909 -3.04963 -17.1667
-2.99581 5.01207 18.9998
6.00309 4.12441 -4.38433
8.79366 -0.449487 17.1031
9.72393 -9.9996 -3.10556
-6.30751 -5.48778 -2.42226
-0.826859 8.34135 9.99952
-1.57385 -1.39002 -19
3.92299 -9.99946 5.72517
-6.31628 -0.682505 5.98231
-6.24605 -5.02803 9.99949
10.1194 2.72828 -9.9996
8.06207 -3.01621 19
-8.1993 6.73351 -9.92932
-6.39384 -3.26449 -9.99971
-5.17753 0.786491 10.0573
6.62563 1.70919 -19
-4.95387 -2.11437 -10.0001
-1.23074 6.32261 -11.8604
5.95654 -7.87041 9.99939
7.00885 6.95894 -2.98907
2.90247 8.25014 5.89677
-5.16649 0.745447 17.1301
10.0877 9.99947 8.17774
-4.78752 -9.99951 -9.94206
5.9543 4.22481 4.3282
11.7998 5.31442 2.77809
-4.67488 2.68902 -13.5624
6.14568 -5.50461 -11.8565
11.7997 -9.90167 9.90323
8.24649 6.17814 -9.99958
-8.19932 -8.42421 -9.93315
4.15144 -2.4994 -5.52163
-4.11855 -9.99948 -7.82293
2.40132 9.99977 6.06351
8.02348 3.23797 13.607
7.01485 -4.67314 18.9428
5.97499 5.62507 11.8313
11.7996 9.94469 4.63474
9.87012 -0.0876902 -5.99711
0.0436661 8.06052 -5.73839
-8.19979 -3.8191 -4.75168
6.70759 -4.82519 -3.60899
3.49146 -0.417525 -19.0001
-8.19945 1.59136 5.89323
-8.19946 -8.0071 7.95
-5.15932 0.840315 -17.146
6.37493 -2.23162 -19
-1.40515 6.24046 13.7361
7.25777 -7.68601 2.49792
-8.19952 1.85225 -7.9586
7.54202 -5.67675 -1.98376
0.72042 -6.90973 10.0641
4.65851 6.39763 -11.8398
6.08031 9.99952 8.29398
-2.36855 5.62694 -10.0462
-5.19527 -0.383617 -11.8435
5.13987 3.81761 18.9998
7.41015 -9.93734 2.15779
9.59718 -7.75067 -9.99945
-8.19966 -6.06304 0.593559
8.5703 1.85484 -11.821
11.7995 9.91959 8.15924
-8.19943 0.641266 -6.06176
10.0273 0.810179 5.96513
-4.11971 9.94391 1.02144
6.58362 2.37486 18.9999
-3.80171 9.99952 8.18204
8.20619 1.01289 -5.9203
6.55795 -5.13153 12.0988
7.52827 -9.99948 -8.13472
-4.02661 -4.05929 10.0002
6.51367 5.23759 -9.99977
-3.78747 4.33904 -9.99997
-8.19963 -2.38523 -5.59391
8.43252 -2.27503 -17.2163
8.01268 8.20389 9.99952
-1.85084 3.82005 -4.76354
7.49074 9.95903 -1.8992
11.7995 -6.21576 4.98844
4.76211 -5.0684 5.25246
11.7995 -4.72424 8.29461
11.7994 8.37914 -3.97907
4.75496 -9.99946 9.91712
2.00956 -7.01622 15.426
8.09874 4.06565 4.43019
8.19915 2.84389 -13.5813
-3.72653 -4.31415 11.8858
-2.86219 -5.22486 10.0613
3.16487 -6.87845 -13.6345
3.48213 4.1139 -5.79528
1.65714 4.84398 19
7.30221 -9.99953 -2.71831
4.08862 9.99922 5.62545
6.77847 -6.58621 -3.33867
6.1857 -9.94891 -4.13104
7.73082 8.00546 0.936767
-6.27645 -4.34948 -4.1374
-5.91861 9.99953 2.13025
6.79303 -4.92045 -13.5883
-4.7226 2.57597 10.0562
9.74558 -9.99934 -7.86759
-1.97761 -3.35799 -18.9999
-8.19952 -0.391371 -8.0155
-3.429 -4.65219 -17.1871
-4.53488 6.27626 9.9995
5.21788 -0.716853 -19.0001
7.88139 9.9993 -0.197586
2.0261 -5.08278 -6.02573
-8.13669 9.9993 1.03085
-3.96441 7.83725 -1.75579
-2.15085 7.97786 -9.99945
-3.72961 5.43143 2.57694
-8.19952 0.818952 7.85516
-1.89838 -9.94145 -4.75093
-3.62656 4.43851 -13.5959
4.88245 3.13986 -5.14805
11.7995 -8.08187 -3.58352
6.50757 9.99968 -6.23732
1.90692 2.88171 -6.02073
8.24058 2.68619 18.9997
11.7995 7.8552 -2.06141
11.7468 -9.99922 -0.807408
-8.19949 5.88318 9.94317
9.02282 -4.90661 -3.45754
2.42135 -7.13627 -10.0001
11.7994 -4.88724 -6.1253
1.93404 7.01819 11.8841
-8.13858 -9.99946 0.703268
-8.19952 -6.8198 3.58682
-4.19684 -7.94982 -0.475122
4.45693 -6.48939 -11.8642
8.42216 -2.30059 17.3182
5.02981 6.20974 13.5883
9.93834 8.02926 9.9994
-2.62838 -8.1874 -4.04501
-2.11615 -5.81178 15.3705
-4.94397 1.89669 -18.9475
11.7997 4.5442 9.94687
9.98883 -4.72863 3.69789
11.7995 3.07875 5.24164
-8.19951 3.43871 6.76832
8.01679 3.26888 -5.03899
-3.62023 9.99914 2.74995
3.09257 6.88407 17.1226
-6.25775 -9.99964 -0.12387
-8.13715 -9.99957 6.54155
-2.18612 9.99955 -8.38202
7.67868 -7.87534 -1.21999
2.62698 -6.94851 -11.8626
9.77903 -5.17738 -9.99942
2.96778 9.99959 -5.96665
-8.14244 -4.73077 -3.70712
-8.19956 6.44295 4.31936
-0.144542 -6.68409 18.9996
3.71906 6.73368 -13.6331
9.47249 2.59001 5.41166
8.34711 9.91595 -9.99965
-5.175 0.705412 -13.5749
0.32667 0.571123 5.9952
-3.85419 -4.13283 -15.419
-4.63952 -1.90375 -5.71509
11.7994 7.80851 8.15019
-2.98914 2.77645 -5.31584
11.7355 -9.99913 -6.56456
8.41725 -2.30482 -15.3685
-4.32477 -3.40517 13.6484
-2.77814 2.31278 18.9998
3.26662 -9.89875 -9.99945
-2.70088 -9.9995 8.27009
11.7995 -9.95107 8.22934
-3.28936 -1.22875 18.9998
3.7302 -2.04808 5.69835
8.15747 -6.27712 -9.9995
11.7997 -2.75229 -9.93853
-4.04499 8.01779 -9.99937
2.76447 9.87976 -9.9995
11.7995 -5.95451 -8.19311
0.6902 9.99953 6.00141
4.62082 6.41292 -15.4151
-4.1865 6.03649 -0.639401
-4.25102 9.99948 -0.620977
-0.474337 -8.50012 5.57489
11.7996 6.42592 -9.94349
11.7995 -8.00481 0.0856096
0.649886 -8.25532 -5.92052
-8.19927 -9.93556 8.27284
11.7994 6.61577 -3.95146
-0.740485 1.23187 19
4.9943 2.9219 5.2363
3.58054 6.77972 -17.1684
-0.216589 -2.58781 19.0001
-8.19958 7.38451 -3.94543
11.7995 -2.94304 -6.82781
-6.08386 8.01937 -9.99933
5.23698 -6.10569 11.6934
6.39727 0.484823 19
-4.61634 9.99956 4.31568
-6.07668 9.99957 5.97983
6.63738 5.06032 17.1152
1.76689 3.23428 6.01067
0.615053 -0.723001 19.0001
-2.54015 -9.99964 -6.41018
6.55187 9.93201 -9.99941
11.7995 1.32945 8.00367
-2.89807 4.77916 3.75841
7.22908 -5.35315 2.75487
-2.68545 5.47482 10.0003
-3.20134 -4.90124 -13.7127
9.58218 -4.29288 9.99954
11.7991 -5.45303 2.72883
6.1918 5.55364 9.99993
-4.39807 -3.25897 -13.653
2.89497 9.99951 9.93585
4.8263 -6.31025 17.2009
-2.12395 5.80775 -13.597
10.1413 -9.99939 9.92623
6.85041 -1.34256 18.9999
-2.51044 -8.52424 9.99942
-8.19952 -4.06045 -6.6673
2.14172 -3.15608 -19.0001
4.01765 4.6784 -18.9998
-2.1462 5.79513 -17.1824
8.56558 -1.81799 15.5019
8.44489 -9.99941 9.93293
7.74487 -8.2287 9.9995
2.26024 -3.10528 -6.00352
11.7995 -8.31932 -5.64399
-5.16667 0.775778 13.6857
-3.29731 0.337537 -18.9998
5.4846 5.96099 -17.165
1.62723 7.00308 -17.1683
8.69399 1.21379 13.5721
-8.13319 9.99971 6.60489
11.7995 8.3021 3.98544
0.24027 2.16515 5.79703
11.7995 8.21114 6.05854
9.62301 -9.99945 7.68703
-8.10243 9.86541 9.99981
0.59743 -3.95935 -5.90278
-8.0367 -9.9996 9.91709
5.66906 -5.79074 -18.9993
2.53293 1.14406 -19
4.07875 -6.61702 -18.9403
11.7204 9.99916 2.69125
8.79474 -0.967788 10.0002
10.1531 2.19573 9.99958
-8.19962 2.21888 -5.67693
0.144619 4.17432 -5.76911
-4.8202 -2.27236 -15.3847
5.89038 5.68139 15.3449
-8.19955 -5.88053 5.1607
-8.19946 -8.36852 9.94144
7.87328 -6.00601 -0.381558
7.15962 -7.97259 -9.99937
-2.91729 5.18302 -15.3594
7.74495 -5.86788 1.24951
-3.35207 -7.66798 3.06898
-4.69896 2.76292 -10.0001
-1.68739 -9.99962 6.74625
-8.13995 -4.76461 3.65925
6.04023 -5.6743 9.99981
-8.12983 -1.43291 9.9994
10.1245 9.99951 4.53181
11.7404 9.9992 0.713907
-1.90867 -6.25883 -4.71193
3.18186 6.88361 10.0644
8.46947 2.18525 11.8525
8.14477 9.9995 8.15146
4.80676 -1.01349 19.0001
5.88446 -7.98075 -4.39628
-4.98699 1.75311 -15.3437
2.69508 -9.99948 9.92842
-6.03257 -9.99938 9.94573
-0.98028 -2.69404 -5.35326
3.10562 -6.88854 -17.0789
4.77702 -8.47621 5.2142
-3.25499 4.84246 11.7272
1.0098 -6.9648 -13.5126
-8.19867 -9.9088 -7.70374
-8.14134 9.99963 -8.13571
-5.07121 -1.33753 -13.5979
2.66108 6.94303 -15.3905
8.77768 -0.795142 13.7218
2.991 -6.89972 13.7468
-6.51291 5.34767 -2.70993
7.39799 4.21252 15.3398
9.78039 -9.99954 5.56197
9.83028 -5.99317 0.216023
8.12585 -1.32836 -5.84666
-5.15995 0.0847202 18.9997
-8.19901 8.38727 -9.93982
-8.19952 1.89556 9.94677
6.24796 -2.15857 -5.62773
8.72607 1.09975 -17.0813
-3.89784 9.99901 -2.14728
-8.11529 -9.99795 -9.82727
11.7219 9.99935 6.43733
-4.55692 2.92874 13.6981
-8.14055 9.9994 2.82901
-4.80711 -5.02828 -3.28271
0.476554 6.88598 -18.9482
-8.19948 4.50423 4.09876
1.06061 6.97023 17.1036
11.7995 -7.80558 -1.82389
6.39159 5.28636 -11.8913
9.8239 5.04223 -9.99949
-8.19961 7.97692 -2.04268
-8.19946 4.93294 -9.92128
-8.19963 6.06123 -0.583881
-0.332051 9.99953 7.9874
7.71006 3.75095 -15.3537
3.43932 3.28949 5.80415
-1.32959 6.20888 -19
8.10071 9.99964 4.57798
-4.46625 -1.10212 5.90379
11.7996 9.94325 -4.91451
-6.27225 5.96389 0.772234
-0.291827 6.69777 -13.6402
0.35381 -9.99981 5.92285
-6.60364 1.41891 5.82644
11.7995 3.96706 -6.69163
-8.19955 -3.59134 8.40762
-3.12563 7.90523 9.99935
5.4568 9.99962 6.62046
7.0322 8.672 -2.95822
-8.1165 9.99962 8.34888
0.681117 1.5805 -5.91671
2.62213 -1.01348 19.0001
-8.1995 6.59354 7.94831
11.7994 -8.1007 5.85252
10.115 9.91582 -9.99967
-0.153484 -6.72706 15.3938
11.7997 -9.93644 0.98561
-6.55162 2.136 -9.99962
11.759 2.7624 9.99943
-8.14288 -1.84034 5.72799
-1.67739 3.97279 -18.9999
-8.1995 -8.3802 -4.26054
-4.05033 -3.78035 -18.9995
-3.96186 -3.0183 5.20665
0.735375 6.31968 -5.93801
-1.4515 3.45418 18.9999
8.0272 -6.29687 9.99953
-5.18457 -1.12757 10.0006
11.7995 3.89209 -8.37879
7.8866 6.00556 0.0979556
-4.13988 3.69517 -18.946
-6.29746 -9.99958 -6.18042
-4.61883 -9.99945 7.88346
-3.06551 -9.9999 -3.69733
-3.75969 -8.13082 -2.24404
3.66653 -6.37062 -5.72228
11.7995 3.26117 7.77075
-2.92305 5.13062 -18.9987
-1.08732 -8.00512 -5.25454
11.7989 -3.0109 5.30356
7.09462 4.58117 -13.6362
6.55973 -9.99939 -9.9368
-3.30085 -1.66629 -18.9999
7.16209 7.489 2.70262
11.7991 -3.1538 -5.18208
11.7998 1.7256 5.84753
8.13187 0.948113 5.93554
-1.06068 5.03424 5.27938
-8.19946 -8.09539 -6.23119
4.90877 8.24397 -9.99955
11.7342 -4.6217 -9.99933
8.69626 0.845223 18.9998
-5.96285 -9.99956 5.95073
4.91264 -6.26763 -17.0784
10.0773 -3.19471 5.08694
-0.768855 6.51177 17.0927
3.69094 2.08134 -5.71011
1.42938 -9.99976 -6.07492
-0.465234 -4.67084 -18.9999
-8.19963 -5.61518 -2.39326
4.0139 6.63809 15.3366
-8.13972 -9.99942 4.76375
-5.01023 1.69184 -11.7937
9.79049 -1.0546 5.90675
11.7994 -8.06559 7.98169
2.69788 -8.33097 -5.93031
7.06408 4.61762 -17.1138
-0.852457 2.5101 -5.46021
-8.12748 -5.63575 2.11567
-4.25896 -3.69408 -10.0002
0.86196 -6.96342 -11.6605
-8.19967 4.89368 -3.64429
9.64604 9.99947 -8.32424
-8.1501 -2.98958 9.99953
6.21631 -4.33354 4.15044
-1.27734 6.29856 -15.3864
-0.196172 6.622 5.66218
5.55002 -9.99956 -7.60664
3.65762 -9.99963 7.93979
4.47011 -8.02441 -5.40054
7.49105 -9.99966 6.04183
8.02354 6.24209 9.9996
-0.588714 9.96166 9.99942
5.67608 -5.82611 18.9329
8.21415 2.81835 10.0597
7.67033 -3.81726 15.4485
0.239433 -9.90795 -9.99948
11.7995 6.47176 6.789
2.98059 6.37549 -5.88434
11.7422 -1.21856 -5.87346
8.79866 -0.262969 -15.3173
-3.88009 9.99961 6.17671
0.0692803 -6.25426 -5.74071
4.58575 4.93366 5.33314
5.81971 9.99956 4.57863
1.707 -2.88144 19.0001
11.7997 -3.12856 9.92731
-4.18645 5.88964 1.10511
8.79352 0.984649 10
8.26652 -4.26594 4.22338
8.06535 9.99964 -3.83883
-3.96863 -5.85872 -1.74892
0.837497 -1.01548 5.95436
-2.07273 9.99958 7.2757
11.7109 9.89735 -9.99765
-2.33125 -6.19956 4.35616
5.02172 9.99946 9.94336
-0.313269 -2.22073 5.63913
2.10148 8.11993 -6.02503
-8.19954 7.81106 -5.90118
0.500378 -6.84308 -18.9992
2.83598 2.8316 18.9999
-4.48757 3.77681 -4.67103
-6.1199 -9.99942 -8.08422
-4.33849 -3.69206 -4.72764
9.78945 -9.99953 1.03513
6.3534 5.3209 -15.4022
3.92508 -8.39833 9.9995
-8.12004 3.16693 5.09556
11.7997 -9.94202 -2.58227
0.164573 4.75357 -19
-1.18451 -6.33713 17.1369
-3.04935 -9.94289 -9.99946
-8.19951 4.74128 8.18766
-6.52411 2.47215 9.99974
-3.08072 -7.00348 9.99966
3.6552 -2.80109 19.0001
-2.3034 -2.86737 19
0.178343 -2.81427 -19
-2.22525 -3.96529 -4.51901
7.36988 4.24976 10.0472
11.7995 -4.58264 6.35453
-2.14723 -8.1013 4.52643
1.66987 -8.51533 9.99964
-1.02797 0.76423 -5.98289
2.99853 6.90031 13.5822
-8.1995 -5.95803 -6.11418
6.75147 -5.04583 -9.99982
-6.57754 -9.9996 3.8653
6.90938 5.19722 3.14152
-8.19961 5.70952 -2.16435
11.7995 8.23156 1.74436
11.7997 9.93692 -1.1583
8.61489 1.60537 17.2328
4.41586 -0.346047 5.99316
-2.86272 8.40014 3.77848
-8.19946 -7.50949 -8.03748
-8.1995 -1.84636 -9.9339
-2.54245 -4.25763 4.22492
-6.4637 -4.10461 4.38218
5.78835 8.16538 -4.48592
9.3088 5.21562 2.99462
3.21374 -9.99903 -5.94341
-3.9008 -9.9994 9.93842
5.29109 6.17839 -9.9999
-6.47631 9.99955 3.9919
9.46862 9.99958 6.3356
5.48607 -9.99931 4.88975
-8.19952 5.45701 6.13024
9.72808 -8.02586 9.99934
3.54392 -6.78612 11.8918
6.73629 4.97162 13.5782
6.02418 0.880984 5.95103
5.5351 3.36466 -18.9998
-3.94615 4.14918 10.0007
7.53485 -4.02546 -11.8379
-4.66978 -4.35385 4.12632
8.80045 -0.661842 -17.0945
11.736 4.7756 -3.62038
-3.05166 -4.93429 -3.52558
4.74821 1.90298 18.9999
11.7997 -9.94934 -4.43839
7.70493 7.91801 -1.06077
-4.77765 -2.40065 -11.8466
2.11326 5.00381 -19
-1.05021 2.96598 5.28493
0.704778 0.974418 -19
4.95457 -8.24392 -9.99949
-8.12197 -6.73572 -9.99958
8.79279 -0.192836 -11.8575
7.32211 9.99964 6.33809
-1.36209 -9.99948 -9.93199
-2.82486 -2.4105 -5.49489
0.845541 -0.191961 -5.99173
9.66185 9.99953 -2.59802
-0.880123 -4.75779 -5.38355
3.12835 -8.11909 5.8541
-8.19954 2.66785 8.33101
-1.93286 -9.99953 -8.07036
8.79348 0.139455 11.8247
-6.05288 4.60089 9.9996
-8.14475 9.99928 -2.84826
-0.507214 2.55156 -19
11.7238 -4.88538 9.99935
3.59165 0.636764 19
4.9345 -9.99942 -9.91451
-8.1995 3.63865 -4.90314
1.79534 6.59411 6.01121
-5.90036 9.99945 7.92389
-4.28145 -5.99701 -0.059692
2.65095 -6.94687 10.0558
9.65102 4.21341 9.99955
-4.38136 9.99943 9.94928
-4.90034 -2.02192 -18.9346
-8.12197 -9.9994 -3.32134
9.81609 -9.9995 3.05079
-8.19957 -4.64314 6.63002
11.7377 9.9991 -8.26924
11.7994 7.9616 -7.97289
-2.81612 -9.9328 3.81709
7.58017 -3.95984 17.2502
8.76994 0.829861 -13.6114
-0.411728 -9.99954 8.11074
3.78655 8.42825 9.99956
11.7994 -6.40156 7.31409
0.283296 6.91807 10
-4.16936 9.99951 -7.83298
4.76584 6.42789 9.9997
-8.19963 -2.77747 6.98203
7.66529 -0.792907 5.9782
-4.33243 -9.99962 -5.53204
11.7332 -9.99922 6.48526
1.93875 7.01339 15.3174
8.22967 9.99963 -5.78883
6.54285 2.14051 -5.63411
-1.25087 -0.564266 5.99563
11.7375 -5.90777 1.03996
8.14957 2.95216 -17.1449
9.96412 -6.11698 9.9994
7.13496 7.83157 -9.99949
-6.06583 9.99952 -6.2201
-3.00161 -5.11506 13.6355
-6.13812 -5.9854 -0.769132
8.52138 -2.48437 5.45499
-1.10542 -4.3868 18.9999
-1.90451 5.93696 11.973
0.815239 -6.9505 17.1527
11.7356 9.99916 -2.9604
-2.84685 4.70728 -3.80544
-2.58973 -1.79922 5.73622
4.71646 9.99968 -6.90454
-0.891195 9.99894 5.46989
11.7337 -9.99919 4.55902
-0.986752 6.49947 -10.0001
-8.19948 7.97944 9.94711
-4.89749 9.99952 -3.80219
-3.10339 0.393885 5.99483
2.90487 -6.90878 17.1515
-6.37416 -0.944646 -5.93586
-8.19955 3.90312 -7.44296
-3.71729 -4.33013 15.3741
11.7996 -6.61898 9.91191
7.35004 -4.39624 10.0004
11.7996 5.70948 -2.08711
-8.19967 -6.00106 -0.92616
-2.30689 9.99967 -6.59486
-0.313155 6.68644 15.3365
-1.10642 -0.944648 -5.94197
-8.12888 -5.1043 -9.99948
-3.76033 5.66071 -2.26472
5.80118 -2.99958 19
10.0826 -9.99951 -5.36906
1.69793 7.15842 9.99984
-3.97275 3.95687 15.3073
10.0498 -2.86234 -9.99956
-6.13466 9.99944 -8.11659
11.7996 -4.02411 -8.20074
11.7996 5.36295 8.25133
7.04059 -8.30653 -2.91725
7.78282 -9.99972 -1.23378
-2.92189 -0.693156 -5.99475
-4.64151 0.122618 -5.99659
11.7997 4.60213 -9.95117
9.83522 5.88122 1.25226
1.98876 -2.4913 6.02329
-2.37999 9.99949 9.92143
3.48291 -4.7627 -19
11.7993 3.6478 -4.85719
0.652824 6.92235 -15.4064
-6.09947 -5.41662 -9.99961
-1.37699 -0.793371 19
-3.25912 6.80103 3.22304
-6.50286 -9.99946 -9.95132
3.82747 -9.99954 -7.94627
0.508215 6.88104 -10.0625
7.89053 3.45432 17.1429
4.72913 1.28887 -19
-4.41713 -6.29882 -9.99971
-8.19951 -0.0640164 -9.93136
-4.70517 -2.75933 10
8.22049 -2.78206 10.0585
-8.19958 -7.90469 1.7013
9.80414 9.99953 1.10065
7.50047 4.08184 11.8831
1.17979 -6.97383 -17.1532
-0.172978 6.71829 11.9087
8.79997 0.282737 -18.9417
-1.33499 6.35478 10.0008
7.77687 -3.64 11.8814
3.45031 2.90773 -18.9999
3.84092 9.9995 7.95664
7.82689 -3.77384 -10.0001
2.36392 -6.99101 -18.9471
-2.80916 1.06472 -5.91097
8.41757 -2.26312 -10.0595
-8.19943 7.96005 -7.88925
-6.45156 -9.99943 7.95437
3.56882 6.87193 -9.99989
8.46709 -2.18977 -11.9009
-0.230279 4.80874 18.9999
-0.284567 -6.6942 11.869
-1.66456 1.41139 5.82771
-3.19123 -4.92073 -10.059
-5.19934 -0.264042 -15.3465
4.98962 0.927181 -5.94624
5.61819 -9.99961 7.42249
-4.79313 9.94328 -9.99936
0.747306 8.2881 5.92777
-6.43679 -2.86544 9.99963
5.47706 -6.07998 -10.0005
0.770789 6.9505 13.6413
-5.22397 0.90769 -9.99949
-1.19913 -6.3197 10.0506
6.55812 -0.149705 -5.99471
-3.88208 8.00889 1.93818
-8.13377 3.93688 9.9996
-2.98498 0.603172 18.9998
8.57036 -1.85581 11.9029
9.63132 7.68753 -9.99945
4.49859 -4.50538 19
-6.12734 9.99959 -2.02609
11.7995 4.6472 6.26458
4.44267 -6.5636 10.0005
3.00126 -4.18859 5.87782
-5.80907 -9.9996 -4.07175
-6.51549 9.99945 -9.94806
-5.10367 -1.14149 -17.1269
-6.14897 -5.89675 1.09389
6.94117 -0.180832 -18.9999
9.8058 9.99954 -0.812949
-6.38237 9.99949 9.93891
-0.532285 -6.61733 -10.0715
6.98216 9.93288 3.01845
10.0787 4.11441 4.3724
1.45283 3.04186 -19
0.911803 -7.12056 -9.99996
-2.41392 -5.59515 -11.8808
11.7194 -6.50935 -9.99931
2.03957 7.141 -9.99996
6.86311 -2.90149 5.25084
