1.50024 5.64475 0.418446
-3.14223 5.88169 -0.964017
-2.77364 5.37518 -1.38413
0.674923 5.69515 -5.29183
0.665086 7.04379 -4.60405
2.3627 5.04575 -0.859332
-1.27422 6.79613 -2.91841
-2.17182 6.99694 -3.14487
-2.89905 6.22716 -0.92445
-2.57883 4.96113 -2.66169
0.689298 6.76977 -5.15244
-0.0349145 6.08763 -3.42409
-2.96415 5.47582 -2.14889
0.626349 5.01714 -0.283705
-0.567959 6.50832 -5.2994
-2.2627 6.575 -0.380638
0.728854 6.40194 -2.82229
3.11813 6.42583 -1.7414
-2.90091 6.62421 -2.88363
-1.94826 4.84078 -4.1578
1.45593 5.273 -1.89274
-2.28862 5.27365 -0.584206
1.21974 6.39602 -2.13154
-0.0534396 5.46644 -5.33834
0.0671161 5.89672 -1.03566
1.28216 5.27624 -5.16133
-2.80278 6.71751 -2.49336
0.502905 7.01959 -0.570707
-2.94112 5.47982 -1.71585
-1.30013 7.14288 -0.288737
0.91158 5.9738 -2.76826
0.714101 5.85233 0.774673
1.40521 6.40665 -4.91321
2.09696 5.7735 0.0194127
0.179848 6.91553 -5.24792
1.60463 5.09919 -1.55495
1.79284 7.17676 -4.20546
-1.13999 5.14195 -3.34027
-1.50892 6.02551 -4.95998
1.17062 4.79195 -3.41601
-0.801032 5.31402 -2.99716
-1.30437 6.51961 -2.53845
-1.43828 6.53093 0.371438
-3.29308 6.26398 -2.09657
-2.73732 6.1234 -0.552089
-1.84256 4.69447 -1.39832
0.226493 6.47784 0.839712
2.34041 6.55292 0.0818915
-2.53472 5.08915 -3.34771
-1.10069 6.81045 0.46158
-0.748801 6.88165 -5.20987
0.0568542 6.31357 -1.0527
1.07106 6.53611 -2.77932
-1.48743 6.72502 -2.24464
0.549818 5.04459 0.707732
-0.230205 5.01641 -3.96733
2.15192 4.71141 -2.0926
1.55591 6.98597 -0.53549
0.892738 5.92588 -2.27159
-1.91193 5.0881 -0.579667
2.485 5.16354 -3.17583
1.48808 7.05577 -3.72414
0.111212 5.70686 -3.43633
-0.396809 6.4889 -3.39397
-2.14953 6.13805 -4.55128
1.40393 5.02785 -4.11628
-1.05981 5.47648 -1.41225
-1.21697 7.03254 -3.86012
-2.26138 6.86867 -3.54003
-2.19801 5.07439 -0.971449
-0.117872 6.99097 -4.01788
-2.6473 6.58384 -1.01197
2.34505 5.50312 -4.57852
1.08272 5.05289 -4.40256
1.86907 7.28186 -1.70781
1.31654 6.95025 -0.208685
-0.129298 6.11801 0.854988
2.23966 6.92977 -1.13309
1.49765 5.27422 -2.33174
-1.39495 5.12175 -1.4801
2.71284 6.49323 -0.338769
-1.56737 5.04148 -3.30025
0.705627 5.0966 -0.78595
-1.31405 5.23148 0.398138
-2.05233 4.68288 -1.71982
2.33775 5.16861 -3.50979
0.247283 5.02247 0.372273
1.23371 7.09891 -0.771488
-1.52545 4.7281 -1.20585
-0.821805 5.52825 -2.75642
1.03968 6.58324 -5.04977
0.642825 6.98304 -4.16523
2.59305 5.3488 -0.97133
2.66094 5.61004 -4.27319
-0.460036 6.59029 -1.32382
1.73419 5.77769 -4.92431
-0.737499 5.13055 -3.42997
-2.52814 5.27928 -1.01561
1.01947 6.83022 0.721667
2.91909 6.55384 -1.33612
-1.96404 7.29897 -2.40086
-0.191823 5.19144 0.880545
-1.27865 5.22095 -2.99314
-0.313366 5.78447 -1.05546
-1.63257 5.88309 0.512203
-0.567718 5.2497 0.879078
-2.73215 5.7586 -0.269315
1.00736 6.70504 -3.14821
-0.273879 5.82104 -5.32216
2.09203 7.28309 -2.01962
2.66856 6.74512 -3.06127
3.12134 6.40969 -2.17909
-1.08551 6.14066 -2.49723
2.82484 5.44537 -3.34519
1.4031 7.11544 -4.1349
-3.13157 6.45807 -2.51464
-0.5253 5.28088 -3.21195
1.79494 7.12845 -3.40578
-0.282946 6.25543 -1.14282
-0.944026 5.11956 0.255773
-0.655224 6.88678 -0.683912
-0.843457 5.89053 -1.50147
1.1547 5.31912 -1.54076
-2.46262 6.62593 -4.32769
2.10158 4.69729 -2.496
-2.74726 6.51968 -4.04433
-2.45142 6.17001 -0.251959
-1.33091 5.12317 0.0116061
0.667092 6.90457 -3.77839
2.16313 5.19056 -3.87325
0.249078 6.98585 -4.278
1.79489 5.09866 -4.02947
3.14375 6.3112 -1.01523
0.166845 4.99289 -4.09224
-1.40672 7.11685 -3.46471
-2.96608 6.57176 -2.11471
1.89396 7.23136 -3.85873
-0.151387 5.07077 0.509675
-1.44501 4.92919 -4.2102
2.12631 6.94757 -3.97924
2.43843 6.1672 -4.19679
1.79909 4.92645 -0.0927066
-0.13464 6.96231 -3.50105
2.95769 6.35371 -0.640243
1.79409 5.00977 -2.00172
1.67442 7.08785 -0.950276
2.82252 6.67975 -1.81877
2.95199 5.5212 -1.72719
1.39794 6.77467 -2.91078
0.561814 5.15776 -5.29428
0.510722 7.03221 -5.06207
0.515684 5.45359 -3.41151
-1.73465 7.26748 -2.74225
2.4489 7.06171 -2.88226
2.88321 5.65087 -3.96389
0.885211 5.11833 -4.92597
-2.05427 7.312 -1.97625
-3.04413 6.42291 -1.70575
-1.85328 7.02095 -3.48608
1.42007 5.64178 -5.10168
-2.62071 5.04018 -2.23691
0.66232 6.13445 -3.10611
-0.886867 5.72585 -2.46153
0.931385 5.20449 -1.15258
1.62849 6.84391 0.0463676
1.32564 6.04704 -5.04598
1.82192 4.90967 -1.18077
-0.134063 6.76727 -1.11274
1.00272 5.01275 -0.451399
-2.48022 6.95088 -2.53489
2.47712 6.98719 -1.97926
1.58483 4.99965 -2.78835
-1.44344 5.01012 -0.38882
0.615569 5.35805 -1.4023
-0.220335 6.59357 0.796716
-1.16987 6.34857 -2.11451
1.29058 5.16116 -4.76387
-0.554827 4.98456 -4.74939
1.12523 6.4043 -1.62941
2.92584 6.44889 -2.99509
-1.64809 6.86375 -4.54875
2.38536 5.79305 -0.263144
0.251877 6.93559 -3.80124
-1.9945 6.88975 -3.88329
0.743113 6.54504 0.801202
2.74155 5.99949 -3.96448
-1.97134 6.92333 -0.320552
-1.87037 4.87398 -1.0227
-1.76922 6.28638 0.265347
0.547837 6.89439 0.786817
0.665033 6.79624 -3.42497
-0.219823 6.21532 -5.32706
-3.18397 5.74761 -1.79939
1.17826 5.62806 -2.42347
2.14551 5.05317 -0.451233
2.37609 5.39973 -0.523166
0.248347 7.01319 -4.72276
1.03686 7.06921 -4.36851
1.1148 5.77882 0.635716
2.00903 6.75272 -0.027951
0.755176 6.30285 -1.24817
-2.20281 4.90552 -1.37723
-2.8637 5.55142 -0.987356
2.95421 6.5316 -2.57594
1.60212 5.17479 -4.50486
-1.52526 6.93193 -2.63272
-1.59774 6.99511 -3.81972
0.185838 5.12967 0.8302
-2.66101 6.6728 -3.64526
3.03875 5.5555 -2.90925
-2.70967 6.13318 -3.9701
1.81875 5.4176 0.119955
0.283115 5.01147 -0.0674757
1.53445 5.20602 0.276639
1.96204 4.8725 -1.62267
2.90621 6.13864 -3.57553
0.920677 6.17861 -5.17014
-2.53403 6.47821 -0.657328
2.83815 5.65181 -1.09252
-0.277553 5.08785 -3.44146
1.39568 5.10431 -1.18502
0.252553 5.9458 0.85528
3.21439 5.78771 -3.31336
1.64839 6.73136 0.49795
-1.23287 7.1823 0.158106
0.852433 5.19767 -3.35452
-2.98064 6.42488 -3.70491
-1.73217 7.05063 -2.26352
1.59226 6.83506 -2.55247
-0.870726 7.00658 -4.13266
-0.583079 5.02918 0.0190071
0.661798 4.99222 -4.22826
0.389025 5.625 -1.15282
1.06889 5.38206 -3.10699
2.90348 5.98293 -0.821365
0.982299 7.11875 -1.07976
2.09317 5.35768 -0.180555
-0.995514 5.06268 -3.71852
1.67952 5.32478 -4.97932
-0.485204 7.02517 -3.88003
0.422336 5.91481 -3.35033
2.5619 6.83866 -1.54256
-2.7132 6.67258 -1.37956
-2.14227 7.1219 -2.74088
0.34609 5.50463 -5.34049
-0.0197426 6.53135 -3.4174
2.10635 6.19079 0.175878
1.78828 4.94989 -2.41957
-1.83429 4.98437 -2.90298
2.31518 4.73282 -1.61509
-1.42104 6.42095 -5.05369
0.677257 5.04882 -4.60518
-1.56421 4.88615 -0.75568
0.240534 5.01618 -4.50504
1.74152 6.19075 -4.78131
-3.36819 6.14745 -2.52116
2.77726 6.57503 -0.859496
0.0760965 4.99497 -3.61204
2.02216 5.4249 -4.81752
-1.45065 6.89842 0.204576
0.398109 5.17046 -1.14056
1.79341 7.06714 -2.15978
2.30109 4.93458 -2.85055
0.795078 5.71349 -3.17951
-0.220574 7.03046 0.688378
-0.134588 6.62443 -5.32026
-2.04185 6.48769 -0.0685867
-0.545423 6.96727 -4.82451
-1.34877 6.17328 0.547582
1.16666 5.52254 -2.00341
-2.36593 6.75372 -3.94733
0.55214 6.21554 0.82014
0.911848 5.27632 -5.27988
-1.37477 5.00603 -3.75082
-0.69186 5.63086 -1.17459
-2.57502 6.77641 -3.25519
0.106333 6.96467 -0.557633
0.357444 6.53177 -1.05056
0.0812632 5.05002 -0.972452
3.10662 5.60423 -2.46562
-1.37965 6.91033 -1.1457
2.44195 4.86418 -1.97364
-0.665123 6.76268 0.661624
1.0329 6.12355 -1.96721
2.32608 6.69432 -0.313983
-1.87021 5.41591 -4.57825
0.660702 4.98315 0.200237
-0.659504 6.1168 -5.27317
0.785826 5.52798 -1.67702
-2.29793 4.78798 -3.50796
1.46571 4.8965 -3.69195
-2.07085 5.20775 -4.29169
-3.11426 5.71477 -2.49254
2.18143 7.29357 -2.77917
1.04041 4.95108 -0.0376437
-2.41404 7.01923 -1.43068
-0.553542 5.10857 0.458593
-1.27332 6.95909 -4.28294
0.0248533 5.59069 0.886037
2.46084 6.22354 -0.10788
-2.34282 4.70486 -2.41995
1.19618 5.34072 0.526732
1.73533 6.30778 0.443745
-3.28884 5.89969 -2.15817
-1.01994 4.9683 -4.98932
0.145237 5.09434 -5.29013
-2.97069 5.79336 -0.624072
-2.90634 6.03366 -3.60471
-1.70671 5.1573 -0.192963
-2.76277 5.66552 -3.52299
-2.24691 6.8752 -0.681289
-2.83275 5.32027 -2.5401
-1.10426 6.13736 -5.15191
-1.02054 7.12136 -3.3096
1.58988 4.73746 -3.21373
0.923995 6.07123 -1.57604
-0.959553 6.66937 -1.29402
-2.70889 5.20308 -1.87317
-0.872456 7.07352 -3.67547
1.86687 7.08544 -2.58271
-2.93504 6.56694 -3.28174
2.70087 5.25739 -2.87839
-1.85518 5.8785 -4.71329
-0.244793 6.89203 -0.726682
1.59325 6.99522 -1.77821
3.19592 6.23929 -2.67197
-2.52482 5.32997 -3.6696
-0.343324 6.91521 -5.25256
1.0896 6.87868 -3.5366
2.0881 4.76591 -0.795401
0.507385 6.06344 -5.28409
-1.58077 5.59963 -4.84658
-0.514146 6.99508 -4.33956
2.57101 6.75029 -1.14177
-0.367197 4.96059 -0.350702
0.431522 5.49456 0.825935
0.894013 4.99211 0.563677
-1.2451 4.74327 -0.984155
-1.00674 6.45263 0.610946
-1.74736 4.90973 -3.73897
3.40365 6.0689 -2.2503
-3.0777 5.67339 -1.35554
-3.169 6.28515 -3.31624
2.78276 6.73631 -2.22403
0.846264 5.75216 -1.92317
2.46423 4.96392 -2.4686
-0.893258 4.80465 -0.889275
-0.199885 5.00526 -4.43074
2.25824 6.54978 -4.12901
-1.75831 6.72985 0.0413603
-1.61435 5.20887 -4.74055
2.57994 6.39318 -3.82119
1.33415 6.62081 0.664848
1.42658 4.91601 -0.367028
-0.427594 6.03698 -3.34556
-2.05218 6.7992 -4.31338
-2.42465 5.46769 -0.236571
-0.65193 5.01085 -5.15373
-1.71632 6.99189 -1.84262
-0.895065 7.13948 0.382696
3.07804 6.16464 -3.19395
-0.721928 4.9051 -0.487773
0.935032 7.04907 -4.95033
0.78695 6.93861 0.412417
0.653054 7.08445 -0.924168
-2.2976 7.13028 -2.25914
-0.615482 5.68367 -5.26355
1.02703 4.9252 -3.91496
-2.40876 5.89434 -4.21
-1.28412 5.2845 -4.97456
0.698683 5.82119 -1.38023
1.87789 4.70858 -2.85997
2.15697 7.30029 -2.37941
-1.04642 6.8714 -0.900451
0.967485 6.95492 0.0100585
-1.40821 7.07102 -0.697849
-0.195556 6.97743 -0.237188
2.0002 6.62269 0.335662
-2.00315 5.88995 0.297501
-1.03073 5.75709 -1.80771
1.9468 7.11107 -1.27081
0.331468 6.34486 -3.31398
-0.992326 6.99765 -0.490398
2.63106 5.68185 -0.672799
0.821281 5.41374 0.706424
-1.52998 6.77474 -4.99138
0.227508 6.94986 -0.969219
-0.998252 4.96125 -4.53832
-1.16181 5.4195 -2.60951
-1.26626 6.90971 -4.69974
0.447563 4.99031 -3.52613
1.04659 5.72302 -5.20747
-2.09727 7.3144 -1.58499
1.43897 6.91912 -3.29414
-2.60263 5.73366 -3.86352
1.93942 6.77375 -4.34622
0.552313 6.61053 -3.08914
1.47966 4.87303 0.0881904
-1.82269 6.31945 -4.82846
1.56338 7.10939 -4.51576
3.37493 5.90687 -2.57831
-1.12311 6.8593 -5.1009
1.88309 4.80199 -0.433237
1.29217 6.90296 -1.43398
1.28517 6.54581 -2.47891
1.51054 6.7449 -2.15187
-0.365435 5.63413 0.89102
-0.282339 5.59658 -3.36909
-0.143936 5.02497 0.0869751
-0.702464 6.71937 -3.32417
-0.563601 6.97638 -0.32537
-1.09044 6.36321 -2.87288
2.23167 7.07563 -1.61111
-1.69078 4.91515 -1.64092
2.61482 5.39977 -3.77386
-3.3438 6.07631 -1.70933
-0.786213 5.23815 -1.0597
-2.00171 4.88598 -2.50584
1.63573 4.92351 -0.78736
-1.2027 5.37209 0.770182
3.06413 5.72101 -3.65805
-1.14474 5.59812 -2.17386
1.41098 6.10326 0.559955
-3.17912 5.94663 -2.86696
-2.99895 6.32832 -1.30785
2.80081 5.29454 -2.51152
2.22869 4.73712 -1.20233
-0.45952 5.3586 -5.28207
1.89085 6.86106 -0.367961
-1.75092 7.07801 -1.43723
-0.602025 6.76298 -1.02291
-2.66092 5.49714 -0.621712
-1.5762 5.16838 -1.9373
-1.39887 6.66323 -1.89128
0.00423023 4.99169 -0.39197
-1.41938 5.34074 -2.26666
-2.06179 5.30954 -0.153424
2.66451 5.148 -1.71825
-1.88188 6.71956 -4.80629
-2.17798 6.12079 0.0440028
-1.39914 6.78841 -1.51105
-0.0872185 7.02226 0.228826
-3.26492 5.99267 -1.32899
0.392173 5.05663 -4.91618
-2.6297 6.86705 -2.13618
2.14504 7.21878 -3.57201
1.20147 4.93992 0.373004
2.51886 5.0484 -1.3098
0.100094 5.32206 -3.45779
2.91967 5.41672 -2.10716
-1.96672 4.87679 -3.28657
-1.00033 6.50763 -5.21095
-1.6763 6.9138 -4.17121
0.439334 6.07856 -1.11855
-1.89071 5.51799 0.472702
-1.74793 4.91134 -4.49101
1.29775 5.04538 -3.11485
2.66012 5.12157 -2.14562
1.99455 5.26708 -4.39109
-1.08755 6.5021 -1.68545
1.35542 6.66106 -1.78421
2.71357 6.51777 -3.41617
1.02971 6.24361 0.719603
-2.33811 5.47271 -4.08117
-0.666195 5.73791 -3.14452
2.06381 6.30775 -4.48459
2.01658 6.91772 -0.752194
3.38344 6.11773 -1.84517
1.34467 5.33223 -2.74391
0.958821 7.03508 -0.493059
-0.666565 6.38589 -1.57271
0.131333 6.91827 0.792545
0.14037 5.90315 -5.33269
1.60409 7.24998 -1.42907
2.39262 6.76894 -3.71747
-0.88451 5.95586 -2.15257
-2.41477 4.91054 -1.82253
-2.37072 4.75154 -3.12567
1.8705 4.97061 -3.57942
2.79714 5.4233 -1.39361
0.258406 6.99886 0.46758
3.14797 5.83264 -1.58266
3.2867 6.22923 -1.41287
2.36507 5.89799 -4.43677
-1.294 5.4247 -1.78277
-0.829942 5.63403 0.840789
-3.00233 5.86272 -3.2239
2.35247 5.36033 -4.17482
-0.115688 6.99011 -4.93541
2.05298 4.91181 -3.21526
-1.60183 7.17628 -0.104654
0.0258924 5.45815 -1.01156
0.257127 6.82309 -3.36164
-2.52132 6.86763 -2.88758
1.08284 5.65407 -2.83153
-1.38415 4.91984 -4.73664
1.19638 5.05632 -0.802589
-1.77886 7.15876 -3.11746
-1.75942 7.25965 -0.461255
-0.979979 5.00452 -0.189074
2.05484 5.87116 -4.69496
-0.812528 6.17062 -1.85671
-0.895922 7.08546 -0.0683844
2.1685 7.28033 -3.17098
-0.596846 5.04737 -3.8202
-0.255529 5.04112 -5.23799
-2.13146 4.79797 -3.80875
-0.577009 6.36572 0.762861
-1.71921 5.09468 -2.3919
2.68923 6.06152 -0.450531
-0.373064 5.32298 -0.972541
-0.543668 4.87278 -0.846165
0.472978 6.98 0.159717
1.34873 6.80636 -4.82543
3.07372 5.92811 -1.21168
0.32522 5.03584 -0.629441
1.70527 6.62894 -4.63512
-1.51474 5.19788 -2.701
1.77791 7.04514 -2.98568
1.26104 6.87668 0.315263
-2.37103 6.93622 -1.04092
-2.24042 4.68788 -2.08203
-1.74111 5.29698 0.193757
-2.67892 5.16822 -2.95211
-0.549405 7.09601 0.543249
-2.44545 5.73355 0.0381123
-1.8832 4.90822 -2.0494
1.7915 5.88839 0.298686
1.00649 6.65231 -1.30675
3.3313 5.90126 -2.9467
-1.99797 7.25305 -0.771659
-0.892301 6.95859 -4.61335
0.559975 6.47477 -5.23104
0.811775 4.85111 -3.55659
-2.46413 6.27777 -4.31525
-2.19339 6.60037 -4.6172
-1.12966 5.08434 -1.18431
-1.14173 4.88309 -0.57854
0.889504 6.219 -2.47702
-0.9321 6.06556 0.731591
2.46347 7.05667 -2.39999
0.203696 6.98748 -0.138138
-1.25334 5.70275 -5.04619
0.518491 4.94012 -3.8837
-1.56333 5.43578 0.636581
-2.50534 5.11563 -1.45667
-2.29553 5.09443 -3.89961
3.19844 5.75364 -2.04866
-0.610903 5.00333 -4.27993
-2.76051 5.43929 -3.2367
-0.531671 5.97506 0.83382
2.41258 6.73971 -0.705947
-0.580217 6.07197 -1.28958
0.683167 6.73556 -1.09473
-0.0751058 5.01513 -4.86021
1.34114 7.21586 -1.18314
0.63821 6.99318 -0.203292
-0.498237 7.05351 0.117654
-3.27045 6.32574 -2.93457
-1.02248 4.99957 -4.10959
-1.69948 7.13985 -0.997499
-2.12628 5.67771 -4.42085
1.21838 7.12468 -4.70273
-0.199551 4.931 -0.827346
1.05368 6.98647 -3.93907
-0.992472 6.65984 -3.13884
-0.150143 6.9927 -4.50596
-2.39839 7.07871 -1.83681
-2.3028 4.71956 -2.80696
2.69191 6.80983 -2.64679
-0.529182 7.01557 -3.45271
-0.920448 5.96013 -2.86869
-0.93498 5.79556 -5.1826
-0.769269 6.24589 -3.18777
-1.24589 5.7729 0.705344
2.43411 6.94436 -3.34517
-1.39775 7.19096 -3.05762
-0.908206 5.36876 -5.1566
0.186954 6.39812 -5.30574
-2.19521 5.52081 0.226241
-2.07343 7.30074 -1.18047
-2.94276 5.57233 -2.88211
-2.72275 6.75435 -1.75412
-0.905252 5.23231 0.738042
