4.65461 5.28268 -5.30702
3.97463 6.53911 -19
-4.58482 2.10823 -5.63684
-4.62892 -9.99964 4.38131
1.2323 9.87113 -5.972
5.6954 5.81455 -13.5984
11.7995 5.6463 -5.65726
-2.48434 5.53756 17.292
6.81548 -9.99947 9.84987
-8.19954 -1.07014 8.05073
-6.34174 6.29603 -9.9994
-5.82342 8.15764 9.99945
2.65669 5.06317 5.93428
-4.19721 7.97777 0.219615
7.87352 3.47463 -11.7793
11.7994 1.97087 -7.81397
-8.06031 -9.99942 -5.31861
-2.4339 6.26598 -4.27225
-4.98294 -1.76203 17.1634
2.36488 -5.14842 19
11.7995 -6.29622 -4.38198
-6.3376 1.07542 -5.90372
5.67496 6.35488 -4.58957
1.4414 -9.78564 -9.99953
6.50472 9.88971 -3.71585
-8.19932 -6.64193 9.88014
5.15682 -9.88301 -4.97093
11.7996 6.12349 -0.628588
-8.19947 -3.48215 5.07508
1.84567 -6.75387 -6.01563
-0.482337 6.63189 -17.1445
-8.1995 7.93744 1.90741
7.68088 4.1482 -10.0002
8.33347 -9.99935 -9.88278
7.15544 2.52422 5.4414
11.7995 6.35754 4.75335
1.677 1.05183 19
-4.44465 -8.41945 9.99951
10.1777 5.86481 9.99942
7.26554 4.37264 18.8674
-2.37826 9.99928 4.5691
-4.02729 -8.07808 1.45613
4.7153 -6.36591 15.3847
8.49007 2.12743 15.468
4.78495 -3.094 5.223
11.7995 -0.0028688 6.161
5.6798 5.6794 -18.9998
3.63266 -6.75818 -10.1519
3.34324 -6.23269 5.82181
-8.1995 3.23641 -9.80461
7.76726 -3.65548 -17.0478
-8.19954 -7.89777 -2.21487
9.72643 -9.99957 -1.06414
2.1881 6.86485 18.9992
7.92623 3.15368 -19.0001
-1.25796 8.29216 5.16376
6.53031 -5.15711 -17.0505
-6.35189 -7.80052 9.99938
0.663381 2.79106 19.0001
-8.19924 9.84683 -6.31636
11.7994 7.60032 -6.1317
2.74077 0.805418 -5.9635
1.30204 -8.02216 5.97662
-8.19962 -1.09795 -6.08308
11.6302 -9.80369 -9.99891
-3.69777 -7.99778 -9.9995
4.27389 -6.5561 -15.4148
11.7996 -1.31765 9.8368
-3.20375 7.89162 -3.30101
-8.19951 5.91799 -7.83644
-0.569301 -6.59546 -14.5688
9.8207 -2.1508 -5.61136
7.7269 5.7876 -1.64342
7.71736 5.77661 1.6228
11.7995 -7.86177 3.73617
11.4749 9.99955 9.83141
-4.26807 -9.99962 -1.02642
3.01521 6.89663 -11.8038
7.47718 -4.10996 13.5194
-6.49148 9.99953 -4.79066
4.32774 9.78243 -9.99946
-8.19954 -8.07538 5.59997
6.98653 5.00473 -3.32457
-4.15939 3.67592 12.3524
-4.93001 -1.55597 18.9993
4.99639 6.22479 17.1222
-4.30241 -9.99949 0.716927
-8.19955 -9.88932 2.55317
-6.3342 4.45178 4.03543
-8.19951 -2.73412 -7.86847
11.7995 6.9191 2.7868
-8.19993 6.06184 1.07277
-8.19956 -8.4806 3.69207
-3.60469 2.43243 5.49104
-2.45701 -5.55964 -15.3807
11.7994 -6.08865 -0.872045
1.1007 -9.99948 9.85468
-1.00779 -6.41203 -18.8242
8.54852 -1.38849 -18.9998
4.28142 -3.10957 -19.0001
-4.70684 -2.62081 15.3436
-2.25175 3.74949 4.68273
0.206579 -9.99955 -7.92787
4.07909 6.5021 18.9999
4.14831 6.60481 11.9017
9.88432 -3.78752 -4.66146
-8.19949 -5.78172 8.27569
11.7998 0.827742 -9.88107
-4.69697 2.63127 17.0099
-4.40696 -3.24311 18.8697
-6.4872 6.3579 9.99946
-4.19497 3.62496 18.8283
-6.04965 -9.99963 -2.28079
11.628 -4.54673 -3.93527
9.52641 -5.60753 2.19662
-6.04509 4.46917 -9.99955
11.7995 0.0597418 -7.93337
-4.97061 1.80694 12.0131
-1.8741 9.86136 -4.74224
-3.26708 -4.82237 18.8778
4.40663 7.9756 -5.4146
-0.520634 9.99942 -5.79005
10.0012 9.99954 -4.78093
-4.36787 6.16907 -9.99954
-1.83112 7.96102 -4.77027
-4.82065 0.873355 5.95032
10.1038 -3.0035 9.99958
0.979034 6.96952 -11.9411
6.38131 8.36431 3.896
-3.87216 -9.99929 2.458
0.489613 4.73579 5.87933
6.38484 -8.24299 3.88916
6.37677 -6.34649 3.91656
-8.02916 9.99967 -9.76728
2.1893 -7.02721 18.8201
1.8761 7.01246 -13.6022
8.30775 -9.99969 -4.69105
-4.35356 9.99949 -5.44894
11.7994 -7.83918 -8.19002
-6.33159 2.83171 -5.29917
7.09437 4.57535 -18.8765
8.45874 1.6657 -18.9996
-4.45051 4.1614 4.32531
-8.19948 -3.55976 -9.81842
11.7995 -2.83914 7.60769
8.79302 -0.187238 15.5701
-0.728192 6.00169 -5.46176
-5.03552 1.56181 15.5098
8.9356 -9.99953 -6.52365
-8.19949 8.05372 5.93519
-8.19954 8.09892 -0.0774332
-8.19952 7.92781 3.7511
11.63 2.48353 -9.99945
0.0911726 -0.670881 -19.0001
5.03796 -6.73725 5.04544
8.31908 -2.5407 13.4006
1.84456 9.99951 8.01348
-8.19943 8.26792 8.00901
-5.04359 -1.51181 13.5987
4.93892 8.20135 5.11479
1.38719 -6.98411 -15.4366
9.81802 -5.7113 -1.90199
1.46747 -6.9886 12.0485
8.07312 -3.10619 -18.8759
-4.0131 -5.97117 1.53759
5.9982 -5.60848 -15.2428
11.7309 5.90209 1.1101
-4.13205 -3.72354 17.0746
-3.47684 -5.38015 2.9026
9.32757 9.99964 2.74002
-1.33947 -6.27141 13.6744
9.95249 3.82782 -4.64087
-8.1997 5.59302 2.67547
-6.18043 9.9996 0.276299
3.99162 1.46473 5.81888
-2.68403 2.40061 -18.9998
11.7995 -0.896738 7.99412
-1.10788 -9.99944 9.8686
0.286455 -8.4778 9.99957
-1.54982 -8.14108 -9.9995
-0.0661772 9.99961 -7.94075
0.995914 -4.15943 19
11.7995 -1.72078 -8.16687
0.691037 -4.34397 5.93129
10.2489 -1.03936 9.99964
-1.74513 -6.03466 18.8671
2.17988 6.86465 -18.9996
-8.07186 9.99931 -0.929105
2.58318 -1.12496 -5.95923
-1.00551 -4.8456 5.3123
-3.8085 -9.99938 -2.65716
-4.1563 3.68707 -15.3252
0.634926 -6.91683 13.6822
9.00791 4.91143 -3.45055
-2.79017 -5.28968 17.1071
9.89246 5.65776 -2.01917
1.84774 9.99965 -7.94333
-4.83541 1.86503 18.9999
8.48345 2.1408 -15.326
-2.62155 -5.26414 -18.9997
-8.05633 -4.77924 9.99955
4.56612 -0.671376 -5.99205
0.866927 9.86357 -9.99945
9.09148 0.739216 -10
6.78417 -9.99964 3.58471
11.6843 -9.99939 -8.2193
-8.19955 -8.11337 -0.242625
-5.97907 5.45967 2.48168
-0.621869 -6.57284 -16.4547
11.7998 -4.47206 4.22087
0.270215 6.6993 18.9996
-3.70382 4.34999 16.8832
8.51298 2.41896 -9.99986
-8.01195 1.37216 -9.9996
6.83265 -9.99966 -5.93502
9.81644 6.00591 -0.164533
-5.97582 -2.61203 5.39524
-5.92438 -5.28506 2.87187
-1.46762 0.488514 -18.9999
-8.19948 -5.24526 -8.1715
7.46014 -4.1379 -15.3193
1.55442 -6.03588 5.99229
-1.95854 -5.90455 -13.5618
11.7994 -8.09559 9.86695
-3.52845 -9.99964 6.14695
6.30468 -5.36566 16.6926
8.04315 -3.20581 -13.723
11.6786 8.27918 9.99927
-2.20009 -6.00799 -10.0001
11.5371 -0.898505 -9.99949
11.6541 -1.60652 5.78122
-5.19175 -0.186586 -18.8746
5.36181 -5.88437 -4.82189
2.16232 1.68091 6.01461
8.40614 -9.99963 4.0269
5.15854 9.8655 -4.96938
11.7998 4.42492 4.32876
8.71115 -1.12853 -13.7232
-6.09706 -9.9996 1.83013
1.41923 5.23064 -5.9828
7.70425 -9.99947 7.97629
3.881 6.6258 5.62492
-6.03325 5.8468 -1.35753
-1.56751 6.13894 18.8736
-0.319514 -9.99877 -5.82756
7.7959 9.9995 1.3785
2.13227 -9.99942 -8.0397
11.5955 0.540684 9.99951
-1.58592 -9.99972 5.10983
11.7996 9.8399 -6.24689
5.9065 -3.31051 -18.9999
-2.3368 5.65891 15.4578
2.38238 -9.99989 6.11842
-6.7132 -1.13914 -9.99974
11.7995 7.9592 -0.112796
8.59584 -1.0452 18.9997
11.7996 6.42913 9.86
-0.758427 -6.51321 -12.2427
-1.11885 9.88522 -9.99929
1.20713 9.9995 9.8709
-5.20244 -0.288308 11.8589
5.82189 5.72548 18.8661
9.80479 2.09743 -5.63671
7.8034 -8.06291 0.350178
11.6611 0.621589 -5.96711
11.7995 -7.78027 1.80307
3.7105 9.9996 -8.17947
11.6441 -8.16997 -9.99962
11.7995 8.20287 -9.86788
4.50289 -6.4705 13.5124
5.92678 9.99957 -8.36788
3.78953 -4.49229 -5.67517
11.7997 -9.84398 2.76795
-4.90153 5.08019 -3.20527
-8.19954 9.7574 -4.52941
-2.04818 6.64487 4.59812
-4.77933 -2.38619 11.8083
1.82833 -9.99962 7.98161
8.9755 -1.05814 -10
3.3673 4.72662 18.9999
0.537786 -1.77111 -5.88338
-8.19957 5.62892 -5.78513
-2.79136 5.28777 -11.8896
10.0326 -9.84846 -9.9995
-5.76791 2.93211 5.25554
11.7998 2.25585 -5.72768
-8.19949 9.84608 4.76704
-8.08713 -0.179035 5.99977
-6.40477 4.19413 -4.28963
11.7995 -5.59889 -2.55552
-4.10913 3.75726 -11.8449
7.96701 -9.99942 0.140131
-6.30254 -2.74109 -5.33631
-0.175239 8.35704 -9.99958
-8.06126 -9.99945 -1.35974
11.7995 -6.71565 -6.31656
1.5632 -4.91424 -19
-2.01774 -5.87153 -17.2749
2.47521 -0.172141 6.00205
-3.63045 4.43202 -17.0872
-0.409738 -6.53072 5.59783
1.74632 -1.11912 -19
-1.69348 -3.30057 5.02615
-6.69653 0.403839 9.99964
5.45418 -3.78696 -4.75395
-3.11097 9.99949 -3.70498
-5.99845 -7.84473 -9.99943
-2.96874 9.87446 -9.99925
7.97073 9.99953 -7.90977
7.0904 -4.58004 -18.8472
7.12436 9.99941 9.88169
6.15188 7.98388 9.99944
11.7994 5.90807 -7.82937
-4.71182 -6.27588 9.99964
-5.36199 -0.212681 -9.99961
-3.24297 -6.74281 -3.24978
-5.19546 -0.598458 15.4674
9.70345 9.99948 -6.61021
-2.28119 -5.70016 11.8921
7.82473 -3.4111 -4.92997
4.99045 -6.22903 -13.5902
9.36023 9.99935 9.88712
5.77978 6.43336 4.49394
-8.19952 0.236659 9.80795
3.93018 -6.55408 18.9998
5.77295 -1.33473 5.84603
-3.98603 -3.93635 -11.8801
-8.19952 -6.5813 6.68078
6.11467 -5.52615 14.0739
-4.63457 2.76797 -17.1237
-8.19955 -6.55156 -4.22572
-3.07315 5.04211 13.7166
-4.50432 -3.038 -17.1153
-2.94132 4.90059 18.9997
6.07743 4.12712 -4.38068
8.80014 -0.175791 17.3711
10.1877 -9.99955 -3.12379
-6.37926 -5.43481 -2.53255
-1.62675 8.09839 9.99947
-1.39323 -1.57703 -19
4.10942 -9.99953 5.74886
-6.24955 -0.687578 5.98276
-6.23628 -5.36069 9.99946
9.95264 3.37944 -9.9996
8.01996 -2.92016 19.0001
-8.19939 6.71116 -9.84416
-6.40436 -3.41812 -9.9997
-5.13777 0.991016 10.1364
6.43137 2.12282 -18.9999
-5.05278 -1.96203 -9.99997
-1.01341 6.41167 -11.8794
6.20637 -7.82052 9.9994
6.91579 6.715 -3.15613
2.92931 8.23723 5.89267
-5.20546 0.462858 17.2172
10.1079 9.99948 8.09821
-4.907 -9.99951 -9.87104
5.96361 4.27173 4.31915
11.6115 5.26939 2.89654
-4.57401 2.89569 -13.5547
6.1145 -5.53103 -11.8504
11.7996 -9.77356 9.81441
7.86574 6.38707 -9.99958
-8.19938 -8.39973 -9.84634
4.11812 -2.49386 -5.53595
-3.9021 -9.9995 -7.95527
2.54446 9.99975 6.11988
8.06053 3.17485 13.7236
7.09872 -4.57016 18.8465
5.98821 5.61627 11.8708
11.7996 9.86894 4.71335
9.81727 -0.0788704 -5.99714
-0.219393 8.22346 -5.66563
-8.09309 -3.80824 -4.66733
6.73002 -4.75094 -3.69869
3.5302 -1.15065 -19.0001
-8.19949 1.61177 5.94533
-8.19946 -7.9909 7.85803
-5.15375 0.870433 -17.0952
6.81886 -1.61448 -18.9999
-1.24502 6.30859 13.8632
7.35899 -7.71038 2.29426
-8.19952 1.74221 -7.99359
7.54429 -5.58026 -2.21263
0.425719 -6.8539 10.1452
4.98095 6.23233 -11.823
6.12471 9.99952 8.2189
-2.35432 5.6392 -10.1149
-5.19824 -0.102279 -11.8273
5.12123 3.99738 18.9998
7.48927 -9.85522 1.90576
9.55171 -7.84382 -9.99945
-8.19964 -6.11948 0.756848
8.6064 1.66156 -11.7354
11.7995 9.79055 8.13973
-8.19944 0.559551 -6.14615
10.0838 0.847692 5.95663
-4.10335 9.87116 1.0945
6.48635 2.39564 18.9999
-3.73791 9.99952 8.16006
8.19682 1.09262 -5.90187
6.7319 -4.97004 11.925
7.52908 -9.99949 -7.97976
-4.20512 -4.00592 10
6.25403 5.40858 -10.1162
-3.63861 4.41857 -10.113
-8.19962 -2.5051 -5.63043
8.51772 -2.02517 -17.2653
8.06357 8.41445 9.9995
-1.84144 4.02349 -4.77219
7.48601 9.897 -1.91544
11.7995 -6.28763 4.94753
4.82941 -4.93539 5.21309
11.7995 -4.76717 8.26314
11.7994 8.33933 -4.31742
5.15586 -9.99947 9.80503
1.53616 -6.99149 15.4213
8.02575 3.9636 4.52807
8.19507 2.85447 -13.5588
-3.77504 -4.24362 11.8339
-2.88563 -5.20616 10.1191
2.98619 -6.90225 -14.1925
3.25288 4.35623 -5.83785
1.50983 4.77977 19
8.51519 -9.99971 -2.93962
4.20025 9.99928 5.63827
6.68997 -6.64169 -3.46936
6.52615 -9.89515 -3.68753
7.67725 8.02595 1.22249
-6.2443 -4.26776 -4.2186
-5.86695 9.99953 2.26736
6.77345 -4.93812 -13.5639
-4.6161 2.8027 10.1537
9.75338 -9.99933 -8.08149
-1.9533 -3.36487 -18.9999
-8.19952 -0.509784 -7.99058
-3.42117 -4.66075 -17.1427
-4.43475 6.32539 9.99951
5.18889 -1.00565 -19.0001
7.94746 9.99931 -0.309397
1.9391 -5.00807 -6.01923
-8.06111 9.99931 1.02132
-3.98409 7.96931 -1.66062
-2.35573 7.90783 -9.99944
-3.84758 5.43297 2.57508
-8.19952 0.968078 7.82537
-1.67287 -9.84637 -4.89291
-3.51566 4.55848 -13.6164
4.88827 3.19799 -5.14584
11.7995 -8.11751 -4.36123
6.60094 9.99967 -6.39096
1.87934 3.1277 -6.0194
8.18037 2.66843 18.9998
11.7995 7.94136 -2.19473
11.6479 -9.99925 -0.596065
-8.19949 6.05709 9.82515
9.10807 -4.88478 -3.48958
2.22065 -7.25113 -10.0001
11.7994 -4.85248 -6.18163
2.18235 7.0022 11.9696
-8.06619 -9.99946 0.676779
-8.19952 -6.78727 3.63906
-4.19657 -7.9456 -0.395189
4.47402 -6.48104 -11.8622
8.52533 -1.99983 17.1324
5.00757 6.22061 13.5998
9.86717 7.881 9.9994
-2.68733 -8.28788 -3.97813
-2.15399 -5.78916 15.3835
-4.9658 1.82884 -18.881
11.7997 4.28322 9.88327
10.0763 -4.72276 3.70458
11.7995 3.07377 5.30659
-8.19952 3.2202 6.9119
8.04402 3.4539 -4.90331
-3.64052 9.99914 2.8539
3.11329 6.88106 17.1487
-6.229 -9.99964 -0.233745
-8.05254 -9.99956 6.46004
-1.94439 9.99956 -8.10068
7.59722 -7.61763 -1.55932
2.77495 -6.9291 -12.2164
9.49088 -5.49577 -9.99943
3.20783 9.99946 -5.98207
-8.07089 -4.8304 -3.55912
-8.19954 6.39813 4.85153
0.223608 -6.63518 18.9997
3.8687 6.68487 -13.5516
9.49452 2.64669 5.3845
7.88962 9.90675 -9.99956
-5.13481 0.951307 -13.5673
0.424845 0.634211 5.99363
-3.96114 -3.97411 -15.349
-4.69138 -1.79718 -5.7398
11.7994 7.64374 8.09053
-2.98488 2.92286 -5.24443
11.6014 -9.99917 -6.43017
8.49135 -2.12413 -15.4276
-4.30169 -3.45224 13.5729
-2.79506 2.51558 18.9998
3.10168 -9.83132 -9.99948
-2.40638 -9.99951 8.24971
11.7995 -9.88638 8.17534
-3.23913 -1.36178 18.9998
3.49259 -1.92592 5.777
7.85186 -6.96843 -9.99945
11.7997 -2.7021 -9.87439
-4.24507 8.02675 -9.99937
2.59517 9.76911 -9.99951
11.7995 -5.81104 -8.13896
0.826064 9.99965 6.11425
4.53627 6.45515 -15.3665
-4.18614 6.09962 -0.642437
-4.32278 9.99951 -0.623699
-0.484773 -8.40462 5.57
11.7996 6.44658 -9.86827
11.7995 -8.02796 -0.28765
0.55399 -8.23566 -5.8928
-8.19932 -9.85458 8.17308
11.7994 6.65338 -3.97617
-0.77121 1.18648 19
5.11435 2.90752 5.24341
3.36277 6.84455 -17.1275
-0.520936 -2.47358 19.0001
-8.19958 7.30029 -3.99504
11.7995 -2.88547 -6.83666
-6.17963 8.11994 -9.99932
5.23594 -6.10631 11.8345
6.19446 0.505479 19
-4.64236 9.99957 4.38667
-6.06756 9.99957 6.02042
6.6807 5.02118 17.0269
1.69623 3.48037 6.00533
0.544505 -0.561769 19.0001
-2.6241 -9.99965 -6.3238
6.16735 9.85543 -9.99939
11.7995 1.13963 8.04229
-2.89153 4.87084 3.76381
7.19574 -5.49627 2.63978
-2.38354 5.62699 10.1051
-3.40754 -4.67472 -13.6064
9.41253 -4.63657 9.99952
11.7992 -5.5762 2.69959
6.20653 5.66455 9.9999
-4.52238 -3.00028 -13.5905
2.97078 9.99951 9.85243
4.74837 -6.3492 17.2791
-1.99587 5.88438 -13.5716
10.2333 -9.99939 9.81429
6.75027 -1.30378 18.9999
-1.73852 -8.34183 9.9995
-8.19952 -4.2228 -6.55962
2.34073 -3.04959 -19.0001
3.94496 4.63953 -18.9998
-2.2183 5.74727 -17.189
8.34876 -2.46947 15.2847
8.61835 -9.9994 9.84017
8.06047 -8.18139 9.99948
2.25606 -3.01828 -6.00399
11.7995 -8.46307 -6.34393
-5.19587 0.537434 13.7405
-3.35413 0.482261 -18.9998
5.1625 6.14318 -17.1917
1.4795 6.99394 -17.1396
8.70153 1.1721 13.8419
-8.04546 9.99969 6.57981
11.7995 8.24851 3.99215
0.292096 2.30447 5.81314
11.7995 8.1715 6.09087
9.67253 -9.99945 7.64378
-8.00678 9.71676 9.99978
0.52421 -3.83101 -5.87966
-7.81475 -9.99957 9.83849
5.67538 -5.63466 -18.9997
2.75021 0.798509 -19
4.10141 -6.6097 -18.8465
11.6297 9.99918 2.79222
8.89393 -0.439772 10.0002
10.1229 2.88202 9.99954
-8.19963 2.17438 -5.79544
0.00355486 4.02306 -5.7216
-4.87386 -2.10457 -15.3248
5.87775 5.68993 15.3737
-8.19955 -5.78858 5.15975
-8.19949 -8.36664 9.85344
7.94566 -5.98323 -0.564296
6.49634 -8.19712 -9.99936
-2.88987 5.20534 -15.3475
7.84609 -5.90489 1.07606
-3.3223 -7.63482 3.11761
-4.67061 2.98402 -10
-1.41018 -9.99962 6.78771
-8.07076 -4.7263 3.71669
6.06671 -5.71532 9.9998
-7.98206 -1.4062 9.99942
10.1071 9.99951 4.4712
11.6776 9.99921 0.90901
-1.9367 -6.26086 -4.68914
3.25951 6.86138 10.1463
8.4445 2.24468 11.954
8.17155 9.9995 8.12729
4.70005 -1.26796 19.0001
5.72426 -7.91341 -4.55008
-4.94432 1.88556 -15.3203
3.17499 -9.99948 9.83048
-5.663 -9.99939 9.87026
-1.04605 -2.74405 -5.32853
3.00338 -6.90169 -16.8354
4.89383 -8.39204 5.13935
-2.99433 5.11847 11.8264
1.00383 -6.96466 -13.4739
-8.19869 -9.81774 -7.60946
-8.04548 9.99962 -8.02207
-5.1189 -1.05756 -13.6097
2.61333 6.94967 -15.3134
8.77805 -0.793863 13.7459
2.79843 -6.92578 14.1393
-6.60995 5.24784 -2.91647
7.4561 4.1425 15.2483
9.74473 -9.99954 5.53408
9.85075 -5.99341 0.184622
8.09652 -1.33426 -5.84546
-5.07186 0.0744349 18.9997
-8.19906 8.38184 -9.85899
-8.19952 1.97904 9.8858
6.21303 -2.11216 -5.65213
8.61762 1.58671 -17.1538
-3.93111 9.99908 -2.22719
-8.03755 -9.99831 -9.64859
11.6232 9.99937 6.43523
-4.72452 2.56883 13.9088
-8.06791 9.9994 2.82
-4.80068 -5.03433 -3.27382
0.33648 6.85007 -18.8771
-8.19948 4.60447 4.07799
1.05421 6.96907 17.1572
11.7995 -7.74931 -2.40003
6.66543 5.03166 -11.8615
9.71668 5.43897 -9.99948
-8.1996 8.0438 -2.15379
-8.19946 4.92577 -9.83535
-8.19963 6.12676 -0.675904
-0.321452 9.99953 8.04496
7.60437 3.92607 -15.3741
3.46496 3.30889 5.79995
-1.42576 6.0739 -19
8.12638 9.99964 4.53688
-4.44043 -1.22079 5.87502
11.7996 9.90482 -4.31877
-6.26737 5.99475 0.552443
-0.164325 6.72647 -13.6644
0.466329 -9.99982 6.01644
-6.55602 1.37421 5.8358
11.7995 4.01435 -6.68389
-8.19954 -3.65238 8.48385
-3.55802 8.06531 9.99935
5.61463 9.99963 6.53727
7.25973 8.17595 -2.49898
-8.01316 9.99967 8.28817
0.741971 1.76831 -5.92933
2.63952 -0.857067 19.0001
-8.1995 6.56653 7.45224
11.7994 -8.11315 5.83267
9.64007 9.80587 -9.99966
-0.368443 -6.67579 15.438
11.7997 -9.84842 1.07132
-6.5304 2.52148 -9.99961
11.6973 2.28074 9.99945
-8.05124 -1.82291 5.73785
-1.29861 3.94262 -19
-8.1995 -8.35278 -4.15373
-3.95386 -3.77441 -18.9996
-3.87977 -3.02246 5.20439
1.06356 7.07511 -5.95947
-1.30645 3.19584 19
7.94226 -6.27642 9.99954
-5.34483 -0.953836 10.0004
11.7995 3.80681 -8.41671
7.94514 6.00507 0.0300125
-4.19856 3.60521 -18.8741
-6.43353 -9.99958 -6.1844
-4.45201 -9.99945 7.9366
-3.02803 -9.99989 -3.99839
-3.80168 -8.08234 -2.13882
3.68916 -6.42005 -5.71234
11.7995 3.11452 7.91254
-2.97606 4.94407 -18.9991
-1.14289 -7.91339 -5.22458
11.7991 -3.09915 5.337
7.17363 4.48405 -13.5969
6.63567 -9.99939 -9.82445
-3.20683 -1.51584 -18.9999
7.09441 7.26285 2.84432
11.7991 -3.15867 -5.22633
11.7998 1.71594 5.95433
8.23826 0.872662 5.95337
-1.20297 5.13701 5.19529
-8.19946 -8.16884 -6.15012
5.68003 7.95726 -9.99948
11.6308 -4.62705 -9.99934
8.56156 0.849005 18.9998
-5.89975 -9.99957 5.98464
4.95776 -6.24515 -17.1521
10.0421 -3.2298 5.06265
-0.892719 6.45984 17.0428
3.64809 2.26807 -5.72757
1.54775 -9.99969 -6.15172
-0.417168 -4.68442 -18.9999
-8.19963 -5.79372 -2.19756
4.04788 6.62716 15.3621
-8.0426 -9.99944 4.68801
-4.93507 1.91757 -11.8534
9.69297 -1.08452 5.90076
11.7994 -8.05 7.92634
2.52747 -8.35442 -5.95494
6.71319 4.98878 -17.1155
-0.973124 2.47245 -5.47799
-8.03095 -5.58914 2.21682
-4.4155 -3.6064 -10.0002
0.975626 -6.9679 -11.6182
-8.19966 4.90168 -3.80101
9.88846 9.99946 -8.37511
-8.09489 -2.94623 9.99953
6.27932 -4.35271 4.12848
-1.25238 6.30893 -15.3786
-0.220867 6.65605 5.65478
5.55231 -9.99957 -7.45763
3.88769 -9.99963 7.89608
4.29812 -8.16468 -5.47323
7.58051 -9.99966 5.93814
8.05862 6.45685 9.99958
-0.478712 9.80888 9.99944
5.77954 -5.75918 18.8566
8.16806 2.93831 10.1442
7.26134 -4.37594 15.3111
-0.122645 -9.80307 -9.99947
11.7995 6.31615 6.59403
3.17083 6.43642 -5.85298
11.6725 -1.17492 -5.88632
8.7948 0.196486 -15.221
-3.88201 9.99961 6.18995
0.0550498 -6.17958 -5.73653
4.57652 4.91275 5.33677
5.94839 9.99953 4.55725
1.43419 -2.35833 19.0001
11.7997 -2.99682 9.80308
-4.26149 5.90083 1.05723
8.92317 1.20182 9.99995
8.27713 -4.39088 4.09092
8.32221 9.99964 -3.60403
-3.9704 -5.87959 -1.74427
0.934628 -1.13373 5.96879
-2.07548 9.99958 7.24775
11.5414 9.82196 -9.99802
-2.29257 -6.24769 4.38919
5.05694 9.99947 9.8712
-0.341603 -2.44226 5.6295
2.42363 8.30723 -5.9772
-8.19954 7.76022 -5.89834
0.638329 -6.75952 -18.9992
2.75719 2.76699 18.9999
-4.5148 3.85117 -4.61689
-5.99038 -9.99942 -7.99406
-4.37228 -3.65347 -4.75593
9.7479 -9.99953 1.12025
6.25418 5.41242 -15.3619
4.34646 -8.40565 9.99947
-8.01802 3.19146 5.08051
11.7997 -9.82686 -2.34605
0.321027 4.85954 -19
-1.04178 -6.39611 17.1906
-3.22881 -9.86696 -9.99946
-8.19951 4.84503 8.21871
-6.53605 2.63259 9.99972
-3.05801 -7.22009 9.99962
3.28836 -2.9812 19.0001
-2.3026 -3.05808 19
0.313403 -2.85202 -19
-2.28893 -3.9733 -4.51323
7.24105 4.40219 10.138
11.7995 -4.66881 6.30939
-2.03712 -8.08454 4.61154
2.36357 -8.52882 9.99962
-0.830081 0.662828 -5.99507
3.01279 6.89785 13.7052
-8.1995 -6.07302 -6.11744
6.6963 -5.25211 -9.99979
-6.35662 -9.99961 3.73482
6.89385 5.24303 3.16898
-8.19964 5.76981 -2.27668
11.7995 8.25215 1.74152
11.7997 9.84724 -0.839853
8.60275 1.66301 17.2147
4.39193 -0.291731 5.99337
-2.83034 8.4184 3.81526
-8.19946 -7.47796 -7.99328
-8.1995 -1.90219 -9.82895
-2.67787 -4.34606 4.13259
-6.49016 -4.0807 4.40666
6.05373 8.17283 -4.23628
8.96192 5.09745 3.16245
3.53859 -9.99934 -5.9546
-3.35889 -9.9994 9.87795
4.99981 6.38246 -9.99977
-6.50799 9.99955 4.08135
9.4373 9.99958 6.303
5.63106 -9.99934 4.90526
-8.19954 5.00944 6.1622
9.92188 -8.2377 9.99933
3.32556 -6.85281 11.9783
6.71003 4.99523 13.7066
6.08132 0.879791 5.95101
5.28596 3.43517 -18.9998
-3.69666 4.35489 10.1337
7.51519 -4.05769 -11.8889
-4.68379 -4.31259 4.16895
8.80366 -0.349754 -16.8978
11.6022 4.81113 -3.57554
-3.05925 -4.99495 -3.5159
4.62973 2.20043 18.9999
11.7997 -9.87278 -4.35557
7.76095 7.95591 -0.717435
-4.88031 -2.0853 -11.8295
2.17768 4.84611 -19
-1.01136 3.08107 5.30774
0.900984 1.00837 -19
4.33804 -8.25803 -9.99955
-8.03084 -6.71894 -9.99957
8.79104 -0.350503 -11.8358
7.41917 9.99965 6.31165
-1.68627 -9.99949 -9.84636
-2.90452 -2.45243 -5.47368
0.956234 -0.0610502 -5.99221
9.82287 9.99955 -2.74905
-0.93125 -4.76015 -5.35474
3.1727 -8.07252 5.8467
-8.19954 2.86861 8.50223
-1.72028 -9.99954 -7.94504
8.79128 0.416784 11.973
-5.83653 4.55228 9.99962
-8.03278 9.99931 -2.87442
-0.588585 2.23731 -19
11.6085 -4.69993 9.99936
3.86637 0.622334 19
4.99246 -9.99942 -9.83203
-8.19954 3.61393 -5.0461
1.7467 6.58525 6.0076
-5.79832 9.99945 7.89835
-4.3352 -5.99713 -0.109812
2.35395 -6.98095 10.1432
9.17177 4.56147 9.9996
-4.49884 9.99943 9.88335
-4.88314 -2.08273 -18.8572
-8.02635 -9.99941 -3.30858
9.89927 -9.99949 3.11559
-8.19957 -4.55248 6.71546
11.686 9.99905 -8.10459
11.7994 7.98744 -7.96014
-2.77266 -9.84051 3.87624
7.69032 -3.77965 17.0786
8.74704 0.938194 -13.4912
-0.130281 -9.99955 8.1653
3.95119 8.40426 9.99954
11.7994 -6.41528 7.26034
0.340945 7.13759 9.99988
-4.06945 9.99952 -7.86201
4.84108 6.47378 9.99969
-8.19962 -2.65682 7.154
7.54866 -0.869093 5.96025
-4.47606 -9.99959 -5.81472
11.6519 -9.99924 6.45853
1.9548 7.01407 15.3723
8.01276 9.99965 -5.47346
6.63452 2.24853 -5.5806
-1.0884 -0.536047 5.99534
11.6612 -5.92335 0.954135
7.91731 3.40855 -17.1424
9.93523 -6.41707 9.9994
7.75944 8.21016 -9.99954
-6.0563 9.99951 -6.5844
-3.02826 -5.08623 13.5771
-6.10526 -5.96843 -0.83574
8.45773 -2.56128 5.41863
-0.80244 -4.57177 19
-1.51414 6.17512 12.0526
0.923964 -6.95861 17.2041
11.6798 9.99918 -2.56611
-2.91887 4.79376 -3.71196
-2.49965 -1.7332 5.75152
4.8381 9.99968 -6.79174
-0.818155 9.99904 5.57086
11.6605 -9.99921 4.58019
-1.1239 6.52529 -10
-8.19948 7.8645 9.87995
-5.36393 9.99954 -3.49748
-3.03533 0.274899 5.99497
3.02973 -6.89188 16.6689
-6.39465 -0.825244 -5.96384
-8.19955 3.85114 -7.47652
-3.64566 -4.41758 15.32
11.7996 -6.41907 9.80114
7.51142 -4.26458 10.0004
11.7996 5.75548 -2.20276
-8.06575 -5.96951 -0.687632
-2.65138 9.99969 -6.42003
-0.13513 6.73008 15.3889
-1.24256 -0.995037 -5.92912
-8.04117 -5.09235 -9.99948
-3.74568 5.77232 -2.30101
5.67649 -3.11109 19
10.146 -9.99952 -5.13461
1.8368 7.3111 9.99983
-4.0302 3.87161 15.0785
9.98743 -3.20114 -9.99955
-5.96778 9.99943 -8.26988
11.7996 -3.92294 -8.24479
11.7996 5.29833 8.25276
6.97398 -8.41348 -3.04595
7.59806 -9.85428 -1.58903
-3.03859 -0.677702 -5.99674
-4.61554 0.26795 -5.9972
11.7997 4.62335 -9.89574
9.81091 5.7374 1.75688
1.81797 -2.77974 6.01129
-2.40047 9.9995 9.82153
3.58737 -4.86591 -19
11.6895 3.67596 -4.75928
0.665499 6.92541 -15.3886
-6.07217 -5.48194 -9.99962
-1.47646 -0.704698 18.9999
-3.2561 6.7883 3.22809
-6.53538 -9.99948 -9.88397
3.905 -9.99953 -8.05369
0.329943 6.8431 -10.1572
7.88826 3.45744 17.007
4.69754 1.09013 -19
-4.42095 -6.2828 -9.99971
-8.19951 -0.109564 -9.86188
-4.87471 -2.49313 10.0001
8.3913 -2.37036 10.1041
-8.19958 -7.89836 1.75884
9.87369 9.99953 0.928985
7.46591 4.13491 12.031
0.969438 -6.95979 -17.3052
0.271029 6.82862 11.8576
8.79636 0.121556 -18.8468
-1.15653 6.46583 10.0004
7.94132 -3.35837 11.6808
3.26921 2.73694 -19
3.94969 9.99951 7.90041
7.75335 -4.09093 -10
2.43869 -6.97968 -18.8672
-2.6811 1.13383 -5.89428
8.28945 -2.6227 -10.1473
-8.19944 7.95815 -7.86428
-6.38545 -9.99942 7.99378
3.50411 7.09621 -9.9999
8.43864 -2.25786 -12.0102
-0.387802 4.68768 18.9999
-0.515839 -6.61777 11.9363
-1.65897 1.47586 5.81187
-3.32391 -4.76928 -10.1324
-5.19829 -0.0767857 -15.3234
5.02304 1.11173 -5.90113
5.80302 -9.99961 7.36812
-4.72199 9.8794 -9.99936
0.735671 8.29763 5.92636
-6.4135 -3.16658 9.99962
5.32719 -6.27116 -10.0002
0.827294 6.95354 13.6365
-5.2674 1.23531 -9.99951
-1.32973 -6.26274 10.1137
6.59811 -0.0377379 -5.9951
-3.85327 7.97484 2.01059
-8.02692 4.13941 9.99959
-3.04231 0.655646 18.9998
8.64627 -1.44814 11.782
9.82147 7.60387 -9.99946
4.34702 -4.55346 19
-6.19873 9.99961 -1.77809
11.7995 4.4705 6.41914
4.30935 -6.66235 10.0001
3.00519 -4.2483 5.87724
-5.72416 -9.9996 -4.18356
-6.4849 9.99944 -9.88959
-5.10738 -1.11909 -17.0608
-6.12845 -5.90308 1.06429
6.7633 0.309659 -18.9999
9.82509 9.99952 -0.985416
-6.33949 9.99949 9.85112
-0.719302 -6.53431 -10.1768
7.07766 9.83989 2.85168
10.1039 4.21612 4.26686
1.26556 2.98489 -19.0001
0.64854 -7.24893 -9.99986
-2.53593 -5.49483 -11.8054
11.615 -6.44549 -9.99931
1.8694 7.25897 -9.99993
6.79434 -2.96008 5.22048
