-0.58171 0.221118 0.652365
0.0165508 -0.733878 -0.258936
-0.193282 0.048901 0.173551
0.7372 0.0656735 -0.1536
0.45631 -0.647501 -0.324287
-0.895377 -0.304782 0.0224615
0.122961 0.451226 -0.636197
0.9047 -0.215445 -0.508276
-0.610084 0.199422 -0.072562
-0.250331 -0.603994 -0.970767
-0.922646 -0.219652 0.444468
-0.646441 0.0791012 0.219402
0.193863 0.446763 -0.60437
-0.612869 -0.527627 0.0203006
-0.123788 0.0424506 0.588054
-0.42886 -0.601396 -0.237941
-0.280317 -0.0744726 0.727166
-0.707964 0.0562573 -0.502637
-0.255427 -0.184773 -0.982554
0.0929537 0.215073 0.0570597
0.740029 0.144264 -0.332273
0.268378 -0.166681 -0.997551
-0.806465 0.01483 0.33862
-0.644187 0.724871 0.740886
-0.0975505 0.0853297 -0.92894
0.242921 -0.12707 0.269062
-0.524501 0.0179491 -0.708965
-0.640335 0.741505 0.867551
0.591934 0.215646 -0.718287
-0.376391 0.32399 -0.971533
0.344211 -0.660106 -0.775677
0.645462 -0.538401 -0.278879
-0.846092 -0.0838045 -0.453952
-0.101837 -0.469839 0.0485726
-0.864822 -0.361179 -0.00215232
0.666933 -0.4897 -0.633492
0.684008 -0.364253 -0.882751
-0.542086 -0.147995 0.609028
0.636583 -0.538495 -0.463241
-0.910463 -0.0787124 -0.208605
-0.442582 0.095272 0.186655
-0.345778 -0.34435 0.176371
-0.0262445 0.496454 -0.483916
-0.552926 -0.505494 -0.803398
-0.761055 -0.539892 -0.222367
-0.495019 -0.206493 0.600096
0.755358 -0.0489645 -0.926804
-0.101791 -0.547451 -0.628144
0.335331 0.418948 -0.411493
-0.71565 -0.384286 -0.536619
-0.900953 -0.247571 0.0102315
-0.546188 -0.0114423 -0.645121
0.639442 -0.00292459 0.0614437
-0.252388 -0.609775 -0.900928
-0.685987 -0.124163 -0.845739
-0.955288 -0.470618 0.0953973
0.0885834 0.339315 -0.868752
0.275899 0.264758 -0.991292
0.601619 0.155945 -0.0351088
0.621907 -0.327575 0.0776891
-0.321757 0.0781292 0.208133
0.468925 -0.620396 -0.636198
0.745592 0.107273 -0.41271
-0.289637 -0.034862 0.239049
-0.897428 -0.299362 -0.0397728
-0.134608 0.387262 -0.678445
-0.618408 0.669637 0.898266
-0.45011 -0.617851 -0.314143
0.800682 -0.0246697 -0.313943
0.570138 -0.574638 -0.482709
-0.50429 0.0676234 -0.671935
0.10342 -0.621594 -0.831156
0.447551 0.364345 -0.450131
-0.806027 0.412706 0.760972
-0.770341 0.0499995 -0.471977
-0.00679067 0.453833 -0.668118
-0.914475 -0.278467 0.563751
-0.927745 -0.505468 0.302403
0.628024 -0.188725 0.0947876
-0.591119 0.436418 0.62266
0.799196 -0.386455 -0.800372
-0.207997 0.310982 -0.263481
-0.278503 -0.540215 -0.667082
-0.67615 0.659516 0.938251
-0.0880243 -0.0519133 0.202252
0.738773 0.0135896 -0.102671
-0.170861 0.370338 -0.870073
0.704712 -0.258143 -0.0156945
-0.74763 -0.724588 0.194271
-0.752175 0.0402186 0.37533
-0.538497 -0.430263 -0.803024
-0.473751 -0.0514166 -0.985707
0.56539 -0.55488 -0.545242
-0.0535569 0.155029 0.802653
0.0433968 0.232133 0.0266042
-0.398211 -0.189976 0.378189
0.724587 -0.0405663 -0.0498895
0.617593 -0.33978 -0.921792
-0.765711 0.196793 0.709988
-0.207 0.374109 -0.497432
-0.701033 0.0754488 0.163754
0.519679 0.334287 -0.441288
0.886644 -0.190309 -0.854781
-0.721808 0.444151 0.602672
0.349573 -0.705595 -0.59025
0.0178431 -0.507721 0.0592361
-0.219635 -0.0696944 0.223239
0.111791 0.110177 -0.927476
-0.358704 -0.585 -0.241301
0.0584197 0.487042 -0.464708
-0.396221 -0.0849228 0.317971
0.670224 0.186745 -0.601601
0.0452964 -0.627867 -0.820394
-0.388504 -0.455477 -0.977985
-0.840981 0.0305631 -0.072303
-0.760149 0.227998 0.544292
-0.452713 0.106042 -0.829054
0.118773 0.180522 0.112029
-0.595152 0.745826 0.901592
-0.211402 -0.523689 -0.621357
-0.81219 0.0764371 -0.110894
-0.514077 -0.438698 -0.976697
-0.330998 -0.105791 0.684624
-0.463072 -0.355015 0.561022
-0.888914 -0.428112 0.0504469
0.635076 0.206017 -0.665747
-0.0776084 0.297583 -0.101862
0.716419 0.162381 -0.273264
0.504676 -0.480258 0.00220719
-0.336179 0.245833 -0.357944
0.215759 -0.66077 -0.807573
-0.34827 0.135795 -0.795698
0.246031 -0.0569311 0.262373
-0.486297 -0.544931 0.191343
0.314357 -0.0791364 0.263061
-0.694545 0.330079 0.800159
0.176774 -0.0388488 -0.938199
-0.901652 -0.181494 -0.377212
0.348799 -0.72199 -0.345245
-0.139503 -0.24514 0.194085
0.540413 0.225538 -0.824236
-0.710724 -0.153875 0.610693
-0.0218208 -0.0908101 0.224437
0.0319854 0.101931 0.675939
0.313814 0.103712 0.186409
-0.306084 -0.116143 0.587924
-0.00752655 0.2817 0.822342
-0.225234 -0.360851 -0.98031
-0.586191 0.670632 0.752884
0.349376 0.386082 -0.730996
-0.857503 -0.568493 0.0209167
-0.161337 -0.0233792 0.189289
0.693678 0.13564 -0.147519
0.256662 0.35357 -0.172588
-0.0479365 -0.370057 -0.935074
-0.133281 0.46139 -0.289032
0.219109 -0.704848 -0.195557
-0.290855 -0.0609168 0.514691
0.318106 0.394199 -0.655123
-0.660694 -0.586934 -0.32693
0.235265 0.431007 -0.547844
-0.116708 0.0462804 0.169838
-0.948788 -0.158932 0.070657
0.564974 0.269911 -0.224682
-0.215983 -0.418023 0.113699
0.410587 -0.679152 -0.361404
-0.973469 -0.222324 0.274195
-0.688641 -0.528747 -0.426262
-0.684889 0.0257382 -0.54902
0.477847 -0.582323 -0.771663
-0.747231 0.176725 0.57812
-0.0638731 -0.600204 -0.618625
-0.804427 0.00570341 0.419115
0.375893 0.397282 -0.460695
-0.313212 0.18176 -0.540561
-0.842206 -0.494391 0.0159533
0.286148 -0.535857 -0.994532
0.372801 -0.295798 0.241675
-0.435374 0.163331 -0.527236
-0.941755 -0.276905 0.390476
-0.301635 -0.570146 -0.199669
-0.144598 -0.512241 -0.580999
-0.0630524 -0.67281 -0.493959
-0.428636 -0.0539823 0.380076
-0.0644756 0.482422 -0.546758
-0.0663283 0.00960484 0.644805
-0.911637 -0.263462 -0.307555
0.0242853 -0.687587 -0.65658
-0.545058 -0.588562 -0.14784
0.374898 -0.703564 -0.406694
-0.890756 -0.131302 0.0138536
-0.0125846 0.193877 0.849256
-0.0218238 -0.216739 -0.9377
-0.823073 -0.665943 0.362325
-0.200796 -0.285313 0.196903
-0.23532 0.202368 -0.929594
-0.49031 0.21378 -0.431966
-0.472604 -0.398599 -0.629633
0.138004 0.422742 -0.707492
0.2245 -0.498078 0.115884
-0.0844337 -0.423353 0.115189
-0.328467 0.36616 -0.9377
-0.881504 -0.0628621 -0.347952
0.0929994 0.135987 0.151088
0.142171 0.301481 -0.130281
0.00797513 0.255112 -0.0140432
-0.672729 0.170466 -0.123144
-0.528128 -0.409998 0.584136
0.402622 -0.628099 -0.184825
0.265464 -0.245836 -0.994287
-0.238005 0.380709 -0.895091
0.212735 -0.599402 -0.86066
-0.406728 -0.118249 0.385822
0.156894 -0.752231 -0.403293
-0.957388 -0.373916 0.300134
0.0138721 0.201183 -0.929476
-0.866976 -0.661113 0.312704
-0.668585 -0.648901 0.399162
0.217673 0.409703 -0.198403
0.0131604 -0.69604 -0.20498
-0.741481 0.40017 0.535696
0.435864 0.171627 0.0876684
0.281783 -0.685876 -0.770797
-0.297947 -0.571479 -0.462401
-0.8969 -0.1907 0.0078
-0.222315 4.45535e-05 -0.931851
0.0020232 0.389489 -0.804197
0.216248 -0.446241 -0.9347
0.0705728 -0.657408 -0.163755
-0.501269 0.113596 -0.880885
-0.384409 0.261905 -0.189489
-0.84464 -0.161892 0.580995
-0.638907 0.0670534 0.416677
0.918516 -0.23812 -0.814584
-0.0344949 0.0626019 -0.929252
-0.741035 -0.237979 0.614197
0.573424 0.29923 -0.451725
0.810435 -0.239029 -0.450137
-0.620684 0.00525575 -0.98309
0.553136 0.0962505 0.0743607
-0.867908 -0.0762473 0.0228783
0.646012 0.0945576 -0.858742
-0.903543 -0.354407 0.552956
0.727072 -0.31206 -0.0762929
-0.443858 -0.192135 -0.973762
-0.68841 0.0437331 -0.971625
-0.0726272 -0.706094 -0.880356
0.257015 -0.201802 0.270144
-0.22673 0.118189 0.131239
-0.6816 -0.0258797 0.624148
-0.356597 -0.567763 -0.495905
0.393081 0.292453 -0.117671
-0.61495 -0.535923 -0.469462
-0.101427 0.487595 -0.490104
0.139835 -0.318548 -0.937018
-0.897603 -0.0207704 -0.175298
0.552174 0.148997 0.0170998
-0.608988 -0.112778 -0.643511
-0.698463 -0.533912 -0.080841
0.80714 -0.333898 -0.849282
0.655493 0.107461 -0.75713
-0.262287 -0.257912 0.221162
-0.625634 0.551193 0.821657
-0.247087 0.148048 -0.64457
-0.442595 0.113091 -0.682865
0.789714 -0.306475 -0.461588
-0.940649 -0.373951 0.491152
0.0526068 0.329577 0.97082
-0.664651 0.00493056 -0.856341
0.98517 -0.227129 -0.602326
0.310744 -0.330944 0.241894
-0.453978 -0.222448 -0.710782
0.482423 -0.525752 -0.812198
-0.476333 -0.410607 0.549723
0.26879 0.424385 -0.59905
0.207458 -0.734091 -0.630221
0.104344 -0.177009 0.255659
-0.883666 -0.391671 -0.280075
0.468006 0.3328 -0.766734
-0.569424 0.0985286 -0.907754
0.586347 -0.499898 -0.745975
-0.410218 -0.00211394 0.490056
-0.0842106 0.45702 -0.593817
0.273225 0.203712 -0.989581
-0.173814 0.219867 -0.927823
0.0259606 0.0485533 -0.930001
0.530986 0.282981 -0.719211
-0.958889 -0.227254 0.0618943
0.142832 0.375394 -0.832939
0.425649 -0.565273 -0.899685
-0.578228 0.0998834 -0.969986
-0.489469 -0.474176 0.330033
0.953762 -0.295705 -0.627734
-0.765254 0.367289 0.800696
0.694409 -0.374981 -0.0847651
-0.608351 -0.00223358 -0.824314
-0.0792371 0.496569 -0.42298
-0.465415 -0.252785 -0.820885
-0.51523 -0.080057 0.637381
-0.212712 0.413241 -0.422878
-0.174289 -0.339082 -0.94196
-0.310696 0.19857 -0.978048
0.480322 -0.00390069 0.185925
0.824706 -0.128255 -0.499567
-0.153565 0.405753 -0.242759
-0.448085 -0.432327 -0.697652
-0.303416 0.21129 -0.465194
-0.655099 -0.466478 -0.959306
0.756744 0.103969 -0.27781
-0.491553 -0.340066 -0.809602
-0.174017 -0.488781 0.0176532
-0.70084 0.254417 0.770731
-0.734648 0.339094 0.591477
0.131596 -0.754313 -0.50064
-0.747348 0.0405239 0.456436
-0.0779513 0.349926 -0.965859
-0.8782 -0.142004 0.537173
0.468258 0.354932 -0.391281
0.0579493 -0.295714 -0.937703
-0.637977 -0.604456 -0.262172
-0.80552 -0.686865 0.162345
-0.194884 -0.408832 -0.940666
-0.426976 0.190747 -0.462487
-0.807716 0.469334 0.791271
0.668169 -0.146125 0.0468374
0.838683 0.0908428 -0.715012
-0.794766 -0.729715 0.234634
0.162941 -0.462491 -0.935536
-0.498925 0.172508 -0.498038
-0.914551 -0.1537 -0.0568307
-0.140136 0.199506 0.0445104
-0.707047 0.267424 0.493329
-0.152639 -0.386297 0.126484
-0.836609 -0.0903223 0.550536
-0.907749 -0.12616 -0.329275
0.141024 0.40399 -0.77527
-0.68243 0.104531 0.0352416
-0.725831 0.63672 0.868783
0.13454 0.461107 -0.259373
-0.0145461 -0.0895028 -0.934933
-0.110333 0.106579 0.832741
0.34357 0.348964 -0.818226
0.453588 0.0617205 0.165583
-0.578818 -0.63239 0.124534
-0.657817 0.113037 -0.50106
-0.663798 -0.570424 -0.133915
-0.385659 0.266061 -0.883225
-0.326771 -0.402687 0.128311
0.0666544 -0.568501 -0.985728
0.306634 0.411704 -0.548428
-0.820589 0.0766951 -0.346298
0.402235 -0.235559 0.243229
0.411073 -0.642575 -0.670048
0.202904 -0.0768448 -0.983376
-0.588105 0.368584 0.585914
-0.726637 -0.0345772 -0.900997
-0.122147 0.363676 -0.744018
-0.207318 0.223961 -0.000398056
0.66688 -0.294536 0.0371702
0.154314 0.0385537 -0.929521
0.346586 -0.569405 -0.981192
-0.67052 -0.498673 0.559394
-0.598262 0.726053 0.717121
-0.52592 -0.128953 -0.733554
0.642923 0.254065 -0.352375
-0.592493 0.0361805 0.562377
-0.209173 -0.596436 -0.248702
-0.612092 0.457115 0.772299
0.274595 -0.745523 -0.343624
-0.546928 0.163085 0.0664043
0.41924 -0.16352 0.239023
-0.859171 -0.152567 -0.439752
0.861215 -0.333361 -0.796958
0.178251 -0.735903 -0.550696
0.039445 0.177739 0.105773
0.809081 -0.201393 -0.379608
-0.785009 0.120256 -0.149121
-0.673104 -0.500652 -0.482448
0.801512 -0.27537 -0.387378
0.428527 -0.449493 0.112425
-0.777306 0.0216565 0.063955
-0.219671 -0.596136 -0.835374
-0.112469 0.224726 -0.934108
-0.502236 0.127548 0.133738
-0.17362 0.437384 -0.486841
0.399752 -0.412348 0.171736
-0.919224 -0.0687023 -0.285046
0.472782 0.363275 -0.573608
-0.575246 0.383491 0.66333
-0.58326 -0.543191 0.409256
-0.656214 0.0832179 0.100762
-0.818568 -0.142223 -0.496974
0.449464 0.338057 -0.26421
-0.135622 -0.139866 -0.938132
-0.90085 -0.255981 -0.375767
0.408064 -0.606554 -0.118247
-0.785177 -0.504722 -0.157809
0.482308 -0.521689 -0.941622
0.0386523 -0.0282531 -0.933322
0.167487 -0.69935 -0.694759
-0.912542 -0.403196 0.368569
0.418706 -0.270791 -0.994013
-0.934775 -0.156085 -0.113955
-0.830579 -0.212825 -0.491514
-0.373726 -0.377617 -0.984739
-0.136384 -0.532155 -0.956857
0.146404 -0.61424 -0.844046
0.533325 0.167613 -0.851041
-0.780133 0.0865744 -0.404343
-0.887034 -0.32985 -0.330115
0.542241 0.197281 -0.0455188
-0.650205 0.556218 0.573291
-0.543929 -0.580873 0.171058
-0.699323 0.591267 0.592139
-0.106172 -0.656807 -0.284114
-0.859586 -0.404679 -0.0696473
0.422293 0.123781 0.140034
-0.543036 -0.266768 0.607322
-0.499081 -0.183973 -0.789033
-0.740649 0.256165 0.607418
-0.751746 0.0552967 0.304213
-0.376524 0.168988 -0.573175
0.524317 -0.370946 0.13895
-0.469844 -0.278171 0.579856
0.107905 -0.7499 -0.451265
0.0425452 -0.748574 -0.325933
-0.671056 -0.52364 -0.00606193
-0.599244 -0.580456 -0.898148
-0.238224 0.343604 -0.439428
-0.493047 0.0990272 -0.610802
-0.103814 -0.597944 -0.215639
0.112798 0.486683 -0.412173
0.411833 -0.550336 -0.061656
0.917022 -0.300189 -0.7675
-0.170976 -0.0130628 0.58052
-0.459608 -0.363695 0.487353
0.182207 0.146193 0.142499
-0.772775 0.051037 0.139225
0.639603 -0.451233 -0.752542
0.809048 -0.0832299 -0.344771
0.61659 0.109136 -0.795426
0.634078 -0.498205 -0.689005
-0.212314 -0.66268 -0.896986
-0.798381 -0.364051 0.593345
-0.195903 0.29321 -0.63799
0.41043 -0.331124 -0.994465
-0.570227 -0.0841193 0.594176
-0.317375 0.14828 -0.613222
0.652779 -0.437195 -0.0937922
0.717701 -0.173388 -0.948701
0.214857 0.178688 -0.937721
-0.436193 0.208178 0.0261425
0.31247 0.250342 0.0283389
0.627747 0.255224 -0.425026
-0.460659 -0.493688 0.25316
0.0686799 -0.0962402 -0.935122
0.359704 0.0295016 -0.996857
-0.20579 -0.353055 0.163822
-0.638146 0.364151 0.521678
0.145316 -0.499531 0.109304
-0.0873511 -0.0746105 -0.9339
0.347854 0.283654 -0.974947
-0.803994 -0.62676 0.0275919
-0.956568 -0.157415 0.290726
-0.830119 0.0847026 -0.183831
0.756948 -0.377447 -0.455165
-0.753712 0.303294 0.538673
-0.955606 -0.574275 0.214639
-0.858068 -0.520449 0.486698
0.496855 0.350409 -0.507498
0.672004 -0.219135 0.0397507
-0.025115 0.234156 0.749127
-0.695573 -0.689616 0.337541
0.411552 0.313964 -0.199776
-0.353967 -0.561411 -0.842789
0.502953 -0.0709556 0.189451
-0.112656 -0.527301 -0.695021
0.0207457 0.194671 0.785417
0.0829725 0.301884 0.892949
0.631965 0.160338 -0.725494
-0.0250201 -0.167416 0.228136
-0.614978 -0.518427 -0.857854
0.340034 0.40688 -0.340137
0.89687 -0.34697 -0.636879
0.543369 0.0475306 -0.947154
0.083884 -0.722874 -0.628771
0.734674 -0.253603 -0.927096
0.156079 -0.622768 -0.90833
0.655629 -0.0709067 0.0582159
-0.44964 -0.452255 -0.604889
0.636891 -0.369369 0.0292669
-0.493041 -0.536747 -0.799512
-0.896887 -0.010739 -0.248749
-0.473021 -0.00682077 0.371747
0.754271 -0.280801 -0.135453
-0.61948 0.194682 -0.143156
-0.574536 0.0324496 0.492777
-0.771287 0.111317 0.589112
-0.171285 -0.588748 -0.981789
-0.443061 -0.305793 0.43627
-0.375033 0.223358 -0.0122128
-0.475397 -0.0419922 0.669443
0.760017 -0.0539587 -0.113807
-0.10976 0.0718092 0.911886
0.410967 0.0186368 0.210164
0.431644 0.385654 -0.516552
0.523759 0.23933 -0.101499
-0.315405 0.111389 0.697677
-0.509465 0.0684369 -0.814821
0.706128 -0.094443 -0.955997
-0.561182 -0.179855 -0.825561
0.613722 0.111377 0.0132246
-0.755354 -0.507708 -0.0896831
-0.488426 0.12015 -0.5578
0.684216 -0.0269814 0.00775862
0.803216 -0.242997 -0.322236
-0.498229 -0.249679 -0.984243
-0.0675777 0.248757 0.819645
-0.0613452 0.387739 -0.775822
-0.608785 0.157994 0.658683
0.500818 0.156242 0.0625809
-0.251033 -0.500977 -0.0047321
-0.289187 0.0251104 -0.950932
-0.253703 -0.589467 -0.323826
-0.369722 -0.22281 0.308353
-0.777367 0.142657 -0.212214
0.270195 -0.422946 -0.936049
-0.945698 -0.271657 -0.224438
-0.72965 -0.64694 0.428688
-0.883446 -0.0223681 -0.0957253
-0.189441 -0.531937 -0.0487933
-0.214459 0.19753 -0.762216
-0.752395 0.0692314 0.0202598
0.769297 -0.343543 -0.518623
-0.647339 0.297299 0.498355
-0.627566 0.0642935 -0.880343
-0.530568 -0.50417 0.513305
-0.141284 0.235564 0.00369281
0.542502 -0.0224953 0.148847
0.82153 -0.0685143 -0.512671
0.16119 -0.73847 -0.247808
-0.835536 -0.579658 0.450502
0.169265 0.277422 -0.989285
0.0829699 0.193076 -0.932314
0.211907 -0.707407 -0.75272
-0.620381 -0.151257 0.605678
-0.912754 -0.507126 0.0428476
0.321312 0.3604 -0.19896
0.896593 -0.0850855 -0.511998
-0.571781 -0.621173 -0.267846
-0.138791 0.207223 0.822475
0.023378 0.103224 0.148208
-0.340971 0.0212672 0.790257
0.385302 -0.0996762 0.248641
-0.467468 -0.359707 -0.723703
-0.448747 -0.510874 0.0136402
0.578742 -0.239279 0.138641
0.698609 -0.100486 -0.00065422
0.233815 -0.747617 -0.406989
-0.115639 0.349208 -0.815511
-0.757318 0.537565 0.888886
0.282634 -0.556523 -0.0854182
0.459927 -0.679004 -0.412065
0.283445 0.3797 -0.782546
-0.266096 -0.385828 0.156953
-0.560228 -0.358888 -0.843195
-0.835974 -0.405886 -0.397179
-0.888241 -0.00784299 -0.318786
-0.245497 -0.526676 -0.804989
0.293828 -0.670234 -0.181975
-0.349617 0.256173 -0.13178
0.76886 -0.00299449 -0.169084
-0.793744 -0.543723 0.509907
0.238233 -0.335525 0.243356
-0.342201 0.212873 -0.817111
-0.215384 0.187855 0.0688524
-0.636179 0.737979 0.799885
0.559615 -0.481646 -0.0291045
-0.273623 0.202883 0.0511793
-0.448513 -0.485329 -0.976743
-0.0496758 0.275745 -0.0306677
0.559614 0.254515 -0.765699
-0.227975 0.373841 -0.361462
0.688586 -0.46332 -0.204545
0.118216 -0.633164 -0.974327
0.521172 -0.585317 -0.585072
-0.659706 0.207086 -0.298699
-0.430656 -0.335767 0.37144
0.174375 -0.324488 0.245953
-0.868371 -0.676279 0.198741
-0.420794 -0.535551 -0.505135
-0.258272 0.212668 -0.513457
0.343104 -0.630506 -0.169405
0.277133 0.446982 -0.433583
-0.600492 -0.604582 -0.341916
-0.404139 -0.605815 -0.187612
-0.737985 -0.252519 -0.577929
-0.153048 0.0340145 0.875797
0.539571 -0.438662 0.0468471
-0.761547 -0.600354 0.475752
0.0718757 0.383699 -0.827564
0.0470795 0.336872 -0.925154
0.0866753 -0.75734 -0.386408
0.445509 0.208255 -0.924574
-0.782689 0.440267 0.822317
0.253917 0.261186 -0.0330607
0.783465 -0.245554 -0.196606
0.0451785 -0.496417 -0.931299
-0.53287 -0.140074 -0.675533
-0.612097 -0.0395854 -0.628515
-0.285144 0.15781 0.106019
-0.140131 -0.463617 -0.930382
-0.0785795 0.26954 -0.98844
-0.435374 -0.0958729 0.688485
-0.0173666 -0.396614 0.158534
-0.646442 -0.469699 -0.897577
0.00707349 0.4251 -0.732942
0.802596 -0.0279468 -0.398571
-0.199087 0.093541 0.587856
0.608299 0.0607769 0.0573998
-0.415214 0.0112512 -0.984838
-0.438544 -0.491583 0.16249
0.0038897 -0.542176 0.000254008
-0.294541 0.0681104 0.82024
-0.406925 0.253201 -0.331852
-0.6154 -0.703 0.1271
0.875178 -0.102898 -0.861077
-0.61699 0.0811759 0.146899
-0.664391 -0.154899 -0.629928
0.429216 0.0589932 -0.986958
0.262445 0.0913731 -0.936562
0.370865 -0.672065 -0.718264
0.580604 -0.561393 -0.208863
-0.733746 0.173806 -0.331734
-0.739874 -0.609784 0.0101352
-0.0459339 -0.711028 -0.270896
-0.954145 -0.550883 0.0884649
0.276359 -0.711647 -0.229668
-0.578867 0.162232 0.598367
0.80115 -0.137083 -0.240646
-0.772425 -0.19409 -0.542364
-0.929384 -0.0705737 0.151353
-0.61824 -0.565141 -0.959627
0.957973 -0.249414 -0.747435
-0.627429 -0.569099 -0.403824
-0.53696 0.0474687 0.338044
0.598428 -0.483228 -0.0964225
-0.630482 0.210761 0.716987
-0.60859 0.169222 0.478831
-0.51453 -0.507802 -0.9767
-0.274764 0.151411 -0.926942
-0.0152824 0.178699 0.675295
-0.663052 -0.704401 0.0739761
-0.656116 -0.358245 0.610735
-0.299861 0.102296 -0.932006
0.795809 -0.0117687 -0.547801
-0.532858 -0.628186 -0.899671
-0.137223 0.116261 0.615615
0.657216 0.0460564 0.00976922
0.124017 -0.75032 -0.321126
-0.377757 0.0632048 0.69518
-0.293953 0.23286 -0.00406533
0.000109567 0.491647 -0.422077
-0.953497 -0.285573 0.450783
0.722813 0.0672504 -0.871683
-0.46748 0.0260696 0.307156
-0.0984145 -0.318817 -0.937655
-0.430588 0.147202 0.13689
-0.397331 0.250769 -0.0781462
0.481941 0.0855622 -0.937889
0.491706 0.339889 -0.705486
-0.863337 -0.641621 0.0570356
-0.270477 -0.583825 -0.257624
-0.50431 -0.599276 -0.839925
-0.64683 0.399498 0.797403
-0.0466673 0.0858505 0.162163
0.17713 0.328673 -0.868899
0.880262 0.0539143 -0.756009
-0.60051 0.0966253 0.606776
0.952299 -0.249992 -0.552546
0.334832 -0.194085 -0.991171
0.698894 0.0842757 -0.0974656
0.620642 -0.381161 -0.862304
-0.600935 -0.585094 0.30483
-0.403865 -0.0636702 -0.987841
-0.547295 -0.300146 -0.981226
-0.627662 -0.480044 -0.527462
0.30863 -0.14829 0.269089
-0.679165 0.155698 -0.0691782
-0.598296 0.110429 0.462911
-0.668075 -0.00694478 -0.595129
0.194063 0.428571 -0.668319
-0.214454 0.187982 -0.695294
0.309189 -0.474582 -0.990148
-0.835673 -0.474609 0.535406
-0.653171 -0.409605 -0.955585
-0.124937 -0.0284455 0.63999
0.689891 -0.390703 -0.749491
-0.639228 0.207819 -0.221589
-0.202877 0.268215 -0.98309
-0.00865107 -0.618052 -0.794542
-0.712217 0.345751 0.509442
0.456301 -0.616191 -0.212015
0.27036 0.340204 -0.842789
0.0244688 0.493368 -0.299908
0.202985 -0.141977 -0.989024
-0.201078 0.147819 -0.924314
-0.382437 -0.491651 0.0349478
-0.996746 -0.311961 0.181162
-0.392466 -0.612609 -0.288409
0.435904 -0.507048 -0.0012926
0.11197 0.351559 0.82141
0.806173 -0.155797 -0.313907
-0.487254 -0.178824 -0.704523
-0.576893 -0.458768 -0.565223
-0.612714 -0.641903 0.261938
-0.224028 0.254435 -0.569438
0.523279 -0.605411 -0.224239
0.699753 0.10413 -0.815036
-0.00662099 -0.0239653 0.213581
-0.00760981 0.290024 0.947946
-0.273581 0.0794527 0.572153
0.520602 0.274948 -0.164822
-0.156467 0.168339 0.876968
-0.517372 -0.334871 0.595179
-0.253098 -0.0255658 0.685005
-0.837988 -0.0560604 0.432279
-0.932725 -0.32477 -0.168532
0.612623 -0.551213 -0.33881
0.813196 -0.166632 -0.445688
0.366128 -0.438393 -0.993801
-0.520806 0.249707 -0.170412
-0.691001 -0.605132 0.47475
0.654426 -0.144479 -0.979051
0.681278 0.148954 -0.665191
-0.121853 -0.522722 -0.0188049
0.274209 -0.387215 0.211299
-0.687184 0.541957 0.87072
-0.920147 -0.0820482 0.282115
-0.405498 0.178321 0.079675
-0.0121417 -0.509657 -0.92978
-0.199149 0.375046 -0.969271
0.124094 0.33302 -0.916617
0.281356 0.430638 -0.290176
-0.601141 -0.515965 0.541413
-0.557683 -0.570677 0.246073
0.286928 -0.00585034 0.249201
-0.657662 -0.692387 0.261051
0.203043 0.443108 -0.260386
-0.57936 0.750585 0.784964
-0.208163 0.02119 0.732724
0.385598 0.358389 -0.236378
-0.717503 0.19035 0.482996
-0.28887 -0.558551 -0.127994
-0.581458 0.182076 -0.00136369
0.0330751 0.301757 -0.987143
-0.26571 -0.529065 -0.0671037
0.0822744 -0.648803 -0.891245
0.965757 -0.0277725 -0.674437
-0.636253 0.0303476 0.619672
-0.592792 -0.183789 -0.658693
0.242136 0.248549 0.0504846
0.527613 0.324579 -0.364165
-0.866637 -0.678282 0.12663
0.51147 -0.385235 -0.962571
0.681162 -0.494307 -0.443591
0.668 0.0493284 -0.919631
-0.149884 -0.49312 -0.657194
-0.859801 -0.112206 0.473901
0.0406688 0.273494 0.760152
0.497683 0.19202 0.000258312
0.881022 0.0689836 -0.675549
-0.465674 -0.565895 -0.978011
-0.584837 0.686882 0.840754
0.348871 -0.57773 -0.916731
0.368049 0.41267 -0.529268
0.823998 -0.354615 -0.622955
-0.140599 -0.315951 0.159954
0.235712 0.116338 0.174386
0.683412 -0.480559 -0.515499
-0.574945 0.236564 0.586165
0.713196 0.123583 -0.6117
-0.628188 0.335681 0.762255
-0.618515 0.135966 0.0528812
-0.793719 -0.513887 -0.284243
-0.0577358 -0.640553 -0.984392
0.781624 0.0238408 -0.368217
0.44525 0.288945 -0.829663
-0.686809 0.704954 0.915659
-0.526318 -0.42661 -0.598332
-0.666865 0.135594 0.453522
-0.135029 -0.704061 -0.892272
0.509822 0.317833 -0.594527
-0.138792 0.264135 -0.983229
0.00925152 0.483585 -0.53926
-0.714611 0.0761333 0.245217
-0.909319 -0.0360325 0.235115
-0.68801 -0.655744 0.0331472
-0.782952 -0.00249257 0.503368
0.413418 0.384423 -0.591961
-0.308109 0.127874 -0.681376
0.117081 -0.107731 0.25467
-0.583676 0.0480492 0.42847
-0.40153 -0.177276 0.513395
-0.159472 0.062296 0.792842
0.79085 -0.278914 -0.260326
-0.454202 -0.412936 0.35746
0.22989 -0.580579 -0.12479
-0.0186056 0.334274 -0.967341
0.32138 -0.716559 -0.284939
0.539658 -0.0167308 -0.984827
-0.730253 0.477031 0.857571
0.743934 -0.170637 -0.0752355
-0.0808578 -0.204827 0.210494
-0.842831 -0.45449 -0.29298
-0.649259 -0.230338 -0.63684
-0.820804 -0.286374 -0.480358
-0.694081 -0.734484 0.1348
-0.214519 -0.544552 -0.552636
-0.933974 -0.28324 -0.110506
-0.490872 -0.529379 0.118512
0.693492 -0.419835 -0.147215
0.0564016 -0.715933 -0.520883
-0.58272 0.175242 0.535519
-0.624698 0.0781697 -0.546638
0.809647 -0.0852205 -0.438221
-0.608421 -0.0773764 -0.982111
0.678434 -0.301611 -0.932429
0.688961 -0.332873 -0.0189151
0.609442 0.261219 -0.499089
-0.668158 -0.212349 0.614799
-0.494402 0.0189108 -0.984389
-0.460375 -0.0223526 0.451428
-0.488644 0.0660586 -0.745499
-0.572526 0.303215 0.629621
-0.434055 -0.24264 0.477113
-0.289184 0.119837 0.166536
-0.031061 0.352616 -0.903088
0.680518 -0.444216 -0.694778
-0.588983 -0.419108 -0.9764
-0.157964 0.196537 0.750142
-0.638831 0.273922 0.750017
-0.119403 -0.392673 -0.934662
-0.851384 -0.402918 0.563899
-0.424606 0.227491 -0.395194
0.412632 -0.673162 -0.597672
-0.17689 0.271627 -0.0521227
-0.920582 -0.0884845 -0.141828
0.740616 0.095932 -0.557583
-0.678524 -0.083428 -0.609461
-0.0656456 0.0750653 0.610854
-0.251083 0.110482 0.834104
-0.15998 -0.65765 -0.839505
-0.713292 -0.443613 0.584712
0.0675875 0.0115451 0.222658
0.789546 -0.08093 -0.186653
-0.0638406 0.0140799 0.190727
-0.577245 0.0766326 0.217889
0.487817 0.108433 0.114069
0.338883 0.0396155 0.222682
-0.891674 -0.395908 -0.146764
-0.723907 0.11492 0.467554
0.46636 0.223596 -0.0576935
-0.924926 -0.446508 0.326366
0.569418 0.274529 -0.575069
-0.276712 -0.5762 -0.399222
0.916311 -0.302043 -0.569364
-0.449898 -0.400232 -0.978127
-0.573846 -0.529915 0.334932
0.644884 0.226054 -0.549631
-0.714842 0.518192 0.710386
0.995207 -0.168747 -0.649475
-0.728658 0.469381 0.541073
0.0874834 -0.530391 0.0490333
0.766188 -0.319051 -0.198988
0.81617 0.0880396 -0.775022
-0.180907 -0.555377 -0.3729
-0.934692 -0.347731 0.422573
-0.937898 -0.131593 -0.261445
-0.628745 -0.598242 0.444778
-0.768181 0.155409 -0.276361
-0.271967 0.272928 -0.347967
-0.706845 -0.72313 0.240165
-0.183243 0.00203215 0.672251
-0.209393 0.0365439 0.554133
-0.520742 0.107513 -0.981383
-0.44295 -0.501978 -0.553956
-0.891996 -0.0656557 0.341293
-0.675989 0.681587 0.835302
-0.727406 -0.372048 0.605274
-0.404653 -0.123147 -0.965592
-0.314114 -0.148296 -0.965649
0.287996 -0.600069 -0.140028
-0.989026 -0.241699 0.200682
-0.689149 0.177513 -0.190415
0.178267 0.359091 -0.158367
0.11225 -0.511648 -0.958229
-0.854795 -0.69425 0.258182
0.627905 -0.261042 0.0913705
0.581431 0.259839 -0.658362
-0.170549 0.460538 -0.373904
-0.0324265 -0.684199 -0.555178
-0.558017 -0.585531 -0.390288
-0.206686 -0.50128 -0.763775
0.178229 -0.460593 0.16051
-0.585965 -0.2544 -0.652065
-0.663667 0.0768885 0.290509
-0.696494 -0.445276 -0.51461
-0.394722 -0.509265 -0.589327
0.323263 0.322265 -0.889916
0.692287 -0.486168 -0.268381
0.0165052 0.342154 -0.860451
-0.367542 -0.0528052 0.259051
-0.431865 -0.0245531 0.712417
-0.46111 -0.298271 -0.764067
0.180577 -0.251012 -0.943565
0.612432 -0.27655 -0.961903
0.409845 -0.20519 -0.984193
-0.76258 0.144873 0.530044
0.303174 -0.722539 -0.411663
-0.233803 -0.0385366 0.548622
-0.359641 -0.0515993 0.470763
0.370802 -0.514301 -0.0139759
0.241195 -0.734245 -0.528829
0.0860206 0.431825 -0.199862
-0.650412 -0.557596 0.515286
0.478963 0.151311 -0.891698
-0.0389728 0.400059 -0.188199
0.330311 0.270068 -0.0971366
0.439813 0.279436 -0.890331
-0.970801 -0.518157 0.152814
0.594404 -0.574094 -0.414709
-0.073729 0.109753 0.945551
0.305553 -0.0253907 -0.994183
-0.243906 0.248472 -0.05289
0.276219 0.0389485 -0.986221
0.208908 -0.541386 0.0479914
0.220897 0.0298729 -0.938474
0.087844 0.234171 0.781497
0.777073 0.0811497 -0.831809
0.977387 -0.244711 -0.678467
-0.481749 -0.348181 -0.65243
-0.169039 0.317224 -0.211946
0.554776 0.311952 -0.522736
0.151082 -0.53001 0.0587115
0.555682 -0.326468 -0.956766
0.500413 -0.425435 0.109877
0.254945 0.283055 -0.0881623
-0.523019 0.0529929 0.265305
-0.41983 -0.61581 -0.955781
-0.275099 0.0186155 0.523655
0.345054 -0.268342 -0.993519
-0.525298 -0.225632 -0.676642
0.181249 0.325084 -0.951431
-0.342557 -0.53043 -0.710692
-0.307945 -0.367202 -0.98321
0.71762 -0.447652 -0.32537
-0.275601 -0.556089 -0.601083
-0.533104 -0.297782 -0.657857
-0.197235 -0.476069 -0.959739
-0.432786 -0.587715 -0.848539
-0.100294 0.169249 0.935293
0.162378 0.229696 0.0480723
-0.161449 -0.034689 -0.931303
-0.403837 0.26202 -0.262584
0.642284 -0.0690456 -0.974994
-0.0855607 -0.668044 -0.817404
0.331567 -0.230538 0.262929
0.58448 -0.528624 -0.147476
0.697422 -0.470654 -0.387417
-0.662894 -0.592657 0.0202997
0.730671 0.00931374 -0.914786
0.353403 -0.371463 0.214435
-0.409503 0.220303 -0.981767
-0.8653 -0.609833 0.390154
0.0883023 0.0366068 -0.929997
0.0974675 -0.462479 -0.930358
-0.743605 -0.676906 0.0485895
-0.402449 -0.133719 0.448433
0.720013 0.167156 -0.386234
-0.98019 -0.199045 0.130909
0.0851778 0.359084 0.93352
0.920388 -0.061315 -0.812042
-0.747149 -0.00605981 -0.511311
-0.211563 -0.506606 -0.691202
0.374106 0.204677 0.0767113
-0.128925 -0.619257 -0.791938
-0.693259 -0.0571323 -0.84694
-0.644817 -0.181509 -0.977194
-0.436334 -0.217961 0.547496
-0.730122 -0.117056 -0.892689
-0.397459 -0.546914 -0.978001
-0.501947 -0.497541 0.0539282
-0.141637 0.366722 -0.96248
0.536933 -0.49672 -0.79759
0.431368 -0.491076 -0.991263
-0.322741 0.280036 -0.82771
-0.567617 -0.0548402 -0.790808
0.439603 0.131355 -0.962777
-0.747476 -0.717207 0.107545
-0.95565 -0.506372 0.231353
-0.335667 -0.109539 0.616694
0.832165 -0.38158 -0.675226
0.479458 -0.565629 -0.0959806
-0.804287 -0.711433 0.307324
0.704647 0.165784 -0.538394
-0.504673 -0.451806 0.410091
-0.912838 -0.582567 0.0519785
0.110127 0.313426 -0.974385
0.0975893 0.488622 -0.329677
-0.553542 -0.556484 0.10128
-0.0848498 0.180382 0.0782256
-0.544417 -0.566234 -0.976099
0.704297 -0.451188 -0.576382
0.43884 -0.0883842 -0.982765
-0.576216 -0.623849 0.205839
-0.270934 -0.522224 -0.734454
0.438866 0.209241 0.020686
-0.716834 -0.565687 -0.282243
-0.148673 -0.170523 0.204163
-0.511592 0.201634 0.0156805
0.482839 -0.0516409 -0.997295
-0.758895 0.0750435 0.641591
0.463744 0.352345 -0.330561
0.211812 -0.214137 -0.986546
0.20123 0.221553 -0.987683
-0.135426 -0.199881 -0.941045
-0.68128 0.189603 -0.373926
-0.743235 -0.725423 0.29336
-0.660078 0.698599 0.686882
0.388336 0.377478 -0.661654
-0.824812 -0.0476164 0.495731
0.374244 -0.383801 -0.990922
0.323298 -0.399034 -0.948594
0.222981 0.448409 -0.331159
-0.284218 0.174345 -0.789217
0.307447 0.208595 0.0926044
-0.232168 0.0466687 0.858882
-0.921267 -0.629196 0.100917
-0.098541 0.222447 0.766679
0.145659 0.180902 -0.929623
-0.0972989 0.49257 -0.358193
-0.980755 -0.377383 0.230814
0.0502081 0.32339 0.821564
0.196166 0.258249 0.00612266
-0.590072 -0.325409 0.610111
-0.232893 -0.460343 0.0496777
-0.248324 0.329492 -0.986909
-0.835893 -0.411301 0.0104563
-0.0820326 -0.356171 0.157612
0.296415 0.308372 -0.960611
-0.817242 -0.481971 -0.22281
0.579637 0.280911 -0.384365
0.528427 -0.497887 -0.877162
0.0413338 0.262249 0.934081
-0.0737839 -0.626841 -0.548768
-0.983933 -0.375666 0.163226
-0.0215347 -0.291782 -0.9377
-0.865894 -0.0161615 0.298576
-0.657954 0.477304 0.824254
-0.0178923 -0.668829 -0.833751
-0.366295 -0.338982 0.2518
0.686467 0.0949066 -0.716902
0.682835 -0.015919 -0.951176
0.0328946 0.22068 0.706942
0.792944 0.0145301 -0.878686
-0.584825 -0.21302 0.611321
-0.154704 -0.271034 -0.944262
-0.755903 -0.686529 0.37138
-0.426185 0.139902 -0.905167
0.0691583 -0.559273 -0.0129402
-0.0806324 -0.501061 -0.929174
0.861984 -0.0237037 -0.539994
-0.856486 -0.0325485 -0.40581
0.991307 -0.158437 -0.576855
-0.75311 0.391357 0.6999
-0.391706 0.128207 -0.83078
-0.166432 0.100354 -0.927368
-0.315184 -0.531085 -0.787854
0.477448 -0.241189 -0.993036
0.612435 0.015888 -0.957224
0.235445 0.307937 -0.976351
0.732658 -0.413545 -0.518779
-0.000506835 -0.717539 -0.507457
0.272411 -0.522845 0.0674121
0.672969 -0.512765 -0.333159
-0.387838 -0.140459 0.645453
-0.947125 -0.409591 0.104849
0.297441 0.4356 -0.485495
-0.317756 -0.573906 -0.296219
0.469123 -0.600928 -0.149476
-0.279233 0.00175354 0.819648
0.200306 -0.577238 -0.0604099
-0.816063 0.0967141 -0.253368
-0.911153 -0.372912 -0.211446
-0.695536 -0.5784 -0.210726
-0.506866 0.137321 -0.948149
-0.702859 -0.180891 -0.95612
-0.107959 -0.596355 -0.982117
0.479132 -0.163235 -0.97906
0.751545 -0.35847 -0.64897
-0.579648 0.116019 0.107194
-0.914796 -0.548776 0.357416
-0.55432 0.0938658 -0.557155
-0.148518 -0.589928 -0.262831
0.660714 0.0968516 -0.0388872
-0.436007 0.262393 -0.143094
-0.462466 -0.551133 -0.0447797
0.293339 -0.585162 -0.974116
-0.588908 -0.147509 -0.981623
0.00722586 -0.669703 -0.973785
0.242797 -0.503336 -0.989353
-0.883303 -0.0879901 0.40617
-0.595122 0.518968 0.755497
-0.206074 0.3342 -0.57094
-0.237069 0.314291 -0.322453
0.0569249 -0.0576314 0.237773
0.350697 0.307012 -0.16792
-0.605023 -0.287643 -0.964388
-0.340393 0.00823404 0.499227
0.0109332 0.0438931 0.1906
0.842311 0.0376721 -0.824907
-0.346487 -0.54781 -0.556968
-0.0109766 -0.752818 -0.334597
-0.545415 -0.35854 -0.625036
0.391783 0.318961 -0.860311
0.803749 -0.264589 -0.531949
0.138233 0.0387033 0.226971
-0.745908 0.573087 0.827909
-0.274119 0.129768 0.765736
0.074155 0.421825 -0.752073
-0.348278 -0.112113 0.26426
-0.63102 -0.273854 0.615687
0.540252 -0.51325 -0.089313
-0.289034 -0.0639743 0.646898
-0.0992123 0.109704 0.757959
0.529807 -0.550142 -0.73701
0.342771 0.399506 -0.259258
-0.59272 0.306992 0.547605
0.649479 -0.532793 -0.393521
-0.0483486 0.314431 -0.158776
-0.474654 -0.126283 -0.984207
-0.961412 -0.588231 0.148612
-0.327267 0.0160727 0.23365
0.697424 0.0275703 -0.0456072
-0.160579 -0.44113 0.0787912
-0.00733268 0.20373 0.920899
0.369653 -0.0487777 -0.985912
-0.73416 -0.474472 -0.460181
-0.481864 -0.325394 -0.983041
0.65914 0.198515 -0.483269
0.294034 -0.723194 -0.645353
-0.214911 -0.140426 0.226505
-0.355103 -0.591132 -0.956808
0.92175 -0.138136 -0.824648
-0.310223 -0.232914 -0.965146
0.205627 0.000313752 0.245831
-0.641639 0.727645 0.937984
0.27747 -0.640892 -0.833765
0.191729 0.462456 -0.405975
-0.176804 0.360593 -0.63321
-0.348853 -0.294148 -0.971229
-0.526726 0.256902 -0.250044
-0.801898 -0.669974 0.0906905
-0.493657 -0.622502 -0.958705
0.326763 -0.111704 -0.990905
-0.607507 0.0637999 0.35546
-0.904702 -0.631935 0.252122
-0.227933 -0.561143 -0.414236
-0.759791 -0.526313 -0.333045
-0.249833 -0.0893795 0.619572
-0.157628 0.0977135 0.144059
-0.895532 -0.0868833 -0.0582281
-0.219746 0.220645 -0.635162
-0.775963 -0.484891 -0.0232604
-0.783002 -0.431982 0.577533
0.240957 0.189703 0.110874
-0.566236 -0.512439 0.0464602
0.722863 0.111366 -0.209624
0.674737 0.167922 -0.211284
-0.607588 -0.453198 -0.832098
-0.80711 -0.0249237 -0.472096
0.399343 -0.484061 0.0556641
0.0722391 -0.665599 -0.772757
-0.0876779 -0.12705 0.211262
-0.0651877 -0.155902 -0.936438
-0.788786 0.124254 -0.325694
-0.697643 0.575348 0.667076
0.949629 -0.0461486 -0.743891
-0.470174 -0.595985 -0.182681
0.570468 -0.381751 0.084801
-0.0540163 0.225964 0.952551
0.328174 0.258652 -0.0380312
-0.116211 0.157208 -0.92613
-0.88578 -0.153616 0.448088
-0.146962 -0.60546 -0.331389
-0.334119 0.266966 -0.984393
-0.42859 0.0228193 0.670705
-0.914919 -0.197241 -0.314864
-0.0522852 -0.562891 -0.964214
-0.318068 0.245404 -0.0718336
-0.985464 -0.308599 0.256673
0.461627 0.352755 -0.647396
0.189989 0.108942 -0.926493
-0.746708 0.126554 -0.0890529
-0.0614226 0.146907 0.882332
-0.508082 -0.461981 0.550487
0.077317 0.31478 -0.137048
0.836896 -0.223209 -0.885207
-0.595498 0.220646 -0.271349
-0.576487 0.150959 -0.516637
-0.196342 -0.00608932 0.829493
0.400842 -0.601119 -0.793987
0.140946 -0.69806 -0.184455
0.102971 0.373411 -0.161694
-0.896496 -0.0165143 0.166836
-0.268754 -0.324906 0.194064
-0.265001 0.256081 -0.982764
0.740884 -0.329634 -0.892236
-0.359046 0.318193 -0.897193
-0.162838 -0.0920522 -0.935367
-0.421192 -0.260494 -0.974121
-0.34537 -0.10123 -0.986869
-0.240384 0.0695436 -0.926059
-0.542779 0.0116849 -0.786573
0.655334 -0.390396 -0.808376
-0.475902 -0.136881 0.640161
0.906178 0.00130392 -0.789252
-0.564701 -0.614578 -0.953022
0.43236 -0.550559 -0.83108
0.459007 0.273373 -0.107029
-0.850132 0.0478349 -0.290149
-0.644606 0.605632 0.876295
0.200449 0.0659889 0.214235
-0.383764 0.0589431 0.224404
-0.453787 -0.381469 0.418156
0.0956956 -0.694284 -0.702572
0.952796 -0.187116 -0.783042
-0.0524648 0.486774 -0.292914
-0.870798 0.0412565 -0.220712
0.580299 0.282004 -0.310889
-0.892955 -0.430449 0.517832
-0.598513 0.619555 0.691124
-0.710783 0.513066 0.633154
-0.621508 -0.586656 -0.186008
0.341247 -0.618472 -0.834674
-0.261017 0.308192 -0.812314
-0.620964 -0.650488 0.0635617
0.701039 0.157643 -0.451986
0.62241 -0.521052 -0.521305
-0.383385 -0.593009 -0.892934
0.290838 0.293371 -0.145052
-0.487074 -0.611971 -0.366892
-0.423077 -0.434449 0.288142
-0.654928 -0.726546 0.18367
-0.775712 -0.298747 0.608007
-0.764801 0.072111 0.512877
-0.64618 0.62244 0.607434
-0.738979 -0.0588806 -0.963901
0.866789 -0.275347 -0.843312
-0.0178599 0.0490069 0.657704
-0.0267812 -0.722125 -0.444214
-0.378612 -0.391861 0.147431
-0.0878183 0.444421 -0.229328
-0.373649 -0.596269 -0.348878
-0.148919 0.109164 0.912456
-0.750168 0.458053 0.740641
0.61425 0.249587 -0.60834
-0.402349 -0.536087 -0.026895
0.578551 -0.580484 -0.271282
0.595507 -0.541822 -0.6124
-0.610859 -0.227077 -0.884047
0.471345 -0.619386 -0.267391
-0.575106 -0.548484 -0.0381091
0.459941 0.299259 -0.161294
-0.273626 0.269252 -0.126708
-0.00620912 0.212465 0.996261
-0.247503 -0.252434 -0.984962
-0.866905 -0.428962 -0.219558
-0.011098 0.474387 -0.601968
0.764308 -0.205513 -0.133301
0.6366 -0.522643 -0.2156
0.395838 -0.695312 -0.297049
-0.192432 0.287841 -0.156408
0.570582 -0.451685 -0.864035
-0.130038 0.45041 -0.541686
0.786317 -0.317238 -0.32369
0.110701 -0.244735 -0.938993
-0.570112 -0.284695 -0.901175
0.122992 0.231008 -0.984543
-0.239693 0.124495 -0.706532
-0.184711 0.433118 -0.320393
0.413774 -0.554235 -0.970895
-0.772972 0.0576787 0.217756
-0.356342 -0.581108 -0.155823
0.0187777 -0.587071 -0.146137
0.468008 -0.199559 0.215095
0.352843 -0.677306 -0.229212
0.978275 -0.0875619 -0.575019
0.0488412 0.491084 -0.373662
0.334199 -0.507773 0.060884
0.669539 -0.225877 -0.959178
-0.199861 0.269382 -0.775286
-0.733129 -0.0551284 -0.560885
-0.344378 -0.0112384 -0.985676
-0.787322 -0.435565 -0.42649
-0.715292 0.114437 -0.0242878
-0.0514913 -0.585149 -0.108628
-0.721546 0.0598334 0.0861016
-0.972774 -0.162591 0.206061
-0.209762 -0.471359 -0.964206
-0.785099 0.204535 0.635639
-0.352207 0.158072 0.1278
-0.622981 0.19974 -0.416793
-0.600046 -0.588182 0.0593049
-0.646408 -0.240107 -0.958738
0.155071 -0.183412 -0.943276
0.796706 -0.0162081 -0.470952
-0.857895 -0.229365 -0.428205
-0.0669938 0.413324 -0.713797
-0.406354 -0.00298848 0.25669
0.76315 -0.353909 -0.262471
-0.485955 0.248718 -0.102691
-0.669972 0.669086 0.762457
-0.551262 -0.0766081 -0.664285
-0.145415 0.168411 0.674815
0.0280022 -0.701174 -0.595507
-0.0900184 -0.678212 -0.435707
-0.910282 -0.169509 0.389929
0.0630696 0.468402 -0.529921
-0.450378 -0.474542 -0.771807
-0.203691 -0.146947 -0.974732
0.744277 -0.413415 -0.391273
-0.360545 0.224234 -0.422777
0.291424 -0.584611 -0.879681
-0.698875 0.0617875 0.422572
0.57835 0.0248425 0.102664
0.403619 0.177839 -0.985095
-0.746431 -0.129299 -0.949496
-0.399089 -0.434761 0.108178
-0.645434 0.0920273 0.663708
-0.863009 0.00881621 0.234572
-0.265864 -0.116227 -0.988681
0.980592 -0.180501 -0.714527
0.327681 0.156679 -0.99017
-0.249538 -0.423207 -0.980896
0.0587852 0.240341 -0.984597
-0.00404537 0.108422 0.636623
-0.7698 0.0389028 0.568701
-0.202184 0.102688 0.878816
-0.107964 0.274291 -0.0387368
-0.403155 0.275845 -0.969517
0.955683 -0.120834 -0.527277
-0.455362 0.0704412 -0.984702
-0.261285 -0.491542 -0.983125
-0.752583 -0.499214 -0.396086
-0.72498 0.672223 0.934538
0.595235 0.0731953 -0.903454
-0.699113 -0.298489 0.616361
-0.93081 -0.416154 0.436245
-0.479404 -0.405537 -0.776522
0.264924 -0.729502 -0.586985
-0.366158 -0.291472 0.290086
0.770111 -0.12534 -0.130067
-0.106199 0.378312 -0.197546
0.116543 -0.357149 0.224031
0.84014 -0.379101 -0.746583
0.111678 -0.0359848 -0.933156
-0.454231 0.0356079 0.237476
-0.859487 -0.340579 -0.389509
0.266378 0.0559311 0.21986
-0.596 0.397356 0.734926
0.147876 -0.680678 -0.774553
-0.575119 -0.224101 -0.981904
-0.283219 -0.560724 -0.530114
0.585237 0.175946 -0.787083
-0.433505 0.137879 -0.605163
-0.372652 0.117352 0.178389
-0.620046 -0.344287 -0.970432
-0.550786 -0.565365 -0.460026
-0.809048 -0.440986 -0.013426
-0.193893 -0.0628315 0.634119
0.652085 -0.395652 -0.0319851
0.0171283 -0.353173 -0.935836
-0.419744 0.208906 -0.92598
0.18402 -0.5305 -0.98817
0.357301 -0.679473 -0.655453
-0.787966 -0.07169 -0.504176
-0.901953 -0.47639 0.463051
0.275372 -0.351456 -0.938941
0.477104 -0.538789 -0.877292
-0.323466 -0.525785 -0.0103922
0.472402 -0.635977 -0.572489
-0.943492 -0.244185 0.519767
-0.567941 -0.0218321 0.544282
-0.339086 0.276341 -0.239734
-0.771394 0.62833 0.914252
0.892647 -0.150227 -0.501598
0.0603715 -0.491472 0.107239
0.0179573 -0.563413 -0.0713446
-0.761357 0.308563 0.774976
-0.774888 -0.339144 -0.50919
-0.298681 -0.56217 -0.909017
-0.590119 -0.544666 0.481814
0.587422 -0.133161 -0.994696
0.113868 0.453056 -0.571572
-0.554526 0.226761 -0.387807
0.871799 -0.26483 -0.528123
0.236203 -0.70654 -0.690603
-0.485696 -0.614146 -0.253291
-0.307605 0.27737 -0.190463
-0.491763 -0.00927297 0.521854
-0.2526 0.298806 -0.393598
-0.560223 0.0401904 -0.984266
-0.118158 -0.666356 -0.366352
-0.725741 -0.318207 -0.556409
-0.682755 -0.285218 -0.608529
-0.844705 -0.452062 -0.153588
0.00886517 -0.590897 -0.986108
-0.0307443 0.145561 0.113183
0.181179 -0.612019 -0.977362
-0.167692 0.320346 -0.793774
-0.0135685 -0.252509 0.221683
-0.586369 0.332955 0.700834
0.521169 0.0474149 0.134572
-0.858341 -0.0236481 -0.0273107
0.144847 -0.641557 -0.143886
-0.515896 -0.178998 -0.985667
-0.535634 -0.00273536 0.460506
-0.741963 0.00283504 0.620763
-0.520334 -0.529614 -0.00713675
0.511285 -0.644152 -0.377316
-0.164231 -0.546319 -0.442715
-0.917723 -0.0970491 0.0832459
0.11203 -0.296417 0.244526
-0.748024 0.51615 0.78086
0.242515 0.317198 -0.897718
-0.207862 -0.656249 -0.967314
0.811496 -0.131173 -0.386266
-0.964437 -0.442576 0.179678
-0.199356 0.142707 0.644531
-0.895106 -0.60898 0.328711
-0.610498 -0.31524 -0.625087
-0.0810978 0.19274 0.705867
0.191222 -0.74772 -0.340653
-0.713954 0.407138 0.827023
0.598881 -0.423379 0.0219369
-0.351958 0.0606643 -0.978056
0.722158 -0.381183 -0.697942
-0.377122 -0.52185 -0.78019
-0.458303 0.143416 -0.977196
0.619041 -0.119042 0.103156
-0.592553 0.268227 0.693769
-0.272745 -0.31605 -0.974076
-0.0514921 -0.600469 -0.181768
0.0791434 0.0793258 0.195273
-0.850847 -0.293522 -0.425454
-0.151823 0.0638803 0.73219
-0.107088 -0.567713 -0.55456
-0.0576213 0.0866486 0.700813
-0.138597 -0.666728 -0.981788
-0.39953 -0.272352 0.349998
0.742469 0.112642 -0.765716
-0.955058 -0.440166 0.259959
0.349769 -0.594 -0.109263
0.707147 0.0829765 -0.682615
0.778882 -0.342537 -0.392321
-0.00268158 -0.643615 -0.178625
-0.685106 0.627084 0.712604
-0.734248 0.156376 -0.151907
-0.293793 -0.0501791 -0.980317
0.0106405 -0.67699 -0.89429
-0.946009 -0.203312 -0.238092
0.767426 0.0415875 -0.513654
-0.557838 0.196694 -0.457994
-0.336754 -0.511248 -0.980438
-0.747351 0.321552 0.655548
0.446576 -0.662044 -0.516197
-0.717774 0.530593 0.56428
-0.546278 -0.616559 -0.209024
-0.6479 -0.5201 -0.9546
-0.321925 0.347822 -0.9822
0.486039 -0.319203 -0.988949
-0.612957 0.218361 -0.349264
-0.152736 -0.0960243 0.201669
0.0268336 0.327537 0.891722
-0.278309 0.291317 -0.274818
-0.530074 0.210686 -0.0540814
-0.0733939 0.143119 0.644703
0.479922 0.0167119 -0.982721
0.520948 -0.618523 -0.523085
0.160016 -0.577284 -0.11653
-0.277342 -0.435222 0.0993443
-0.020798 -0.326751 0.190373
0.334776 -0.539814 -0.0623698
-0.195447 0.373861 -0.278344
-0.159533 0.156317 0.101461
-0.175198 -0.561819 -0.780259
-0.301185 -0.481411 0.0401752
-0.378156 -0.0783647 0.729468
-0.211804 -0.536626 -0.981567
-0.2154 0.273372 -0.100587
-0.0268285 0.503117 -0.359909
-0.54397 -0.051021 -0.725926
-0.795476 0.586904 0.88455
0.107909 -0.462286 0.150015
-0.370179 0.206747 -0.497342
0.907523 0.0296292 -0.628897
-0.454694 0.255598 -0.209867
0.0434274 -0.224152 -0.939078
-0.813389 -0.358886 -0.451703
0.526097 -0.290172 0.172967
-0.902712 -0.208123 0.561109
-0.150797 0.323522 -0.988432
0.181733 0.285293 -0.0595229
0.542934 -0.257491 -0.986571
0.304046 -0.541981 -0.00217846
-0.405682 -0.495344 -0.728174
0.115701 0.275645 0.00267124
0.130593 -0.03148 0.246559
0.137084 0.464636 -0.479852
-0.628576 0.434454 0.557843
-0.810273 -0.459482 -0.0897766
-0.370271 0.126128 -0.722847
-0.205346 -0.212632 0.220287
-0.0190607 0.466124 -0.243066
-0.662772 -0.351837 -0.586466
0.582696 -0.0597302 -0.989103
0.524396 -0.623035 -0.30749
-0.828277 0.0213361 0.17576
-0.619127 0.678447 0.659553
-0.626946 0.168492 -0.469504
-0.430404 0.169729 -0.979439
0.0438131 -0.125744 0.241835
0.790782 -0.0187911 -0.235712
0.104458 0.268196 0.735139
-0.548988 -0.0314012 -0.984346
-0.0384617 0.152489 0.973708
0.260353 -0.084635 -0.99423
-0.75603 -0.495887 0.553358
0.0328663 -0.193887 0.241876
-0.371913 -0.201209 -0.965555
-0.601726 0.242644 0.512452
-0.701073 -0.551996 -0.365038
-0.262952 0.38879 -0.958247
0.163986 0.479298 -0.340457
0.779779 0.0459304 -0.439758
-0.568238 0.0603281 -0.844327
-0.466881 -0.288692 -0.692566
-0.520448 0.029296 0.39882
-0.338928 0.0913214 0.628868
0.71538 -0.421269 -0.63698
0.216755 0.456659 -0.478002
0.486248 -0.659152 -0.471128
0.211969 0.302048 -0.139309
-0.798671 0.342496 0.719472
-0.00190549 -0.456709 0.122041
0.180291 0.195773 0.0939037
0.709692 -0.178037 -0.0143332
-0.559683 -0.515879 -0.516654
0.0683702 -0.245667 0.244838
-0.225912 -0.0690569 -0.955813
-0.515562 -0.526682 0.280238
-0.0638378 -0.590083 -0.773115
-0.666367 -0.184765 -0.889637
-0.580388 0.103438 0.531869
-0.926277 -0.22754 -0.0635777
0.852044 -0.318579 -0.5718
-0.10482 0.367752 -0.893555
-0.14902 -0.532635 -0.508877
-0.454702 0.225004 -0.0401872
-0.971126 -0.342154 0.103261
0.904218 0.00045594 -0.568272
0.790368 -0.394155 -0.709649
0.146765 -0.236268 0.258428
-0.0121631 0.25275 -0.984661
-0.727914 -0.529943 -0.0147382
0.112867 0.291312 -0.0685558
0.207982 -0.379152 -0.933524
-0.725032 0.453192 0.677893
0.293871 -0.472231 0.123917
-0.765681 0.139017 0.676793
-0.295129 -0.562161 -0.971448
0.983583 -0.104504 -0.704099
0.740531 -0.391035 -0.838073
0.251433 0.406547 -0.663367
-0.431343 -0.597679 -0.382988
0.0801121 -0.376006 -0.935524
0.0100959 -0.753973 -0.394598
-0.605003 -0.680728 0.191999
0.144188 -0.730647 -0.633543
0.0438756 -0.740965 -0.455959
-0.559986 -0.118416 -0.795087
0.107651 -0.722888 -0.555756
0.215391 -0.301996 -0.939976
-0.504666 0.0647708 0.195445
0.0613212 0.4682 -0.2542
0.478858 0.228966 -0.859053
0.79724 -0.277441 -0.889976
0.216205 0.383437 -0.812282
-0.667194 0.497164 0.546688
0.61058 -0.455606 -0.0390977
0.448569 -0.39708 -0.99174
