-4.43913 -3.9563 4.51503
-8.00067 -6.07868 -0.413036
10.0869 3.81513 -10.008
-6.58159 -5.07657 -3.18459
-4.13197 -10.0106 7.87323
4.48952 -6.46792 16.3292
-5.71535 -10.0064 2.71531
7.23528 -4.44733 -17.4894
11.0065 10.0188 1.70275
-3.11127 -0.983361 -19.0041
-6.29558 10.0057 0.737254
9.3109 3.09061 5.13708
-6.07847 -10.006 -0.918815
7.99399 -10.0105 -8.65133
7.89482 1.29984 19.008
10.1074 -10.0145 -5.96424
-8.21052 -1.47996 8.19926
-1.77593 -6.0061 -11.7168
-4.87579 -10.0112 -4.55493
-7.77794 1.29305 -9.97503
11.7503 2.96774 -9.73596
1.52785 6.99379 -15.0966
11.7799 9.66378 -4.37395
7.43728 3.34112 18.9647
6.31738 8.14182 -3.94088
4.08448 5.92312 5.54718
11.653 4.21372 -4.49883
5.57718 6.06216 -4.6718
8.23017 10.0054 7.7709
-8.2074 -7.64896 0.897145
3.23551 -6.86449 17.3943
-3.9524 9.87059 -9.83521
-6.65375 -0.18014 10.0069
-4.44049 -3.21111 17.0255
-3.03471 -9.84402 -3.81302
4.61017 -3.41436 19.0048
7.59032 -8.51726 1.49285
7.17482 10.0037 -6.18381
-8.13 1.37472 6.09878
-6.38646 0.252263 6.00135
-2.34867 -3.03788 5.17692
-7.65575 -9.91798 -9.72307
-1.74553 1.70329 -5.74782
7.65023 5.92808 1.8279
-5.99486 -5.60464 2.11993
-6.04706 -10.0077 6.40799
-8.20666 -5.83738 -8.03354
5.79342 -6.151 -4.47262
11.7433 0.954739 6.13834
11.4947 -9.96584 2.34127
-8.15677 -5.51904 3.11712
11.713 5.27671 -3.23372
9.98364 3.2987 10.0029
-8.20947 7.83471 4.03575
8.54345 0.372178 -18.8932
7.86575 -3.50325 -15.4787
-8.19118 3.39378 -5.37235
-1.69895 -9.73378 4.86125
-6.06618 4.52009 -3.95742
5.94992 -5.62273 11.3753
4.68153 -6.37428 -12.0669
7.33982 4.28519 -15.4564
-8.2114 8.09079 2.10973
11.757 -5.98321 2.1081
-8.20769 -8.13037 -5.46514
-8.13798 4.5616 -4.24861
6.81613 8.26437 -10.0117
-8.21059 -8.1596 6.25317
-4.76362 -2.44725 -13.8518
-4.72308 -10.0107 4.48886
-8.21129 8.06479 6.10176
-5.18664 0.562463 -17.0282
-1.85468 2.64212 19.0042
7.76903 -6.12264 -1.31899
11.713 -7.73634 9.81105
-4.37758 4.22357 -4.25194
-1.02266 -6.71754 -10.0794
-4.81971 -4.99166 -3.3104
-2.49057 -5.53819 -15.4803
11.8055 8.00234 -0.911621
3.91369 -10.0054 7.01649
-1.38793 -6.24976 17.3984
9.83864 -10.0094 0.734545
-2.54909 9.85351 4.27832
2.5496 -6.67867 18.9646
11.3715 9.69571 9.90879
8.16398 2.91815 -14.923
-3.65204 -5.42002 2.88866
3.46087 6.81686 15.1484
4.85851 -6.29498 14.506
7.44566 9.95462 9.57931
-2.32944 -7.94855 -4.34917
0.821604 3.38941 5.92893
-8.03881 9.89056 -1.12083
-1.50218 9.83679 9.88186
2.25173 -10.0097 8.07918
-8.2071 -6.39824 -4.36193
-8.08941 -4.14658 9.81468
-8.2047 2.10741 -6.12875
11.8106 2.12472 7.94513
-5.35987 -9.93251 9.73172
1.97542 6.99882 11.7481
-1.22329 0.374766 19.0024
-0.108869 7.55655 5.68464
11.6354 9.89679 -6.42108
-5.10199 -1.17276 -15.6744
11.7191 9.77143 6.17469
0.38468 9.89993 -6.06883
2.78972 6.92929 -13.2168
-2.25238 -10.01 -8.51949
9.96088 4.34699 -4.12146
4.95397 6.24879 -15.515
7.14847 4.63532 -10.2018
11.5726 -4.99849 3.44426
-2.75643 -4.46328 4.0932
11.472 5.01534 -9.95121
-8.20571 -7.20618 7.92862
9.68673 -5.54352 2.28791
-8.21085 -7.78521 2.64046
7.6408 3.8576 -11.8242
11.7771 9.69194 -2.76182
11.7707 9.6812 0.339001
-5.19371 -2.757 -10.0137
-2.56815 4.67255 -4.14398
10.0822 10.0171 8.25777
3.74989 6.30269 -5.6758
6.20551 -9.91307 4.4566
-0.478547 -6.6482 -18.0693
-8.2088 8.08547 -8.3092
11.6843 -3.98386 -4.77582
-2.74097 5.33229 14.7576
-2.97349 8.22062 -10.0115
11.4745 -9.95866 -1.33397
4.29266 -6.21144 -5.46661
-6.41157 3.29148 -5.02614
7.59441 9.91703 -9.75949
-4.06754 2.75967 18.9951
8.2281 -2.76442 12.4144
-4.74992 2.53221 -17.4817
5.55218 1.26631 -5.88749
-3.63742 -10.0108 -5.94199
5.61929 9.98245 5.11352
-3.63723 4.44079 -18.1151
-1.99336 -10.0071 -6.80084
11.8072 7.91131 5.99146
-6.61282 -10.0155 -4.77361
-8.20552 5.26635 -6.12473
-0.65672 -3.76739 19.0055
-8.20899 -6.07287 5.54031
1.80683 4.86309 -19.004
-4.78304 -2.38583 15.315
-8.20991 4.35936 6.33104
0.733652 6.93309 -12.7476
2.35527 0.143677 6.00823
9.32103 9.85432 -9.89316
-8.10687 9.74799 0.740614
-6.09505 9.92055 -9.81472
-6.91054 -1.68077 5.74473
-3.77377 -10.0041 5.98606
-8.00631 4.73573 9.94811
9.55704 -10.0122 -1.46771
10.0191 10.0308 -8.15141
0.608928 -6.89018 11.2771
5.67315 9.96058 9.67845
-2.6977 -5.81981 -10.0376
11.6198 6.25742 9.90432
6.16272 -3.95204 -19.0076
-8.20638 7.98395 -1.84302
11.8105 -7.85415 -8.16485
4.34508 -6.49777 -18.5399
-8.20408 6.69306 -4.90344
-6.20288 -5.99332 0.370767
7.4575 -4.10839 -11.9368
-5.14698 0.857717 13.9695
-0.511034 4.41019 19.0062
7.33105 8.36765 10.0102
11.8042 -6.78916 4.04652
8.70246 -5.46694 10.0033
-7.90506 -3.33639 -9.96159
3.73585 9.69777 9.96131
-8.0896 3.03842 -9.78347
-2.04099 -1.18577 5.88205
7.01824 3.32706 4.99229
-8.13118 -8.11304 9.69158
11.6988 -2.39366 -5.76324
6.08942 -8.0216 -4.18022
-4.21908 -10.0098 -7.96766
5.71743 -10.0106 8.23577
-2.54848 4.53513 4.24385
-8.22575 8.21067 8.12671
-3.31833 9.78689 -3.31494
9.75548 1.55121 5.78302
9.58651 -9.78405 -9.9119
8.1275 -10.003 -6.97288
4.21908 0.866598 5.95147
3.46895 4.83774 19.0045
-8.07459 -9.83752 5.37356
0.488109 6.93136 10.307
-8.20806 -8.0224 -3.4423
6.47718 6.53357 9.99532
11.8049 -7.60956 -6.41239
6.41554 5.26958 -14.0494
4.1688 10.0161 -8.64895
11.4975 1.08398 9.95998
9.42919 -4.68312 3.73699
10.1699 7.13706 -10.0114
-4.5734 2.89198 -13.8761
-3.10238 5.01625 -16.2046
11.8069 7.97635 -5.4563
-1.95913 -10.0081 6.81084
5.04098 3.67287 19.0053
11.8131 -9.48555 -3.11659
-2.40935 9.75203 -4.38791
-2.82799 7.34477 -3.82063
-7.85264 9.98949 2.63773
8.68415 -1.28445 -13.0326
-6.36617 -10.0077 1.0662
11.7689 2.75477 9.73573
-4.78966 2.34607 -11.8526
-8.20706 -3.51191 7.90543
-0.301556 -4.40565 -5.61565
8.57056 -10.0033 -5.04047
-8.21614 0.557116 7.98079
-7.76366 8.34619 -10.0052
-8.21972 6.17462 2.42882
11.808 4.57807 -8.34166
-0.141119 0.908261 -5.94253
-6.05052 4.19317 10.006
-4.58189 2.86755 13.881
-8.21146 7.89719 0.0890564
-1.5549 6.14706 16.0117
8.98436 0.290118 -10.1238
-1.7409 -9.75345 -4.91744
0.907463 -6.80767 -18.823
-8.20648 -2.30468 -6.11543
11.8047 -3.53424 -7.5127
3.25543 -6.17892 5.83021
-5.65538 8.037 10.0078
6.48532 -3.51837 19.017
-0.580262 -9.91116 9.85583
11.8078 -8.2745 3.23489
7.8787 -10.0074 7.70199
10.3988 -10.0193 -3.62882
11.8101 0.201182 8.09449
-8.2176 -8.39939 -0.480928
-5.7876 4.7449 3.6797
0.177836 2.52714 19.0033
-3.45209 0.913049 -5.94119
7.62162 -3.89962 15.8647
9.84808 -10.0139 -7.98874
-3.19436 2.98522 -5.21329
2.74419 -7.40293 -5.92336
11.7291 6.08926 -1.41959
7.4085 -5.29166 2.95119
-6.61185 10.0233 -5.31404
11.65 5.13838 3.40214
-4.67909 -2.61714 11.9764
6.80388 -4.9009 -15.8044
7.7542 9.97818 -2.19957
3.89197 9.44594 -9.98557
1.00478 10.0106 -8.01239
-8.20586 4.58452 8.13042
9.1742 5.44344 -10.0032
10.1278 4.3005 4.16819
2.03316 5.33972 -6.01249
11.8042 -5.54675 -7.84683
-3.37037 -4.41953 -4.0563
11.7739 -9.68913 -5.20376
-2.54411 4.74234 18.9689
-4.21797 3.59669 -16.098
7.22353 4.41827 12.0403
4.51093 -8.04654 -5.35169
-0.124317 -9.93886 -5.94891
4.84266 -6.53132 10.0983
-5.25826 -9.80791 -9.9078
-4.15304 -10.0033 -2.7034
-8.20966 -7.65569 4.3492
-6.57955 10.0177 -7.81757
3.93655 4.43015 -5.60952
-4.67937 9.88868 9.85027
8.33454 -2.55113 -17.0423
8.19179 -8.16642 -10.0076
1.46512 6.89846 18.7602
11.4588 9.97821 -1.2641
-7.77027 -9.93287 9.72212
9.16154 9.66554 9.92746
-6.15073 -4.5442 10.0053
-0.232533 -10.0142 -8.02273
-7.92013 9.97721 -9.3414
1.38761 -4.27745 -5.98606
-6.46891 -2.3416 -5.51748
2.89142 10.0122 7.97083
3.99707 6.66803 11.6294
9.89525 -6.71041 10.0084
7.06213 -4.62206 -13.8875
-1.38275 3.50753 -5.09657
-1.00422 6.41767 -12.754
6.06304 5.57297 17.0792
0.620054 3.02071 -19.0039
11.7625 -0.870796 6.17659
7.63252 0.871665 -5.94638
5.07458 8.31408 10.0142
2.65899 -6.61798 -18.9516
-1.16635 9.76382 5.28463
8.57351 -1.80358 -15.0869
-4.17274 -2.72132 -18.9631
11.5969 -0.973136 9.90566
6.01905 -2.88506 5.25281
-8.10559 -9.7888 -7.90944
-4.49135 -5.96888 -10.0031
3.96765 4.86514 -19.0084
7.07903 4.60405 15.6699
-4.96322 -0.49482 -18.895
-3.45554 -3.87456 18.9959
3.01202 7.29298 10.006
-4.922 1.46025 -18.831
1.6557 -6.74283 6.0064
-3.5975 4.4592 13.3923
-8.21092 -7.48002 -1.8019
2.56125 -6.95941 -15.0289
10.2059 10.0101 -4.5859
-5.92338 -3.96601 -4.51013
-8.1734 -5.8974 9.64797
4.58365 10.0142 7.87729
10.2921 -0.0847249 5.99509
8.41743 -2.28954 -11.5439
-3.92361 6.7613 -10.0018
-3.64812 4.39654 -14.421
2.88332 10.0193 -7.54276
8.98436 -1.3718 -10.0467
4.52869 -6.34164 18.7221
-5.19212 -0.327178 15.4763
-8.21434 2.05819 -8.16469
8.76163 -10.0081 -3.28718
-4.16531 6.20468 -1.02137
5.76041 6.39015 4.50446
-8.2078 6.48593 7.88632
-3.78338 7.90689 -2.17289
6.08537 -1.96034 -19.0056
-7.60395 -1.74159 -9.98543
9.79695 -3.39657 4.92542
-3.37068 -4.73949 17.4963
-1.51157 8.09224 -5.00427
6.10266 -5.52453 -12.436
-4.72253 10.0184 -8.14344
2.59726 -5.38784 -5.95274
-0.551374 8.30715 10.0058
-8.16379 4.70209 -9.69093
8.44265 -2.23408 14.6074
3.05694 0.106036 19.0018
6.46953 -2.21688 -5.58024
-6.14274 -5.77574 -1.60318
4.12123 9.94409 5.80129
-1.55344 -6.14373 11.9186
-8.20702 -5.26848 7.31223
-1.93048 -10.0151 8.59859
7.77518 -3.95804 4.51873
-2.35004 -7.99644 -10.0064
6.77455 -10.005 -5.90561
0.878504 -6.81824 18.7411
-6.13213 10.0064 4.34447
-3.12455 -9.85924 3.70308
11.3033 -0.672311 -10.0013
0.0197706 4.55422 -5.72201
-0.00886956 -6.76597 -11.5459
8.10866 3.05881 -17.0595
-8.13484 -0.303786 6.29809
11.8011 -0.902284 -6.30812
-0.296284 -6.68497 13.2736
-1.35776 5.89919 5.10246
-5.89043 3.37113 4.96612
-4.38709 -3.28113 13.7731
-0.239285 6.7039 -14.6689
7.49766 -9.74463 9.9209
-1.03769 10.0118 7.8177
11.7807 -6.88728 -9.69028
-4.32414 3.39257 11.9027
-3.48783 5.6274 -2.86274
3.99564 6.50555 -18.7997
11.8104 0.665221 -8.12275
4.86911 6.2894 -13.5531
6.12843 -8.12418 10.0146
6.0621 -0.495654 -5.9951
3.36297 -4.80866 19.0134
3.9563 9.88447 -5.77938
5.92206 5.63868 11.2205
-0.244251 9.95292 -9.69146
7.96759 -3.0447 18.794
-6.28424 -8.39089 10.0219
9.72005 10.0053 -2.47266
6.78178 9.92178 3.91742
0.706317 6.73402 -18.815
8.99582 1.65714 10.0074
-1.4463 5.99584 -5.0509
9.89111 -1.76242 5.73685
4.22674 -0.933788 -19.0043
-6.51641 9.71745 9.94591
2.03945 9.93867 -9.6903
6.06211 1.85554 19.0035
2.5304 8.2235 -9.99131
-5.19694 0.295658 -14.8732
8.33012 -2.5498 16.8766
9.78599 -2.64863 -5.38938
-5.81986 -10.0035 -6.48761
0.389205 5.33321 5.83465
-8.09684 6.55591 -9.79693
-8.09017 -4.50498 4.38191
-8.12013 0.664933 -6.14031
11.8178 6.66909 2.44163
-4.18262 7.93583 -0.0319575
4.86577 -10.0069 -6.6276
6.72228 2.66215 -5.38337
-6.27813 -10.0253 -8.29146
6.34731 -5.32744 15.4894
11.8029 -4.7995 6.82327
-3.73325 -4.2983 15.5672
11.8092 -1.6717 7.96615
-5.08717 -1.24863 13.6395
-8.20471 6.15312 6.02433
-3.77467 -2.11485 5.62427
9.59326 1.85636 -9.99633
11.6839 9.81372 -8.29806
11.8057 6.38379 4.56908
-6.66678 -6.61411 10.0137
-8.20884 3.84966 -7.61113
8.35913 10.005 -4.42164
2.26438 6.99468 -11.5083
7.451 8.19646 -1.97731
11.8054 7.60457 7.87343
-2.98486 5.13054 16.9333
-7.87815 5.99872 0.736053
6.83295 -0.116099 -19.0045
7.32127 -4.28845 12.0436
-8.20399 7.65655 -6.4421
7.77157 -6.97422 0.334548
6.01788 5.19159 -18.9701
0.392737 6.32258 -5.8385
11.8095 -6.41789 8.16345
-8.18363 -3.38172 5.52795
2.05088 3.51677 -6.01104
11.5348 -9.9435 4.18328
8.32731 2.52525 12.0149
0.104262 8.06752 -5.75509
6.01295 -10.0104 -7.98543
4.55997 -9.87239 5.46746
0.653403 8.63769 -10.0065
-3.77729 -4.23456 -14.3165
8.12505 -3.00262 -13.5158
11.8128 -4.54983 9.02474
-6.30634 -10.0143 8.17452
6.19172 5.45388 -16.0755
-2.81529 -6.15834 -3.82144
8.14644 4.39779 4.07249
-8.15149 -9.68713 1.5872
3.69691 -10.0077 -8.12645
11.809 -8.17371 -0.846529
-8.2048 -4.44995 -6.31158
-4.51086 1.64093 5.77794
9.80076 10.0102 -0.131123
-4.77743 2.79013 10.1156
-0.15399 6.54544 18.872
-2.56243 -7.9803 4.11462
-4.84546 -2.17804 -11.817
-1.00923 -9.60596 -9.97151
-4.23685 -6.05485 1.29509
7.46478 7.76367 1.93694
-8.06922 -5.08046 -9.82893
11.7479 4.03074 4.89249
-2.12409 -6.12172 4.53759
3.96149 -9.98747 9.41994
-7.90306 9.96512 5.90885
4.36564 -4.50941 5.42656
2.68957 2.28796 5.93051
-2.90077 1.16335 -19.0048
-8.17691 -9.72103 -2.11692
7.08251 -4.77152 10.2379
-6.07059 6.10303 10.0087
-5.04668 -1.53566 -17.5511
-3.41504 -1.06028 19.0107
5.68985 4.41636 4.58096
-8.20463 -6.2906 -6.12271
7.77726 7.97692 -0.0554036
-5.19282 -0.400288 12.0525
8.79178 0.689499 17.4821
-0.243766 4.66406 -19.0046
5.07434 7.92099 -9.99738
-4.3044 3.97316 4.49281
11.808 -8.27313 5.40148
5.24034 -1.08525 5.90562
-6.56716 2.19531 10.0047
0.301925 -6.85179 16.8876
-8.21492 5.89705 4.2896
11.5182 -9.9793 -9.2795
3.38915 7.94666 5.78761
3.59069 1.3501 -19.0051
6.77695 -9.91213 -3.72835
0.0319994 6.78898 17.0113
-4.82639 -6.39186 10.0026
5.96238 -4.47998 4.33109
2.38332 6.78563 -18.9407
8.71806 1.09177 15.8016
-8.20697 6.01868 -7.89896
11.8063 -5.52889 5.24116
-1.25711 6.29283 10.656
-7.89791 -3.41624 -4.96396
-8.13381 9.73089 9.57696
9.30436 10.0047 2.16288
11.807 -8.05163 1.4034
-8.20822 7.96713 -3.74089
5.41308 6.00234 15.1249
9.5572 5.94491 0.777995
-6.2697 10.0101 -3.07655
-3.65802 -4.41159 -18.1468
-3.63015 -4.4348 -16.2627
9.42129 10.0048 -6.29503
7.52902 6.57965 -9.99949
-1.24568 9.93964 -5.48676
1.36587 4.95206 19.0054
8.06894 -6.23083 -10.0015
6.99111 4.72948 -17.3814
5.27208 -9.68315 -4.93022
5.64988 9.86388 -9.88019
-0.846874 -6.49144 -16.2669
3.99165 -1.68265 19.0026
-1.38305 -0.457124 -19.0036
-8.09855 -5.73647 -2.40618
8.17447 -3.40688 10.0893
-3.05503 0.842201 19.0045
-2.68988 5.37186 -13.3691
8.00774 -10.0033 5.31881
-7.89555 4.25552 4.28002
4.05554 1.9757 19.0028
4.96808 7.97283 -5.08048
6.66747 -6.31353 9.9932
11.8054 6.36795 -7.25614
-0.106051 -1.71299 19.004
11.6442 1.1603 -9.89003
6.37184 4.99865 18.8729
-4.01892 3.90428 15.6548
0.999545 -5.10994 -19.0039
2.41427 3.40065 19.0026
-8.18469 1.26429 9.70729
-2.40377 5.27333 -18.8584
9.71073 -4.22246 -4.25098
1.04482 -9.95107 9.69374
5.6077 6.01546 -10.2017
-4.39819 -6.06062 -0.571044
7.56542 -3.97083 14.0688
-8.19928 5.94291 -2.94804
2.00351 -3.15027 19.0037
4.2472 -1.42112 -5.82875
3.86413 0.357672 -5.99936
-8.15469 9.73881 4.31769
6.61499 7.89881 3.57259
6.82707 9.85648 -3.51909
8.00466 -9.90364 -0.295374
11.8045 8.04033 -7.59694
11.7596 -4.00532 -9.78274
4.01976 3.78645 5.56425
3.40156 6.8292 -14.8578
3.33313 -6.84891 13.026
-3.36437 -9.93646 9.76811
-2.62343 -5.4247 -13.4649
0.726457 0.286068 19.0019
-8.03878 9.92442 7.62883
-7.2797 5.30922 2.81092
-2.91442 5.17331 11.8178
-4.59529 -2.83996 -15.5886
3.22678 -8.24652 5.81654
11.6988 -2.52739 5.73005
-8.11616 6.28651 9.83059
-6.68102 1.57924 -5.77467
11.6832 -9.76158 -7.12288
-8.21591 -1.7814 -8.11542
8.72101 1.26711 -17.3195
-2.302 5.66733 -11.6955
6.0425 -5.17275 18.9659
11.5394 -5.8904 9.91761
9.23693 5.30129 -2.80757
8.18211 10.0113 -7.93153
11.8029 3.94385 7.40289
4.30347 6.54647 16.9475
8.05756 3.30225 10.2562
-3.83348 -5.87819 -2.20113
-4.99308 1.39312 18.7769
-1.19451 -5.64391 -18.998
-8.12106 6.11128 -1.11613
8.57624 1.78515 14.0939
-2.17566 7.43652 10.0025
0.335481 -0.803066 -5.96001
-1.86312 5.97169 -14.9978
-6.31388 -6.48093 -10.0199
3.52321 6.81005 -16.7715
-4.10019 6.3028 1.33167
5.52538 -9.80317 9.9752
2.84016 3.22032 -19.0025
8.17002 -5.89398 1.13004
2.08701 -2.42215 6.00731
-4.43562 -9.86895 0.382732
-3.47342 -4.59973 12.0193
4.2389 -6.57249 -16.029
7.96241 -9.96105 1.55149
-5.13807 5.44984 -2.52489
9.84098 5.88981 -1.10932
2.31936 -0.58 -19.002
-2.29414 -5.72507 10.3362
-5.18532 -1.29088 -10.156
5.99665 -4.1266 -4.48508
-4.1226 -3.73373 -12.4679
11.6713 -9.80477 0.495069
3.63925 6.76901 13.3446
-1.68967 6.06961 13.1156
11.5208 -8.42516 -9.963
-4.59619 2.86781 17.2384
-1.73406 -8.72307 10.007
2.22866 -7.15839 10.1156
-7.9099 -9.93959 -0.30162
1.49742 8.34545 6.00226
-5.16164 -0.787635 -13.3472
3.34657 -9.6873 -5.8438
-1.82436 7.86774 4.7834
7.2837 -6.99624 2.40105
9.18001 10.0042 4.06695
7.57618 -9.87435 -2.14903
10.821 5.64375 1.99271
-5.38328 0.548912 -5.99442
-2.25618 -5.73296 -17.4555
4.97431 6.00764 18.7998
-8.15235 -8.41066 -9.59925
8.49414 -0.150921 18.9572
-0.870195 -6.46964 -13.0285
8.13909 -2.37223 5.51972
7.38584 4.77603 10.057
-2.07702 -5.83495 13.7559
6.34167 -10.0054 6.449
-6.32177 1.93054 5.69368
0.648487 -6.91182 -14.9701
-4.83458 10.0127 -4.35932
-3.10745 8.25635 3.43211
5.58151 -5.90099 -16.9251
-7.90273 7.91484 9.97869
-2.06223 9.86852 -9.77139
4.41047 -6.49756 -14.0204
1.81841 -1.38544 19.0035
-0.79545 -6.50377 15.2979
-2.92638 6.49216 3.68693
-8.2065 2.65329 7.68527
-2.00031 6.26796 -10.0222
-8.20635 0.167966 -7.954
5.24292 6.1137 -17.6201
7.51151 4.07559 17.4077
1.07319 -6.9652 14.659
4.00027 -2.75117 5.59743
4.2312 -2.84196 -19.0043
-3.56932 -7.48534 2.67672
4.6537 6.56285 10.1164
7.34279 -4.34574 17.6884
0.689096 -6.28681 -5.91069
5.94282 -5.65617 17.2942
2.01838 9.95024 9.75174
9.21587 5.31066 2.79984
9.39021 -9.98695 9.52805
7.87631 6.20468 0.215689
-0.857007 1.64067 -19.0056
5.19116 -9.9147 -9.76102
5.25686 2.46505 5.46516
-0.98498 -7.62202 5.32648
7.77349 10.0031 5.71132
-8.11481 -4.64973 -4.07542
0.975143 10.0085 7.87537
-8.1535 -6.85508 -9.70778
10.2701 2.76898 -5.31747
6.32833 -5.341 13.4372
0.940049 -2.53412 -5.94174
7.92504 9.88842 -0.63837
8.40353 2.3767 17.7076
-2.88014 -7.26306 10.0012
11.6717 0.993776 -6.07254
11.7866 2.76044 -5.66194
-0.161074 6.7353 -16.6726
5.23518 0.121108 19.0038
8.4903 2.05733 -11.4405
-2.2934 -5.31089 18.9745
-4.00675 4.43589 10.0471
11.7306 4.51262 9.69517
2.83281 -6.92756 -13.1515
8.76718 -0.852375 16.4512
-3.8862 3.11677 -18.9741
11.7919 -5.41781 -3.55866
8.79117 -0.40625 14.3867
-4.93749 1.93764 -15.5432
9.66746 0.884033 -5.9467
9.52743 -10.0044 2.9469
-5.99309 -4.78808 3.62407
-5.36946 -2.46755 5.47226
-1.32169 -6.13871 -5.12701
-4.26544 9.97075 -2.15782
1.63709 -6.99477 12.7224
-1.24167 8.17287 -10.0079
7.44808 3.82988 -18.8827
-0.281928 6.68595 -10.4374
6.43313 -1.31997 19.0091
11.8157 -8.33076 7.67279
1.59087 8.2704 10.0003
-4.25831 10.0051 5.31175
11.805 -3.25175 7.52117
0.173825 -1.81119 -19.0024
5.22425 0.721912 -19.0026
0.760913 -8.20803 5.93241
3.01175 -6.89743 14.7775
1.69765 -10.0137 -8.20382
3.27654 6.68418 18.8446
-5.20966 0.137231 -11.6797
0.581541 -8.07555 9.99686
-0.962381 10.0099 -7.66695
9.63513 -10.0071 7.10994
6.35903 10.0085 -8.16942
5.41444 5.99943 13.0631
11.8059 -5.45231 -5.81955
7.0972 -9.71844 -9.95524
6.33363 10.0052 7.3606
-8.15236 9.58189 -5.20406
11.7622 8.09713 9.7236
8.64286 1.48593 -15.5207
1.69469 0.910431 -6.00338
11.4869 -9.61593 9.86508
-4.87788 2.47028 -5.4742
-0.556189 -2.33855 5.59018
-3.50389 -1.07478 -5.90507
11.7777 9.75647 7.97768
11.0483 9.72568 -9.96828
2.35365 9.90774 6.13771
7.75252 -4.48461 -3.97723
-3.87503 4.09253 -12.1916
4.86758 -2.93877 -5.30708
11.8055 -7.45896 -4.53506
7.73877 -8.19011 -0.859157
4.97358 3.1734 -19.0034
-0.717881 -6.11649 18.9827
-3.27544 4.88169 -10.2672
0.959939 -6.95637 -13.2976
0.461029 0.0766603 -19.002
8.79453 0.124579 -14.1803
6.16087 -6.44048 4.11994
1.18971 -8.27218 -5.95932
-5.09985 -0.409898 18.7786
-5.09841 1.19121 -13.3119
-3.30479 10.0112 -5.89321
-1.83738 3.30306 -19.0042
6.63166 -8.30918 3.53956
11.7923 6.57021 -9.52679
2.81035 -9.78484 -9.93709
-8.20489 -7.83401 -7.48247
-8.2086 -3.75712 -8.04514
0.287153 9.97049 9.72486
-4.22927 6.68948 10.0023
-3.82846 5.36827 2.88289
-6.41972 -8.37644 -10.0271
-4.66527 -2.49354 18.7611
8.82595 -5.37362 -2.65489
-3.817 4.17523 18.4875
9.68496 5.26845 10.0046
-3.07199 2.85165 5.27095
-6.65804 5.21895 -10.0186
-4.40612 -7.89855 -10.0134
6.1901 -7.75247 -10.0059
-8.21431 -2.03734 6.46042
8.58934 2.61177 -5.40556
11.8029 5.70975 6.23871
-6.54457 -3.54064 4.84112
3.64649 6.92585 -10.09
11.8054 6.19146 -4.92463
11.6504 2.56205 5.65845
-8.14702 -9.692 7.67241
-5.80161 0.0853075 -9.99298
-3.27469 -9.64657 -9.97904
6.01877 -5.48926 -18.6842
-0.718969 -6.76043 10.0835
11.778 -6.37454 0.286049
7.78881 9.78369 0.943941
-2.21984 1.31596 5.8527
2.11784 -2.53945 -19.0034
-4.08412 -7.90761 -1.05555
10.2527 -4.27279 10.0122
-1.19074 3.69154 5.21249
6.24032 5.40943 -12.0544
9.80645 -8.53472 10.0161
-4.90713 2.01693 15.5601
2.62271 -4.33562 -19.0032
-5.14906 -0.979731 10.3502
-5.82891 5.67151 1.9576
2.8649 -6.93988 -17.166
-3.31077 -4.78162 13.8783
10.2359 -5.97447 0.611251
5.67132 9.93974 -4.94586
-1.6688 -0.439317 -5.9935
11.8064 8.08914 1.28293
-0.51509 2.06697 5.67657
7.63479 3.87637 -13.4459
2.02489 -7.00968 16.484
6.85404 -4.90936 -10.2944
2.2791 -4.52249 5.9895
11.5364 -5.54046 -9.8723
8.51481 -1.60206 18.7033
11.5587 -9.92791 6.16652
-6.49513 -10.007 4.49365
-3.87148 8.01319 1.86599
-3.35893 8.65398 10.0183
6.26863 0.74916 5.96526
-8.16893 -9.75297 -4.15009
10.1213 -0.832648 -5.94407
4.20371 -4.45838 -5.49627
-8.12585 9.78806 -3.20148
11.8044 2.59214 -7.63333
-0.0489146 -3.68523 -19.003
-5.21711 8.41283 -10.0136
7.77145 5.99477 -1.51417
7.94554 -3.0767 -5.15639
6.72412 4.9743 13.8605
4.24261 -8.53553 -10.0108
-3.63007 -4.94424 10.0413
11.7608 8.32757 -9.68147
8.71818 -1.08076 12.3687
11.8055 7.66106 -3.12314
8.05076 4.07498 -4.40264
-6.04659 10.0185 8.19974
-7.80363 -2.45144 9.98377
-0.679996 0.026961 6.00112
11.4174 9.9814 4.44689
-0.00210943 6.76637 12.3329
3.47117 -1.00686 5.92246
-1.99816 -2.08866 19.0025
2.31007 -0.936502 -6
2.3866 6.9988 17.0936
9.71612 -10.0075 4.99038
-1.90198 -2.75357 -19.0039
0.296369 9.87858 6.04088
-8.1666 -0.321087 -9.74065
-7.9746 -9.90494 3.30517
6.90217 5.41955 3.2783
-3.82548 9.97439 2.96729
9.8148 10.0064 6.14301
0.625219 -3.75471 5.89005
11.7286 9.72055 2.83992
11.5327 -3.85194 4.65596
-4.16951 -9.73295 -1.26997
8.23566 -1.75809 -18.9985
11.8068 -1.389 -8.06493
11.8073 8.10141 3.84505
-1.86472 -4.22202 -4.75706
8.15713 2.94205 15.7863
8.79509 8.1534 -10.0157
9.91188 -7.28899 -10.0085
9.95294 7.66646 10.0076
8.47163 -0.109518 6.0042
-3.9754 -4.12852 -10.2868
0.0668909 -5.87531 5.74081
8.11262 -3.59708 -10.0876
2.50248 -9.5702 9.97004
-4.26395 9.77041 -0.581108
0.882138 -9.68096 -9.96481
5.78237 4.06285 -4.55889
7.88028 3.47462 13.7742
-3.16796 -4.92244 -11.6247
6.97583 5.0568 -3.31529
-6.05835 10.0072 6.31786
2.04462 1.67914 19.0022
1.63972 -7.00388 -11.5658
8.79024 0.143883 -11.9646
5.07432 8.07894 5.01247
5.77183 -5.76933 -14.6982
-6.09418 10.0121 -1.15922
1.69849 1.44632 -19.0035
11.4339 -9.97756 8.14377
-6.36763 -10.0104 -2.85887
-5.17107 0.731849 16.9656
-6.34132 3.25985 -10.0123
1.89318 7.50248 -6.0154
0.991335 1.18791 5.96734
-2.91487 10.0102 8.97102
3.36041 -6.84014 11.0945
-4.56387 -2.9292 -5.24511
-8.04262 -0.682999 9.7799
5.21175 -8.16708 4.92633
-1.90231 5.9573 -17.0242
4.20946 -6.84449 -10.0364
-6.91353 5.35144 -2.69845
11.803 -6.78865 6.42239
1.72952 -9.95866 -6.34607
-5.52237 5.98052 0.317749
-8.05002 -5.97863 1.47182
1.60746 6.99657 13.744
9.50198 -5.93732 -0.879977
-1.10679 -4.41954 5.2584
2.3643 4.53762 5.98571
11.6903 -2.92704 9.69961
-0.300206 6.68708 14.5237
-2.38707 -5.61232 16.02
7.22392 -9.91065 3.17322
-4.40698 -8.33472 10.0152
8.80322 -0.338855 -16.0766
-3.48362 -0.000356003 6.00154
4.346 -4.76743 -19.0053
8.20178 2.14392 -18.9367
11.6965 6.14995 0.449344
3.99331 -8.28354 10.0042
-3.49479 -7.98554 -2.8168
-5.18229 0.945602 10.2835
7.73754 1.84905 5.71391
-8.1733 9.72457 -7.11313
-3.87206 -9.6827 2.12182
8.61941 -1.76445 10.3997
-2.86169 10.0099 -7.7246
-0.142205 -9.93369 5.8577
8.40351 6.76336 10.0051
7.1463 -7.74392 -2.71933
-2.77742 5.61092 10.0842
-2.76788 -2.70635 -5.35256
6.93691 6.75883 -3.1025
3.06022 2.04967 -5.84014
5.64316 -5.93763 -10.2285
-7.9356 2.93032 5.38389
-5.72848 10.0084 2.59392
-6.10729 -4.44671 -10.0061
7.03404 -5.67044 -3.02015
10.1487 -2.24929 10.0063
0.181529 -10.0089 7.69837
11.7528 -2.37795 -9.67335
-2.61015 -4.7027 -18.9874
2.01123 -9.91637 6.20472
10.5069 -5.36092 -2.64259
-4.28319 10.0064 7.53314
8.30032 3.18309 -10.0738
9.42926 -0.2145 10.0037
11.8069 5.71504 8.11559
-6.07609 6.97098 -10.0128
9.68096 -4.94733 -10.0047
1.3565 6.98603 15.6058
8.76268 0.793051 12.8183
0.536399 -7.47983 -9.99456
-5.23166 1.69888 -10.0801
-0.660852 -7.96677 -5.47241
1.12238 -6.98105 -16.754
-5.01889 5.15345 -9.9978
2.85536 -2.93516 -5.90454
8.75948 0.463644 11.2472
8.18679 -1.04524 -5.91404
3.45189 8.22539 -5.75906
-4.14699 -7.91845 0.749499
10.0035 -2.80724 -10.0046
-4.33312 9.88695 1.0991
-2.59215 10.0064 6.60025
1.75269 7.01812 -17.1082
7.31053 9.7541 2.5319
-8.13803 3.05508 9.70251
-7.81283 -0.675996 -5.99012
-5.07087 -1.37805 17.1103
-6.37011 5.91919 -1.00175
4.36721 6.5153 -11.8062
0.334574 2.60949 -5.81753
4.62431 2.76949 -5.36936
8.53388 1.95497 -13.3049
0.842834 -1.0892 5.94823
5.08472 10.0051 -7.01869
11.8054 4.64663 -6.41734
4.81448 -6.31247 12.484
-4.36928 -3.51948 10.2204
1.27013 7.05 -10.2378
-4.47151 -3.15162 -17.3146
-5.13454 10.0046 -6.36264
-5.46714 -1.03272 -5.91685
-5.03223 1.56281 12.1648
-0.942912 -2.39266 -5.52856
1.12156 -4.89282 19.0056
6.43214 2.03947 -19.0106
2.37034 -7.41123 -10.0111
-0.904466 6.33458 -18.7239
-1.70202 6.06941 18.4418
2.03963 9.70031 -5.98256
11.8065 -7.48417 -2.66644
-5.46279 -2.40011 10.0028
-1.12796 -6.35693 -14.5232
7.79191 -3.43301 -18.8226
-7.94103 -9.88222 -6.14438
2.04634 6.4848 6.01662
11.6587 -6.01795 -1.44235
3.33532 -6.83982 -11.4575
6.98986 -1.03746 5.92295
-5.07475 -0.661678 5.98318
4.76127 -6.4503 5.22991
-4.46612 3.40808 -10.1046
8.78299 -0.792234 -17.6524
8.10388 -7.71024 10.0057
