1.47139 5.72707 0.454054
-3.18473 5.89209 -1.06994
-2.76578 5.37069 -1.3733
0.717627 5.55708 -5.29873
0.659976 7.04405 -4.61324
2.38581 5.03353 -0.930707
-1.26467 6.83305 -2.95462
-2.21937 6.98067 -3.12315
-2.83758 6.28988 -0.907553
-2.57096 4.94849 -2.55979
0.49594 6.68257 -5.22308
-0.0403456 6.15972 -3.42272
-2.89196 5.38503 -2.15651
0.691894 5.00626 -0.204786
-0.554573 6.51333 -5.30113
-2.18771 6.56207 -0.278216
0.705576 6.44625 -2.86883
3.1232 6.42209 -1.78752
-2.99076 6.56208 -2.87756
-1.88207 4.87388 -4.31146
1.48614 5.25685 -1.92469
-2.25799 5.25366 -0.592056
1.16613 6.36671 -2.28316
-0.090447 5.55674 -5.336
0.0547235 5.94902 -1.03713
1.32308 5.2949 -5.15778
-2.8419 6.68786 -2.47752
0.50478 7.02848 -0.648729
-2.92643 5.45904 -1.75217
-1.22886 7.12675 -0.260085
0.85542 5.96936 -2.92968
0.674139 5.76513 0.779687
1.37915 6.42488 -4.92215
2.09371 5.72101 -0.000748391
0.324372 6.98652 -5.16983
1.59082 5.10498 -1.54297
1.78259 7.19781 -4.16709
-1.14578 5.13706 -3.35358
-1.55207 6.02621 -4.93686
1.38767 4.75792 -3.31269
-0.658827 5.28832 -3.09572
-1.28816 6.52215 -2.60511
-1.45185 6.55779 0.352342
-3.38704 6.12843 -2.16856
-2.74688 6.11457 -0.555583
-1.78561 4.69327 -1.3883
0.251236 6.47599 0.83952
2.41087 6.53794 0.0193529
-2.49647 5.05121 -3.40447
-1.15494 6.83761 0.422881
-0.799638 6.86629 -5.21357
0.0946023 6.43233 -1.0521
1.07696 6.52109 -2.74696
-1.44367 6.67281 -2.30446
0.542538 5.05077 0.718192
-0.172022 5.01513 -3.90342
2.19768 4.69715 -2.12048
1.63318 6.98837 -0.603997
0.87251 5.98995 -2.27317
-1.87781 5.07696 -0.572031
2.47063 5.18234 -3.27857
1.48331 7.06499 -3.7712
-0.0930037 5.78084 -3.42088
-0.407591 6.41021 -3.38441
-2.1849 6.17136 -4.5321
1.32786 5.05168 -4.25026
-1.06487 5.45554 -1.39937
-1.25145 7.0143 -3.94215
-2.22511 6.87404 -3.58276
-2.1901 5.07242 -0.964352
-0.167266 6.99483 -4.03114
-2.54027 6.68296 -0.958222
2.35624 5.51065 -4.5736
0.978936 5.0509 -4.44987
1.83046 7.28017 -1.67259
1.36273 6.95428 -0.263158
-0.109446 6.13346 0.854632
2.32942 6.88955 -1.15565
1.51969 5.25137 -2.33655
-1.47884 5.04999 -1.50925
2.67769 6.46943 -0.25919
-1.54143 5.05191 -3.29357
0.719238 5.12003 -0.878633
-1.35174 5.24183 0.400599
-2.05074 4.68247 -1.72649
2.23931 5.14389 -3.60117
0.263288 5.02042 0.35796
1.26418 7.08622 -0.738286
-1.49392 4.71712 -1.14121
-0.812944 5.47404 -2.79647
0.97558 6.65165 -5.06313
0.661107 6.98992 -4.19844
2.61401 5.34874 -1.01895
2.62875 5.58478 -4.30618
-0.490752 6.56135 -1.35611
1.81697 5.8139 -4.86721
-0.751001 5.12969 -3.43622
-2.53897 5.29579 -0.989775
1.00383 6.83015 0.727444
2.95594 6.53567 -1.41513
-1.95645 7.30272 -2.36167
-0.193971 5.17625 0.872865
-1.1524 5.26144 -2.98615
-0.322444 5.77955 -1.057
-1.64946 5.84597 0.517196
-0.54935 5.23634 0.875471
-2.81882 5.74243 -0.388558
1.00263 6.70511 -3.15063
-0.183186 6.15983 -5.3285
2.02061 7.29663 -1.99928
2.63856 6.73595 -3.1886
3.13114 6.39772 -2.20422
-1.0779 6.12757 -2.4983
2.86327 5.47091 -3.32955
1.33445 7.0975 -4.14295
-3.14841 6.44188 -2.46758
-0.331272 5.12809 -3.38136
1.76353 7.12092 -3.45548
-0.254899 6.265 -1.13068
-0.945234 5.14279 0.351572
-0.605276 6.87665 -0.709047
-0.841452 5.89141 -1.49866
1.16821 5.30574 -1.5217
-2.44637 6.59702 -4.381
2.09958 4.69653 -2.48531
-2.73853 6.51875 -4.05913
-2.47347 6.16389 -0.270879
-1.33341 5.13196 0.0385345
0.541735 6.91248 -3.80663
2.02488 5.1443 -3.91293
0.260196 6.98119 -4.22366
1.69133 5.08484 -4.08471
3.19664 6.27473 -1.12637
0.17301 4.99215 -4.08487
-1.39369 7.11335 -3.48009
-3.04548 6.49221 -2.05261
1.94589 7.22805 -3.88913
-0.155157 5.06226 0.431863
-1.31889 4.94288 -4.29239
2.21896 6.93327 -3.84175
2.36438 6.2244 -4.23858
1.73255 4.86132 -0.0987589
-0.234938 6.97569 -3.49201
2.89065 6.40297 -0.542038
1.84222 4.97007 -1.96376
1.66596 7.09976 -0.977847
2.82315 6.68467 -1.88498
2.90955 5.44357 -1.82541
1.39367 6.78244 -2.94209
0.557918 5.16108 -5.29946
0.689634 7.02371 -5.06122
0.507162 5.34533 -3.43601
-1.76839 7.27554 -2.70608
2.45504 7.04155 -2.95743
2.84184 5.64023 -4.03138
0.905336 5.1187 -4.90802
-2.0603 7.31375 -1.98556
-3.07202 6.37858 -1.64993
-1.84645 7.038 -3.43175
1.46107 5.65949 -5.08159
-2.58842 5.01239 -2.16095
0.59223 6.13129 -3.18194
-0.883766 5.68097 -2.48976
0.9635 5.2102 -1.17661
1.66704 6.83118 0.0670054
1.43801 6.03383 -4.99886
1.82142 4.90568 -1.15219
-0.188676 6.76218 -1.12944
0.959064 5.02517 -0.492819
-2.51463 6.92705 -2.53152
2.43134 7.03072 -2.00893
1.57377 5.03458 -2.7563
-1.38749 5.01298 -0.348153
0.635722 5.37425 -1.42983
-0.193159 6.61394 0.798338
-1.1726 6.34114 -2.14208
1.32407 5.16166 -4.73227
-0.53531 4.98595 -4.74389
1.08588 6.45086 -1.51637
2.90371 6.48886 -2.96061
-1.61892 6.86939 -4.55065
2.3623 5.66909 -0.312001
0.132584 6.94813 -3.75921
-1.96791 6.89487 -3.89628
0.685927 6.5191 0.808533
2.70719 5.99096 -4.015
-1.89314 6.90155 -0.208531
-1.84155 4.88024 -0.982473
-1.7294 6.22782 0.318897
0.589522 6.90038 0.777199
0.684176 6.80712 -3.45622
-0.126736 6.58372 -5.32132
-3.16489 5.72339 -1.87468
1.20001 5.58562 -2.28689
2.1958 5.05847 -0.526478
2.40761 5.36771 -0.599827
0.286352 7.01553 -4.71064
1.02171 7.07179 -4.40367
1.09832 5.87366 0.654966
2.0772 6.73853 -0.0706684
0.77142 6.2809 -1.26753
-2.13754 4.87261 -1.34834
-2.89401 5.56822 -1.02405
2.94183 6.55371 -2.52374
1.69894 5.212 -4.55055
-1.52621 6.94324 -2.6458
-1.61768 7.0029 -3.76949
0.155302 5.11425 0.823879
-2.63558 6.67947 -3.68339
3.02775 5.54935 -2.94772
-2.74787 6.1382 -3.92203
1.80088 5.3587 0.11292
0.311377 5.01128 -0.100042
1.4932 5.28713 0.330801
1.94656 4.87989 -1.56416
2.92574 6.08492 -3.60778
1.04368 6.18436 -5.12767
-2.47987 6.50039 -0.601265
2.83452 5.68135 -1.04305
-0.00811317 5.04922 -3.50126
1.41087 5.09084 -1.15719
0.313035 6.00549 0.848381
3.21032 5.80855 -3.34659
1.69089 6.70291 0.500357
-1.25472 7.17757 0.167581
0.908839 5.22063 -3.31593
-2.98704 6.43363 -3.68892
-1.70829 7.01019 -2.22784
1.63609 6.88174 -2.61812
-0.85056 7.00329 -4.16762
-0.527134 5.03264 0.0503716
0.601064 4.99912 -4.27653
0.371552 5.65061 -1.13944
1.05003 5.52823 -3.02182
2.92808 6.03186 -0.812745
0.921092 7.13404 -1.02104
2.06801 5.27206 -0.199687
-0.998829 5.05437 -3.76076
1.71575 5.36588 -4.99736
-0.526032 7.02916 -3.86518
0.333542 5.83661 -3.39331
2.57733 6.83431 -1.57625
-2.76192 6.59178 -1.30731
-2.18586 7.10479 -2.71149
0.316722 5.52369 -5.34102
-0.0705667 6.5882 -3.42296
2.12494 6.17828 0.157789
1.80763 4.93977 -2.38755
-1.94585 4.90011 -3.14872
2.27875 4.71342 -1.68021
-1.42218 6.41411 -5.0524
0.597856 5.05354 -4.6949
-1.50007 4.88561 -0.718446
0.206325 5.01645 -4.52847
1.75521 6.27124 -4.74241
-3.37018 6.1753 -2.52058
3.05337 6.36226 -0.840653
0.310884 4.97346 -3.55459
2.06252 5.44026 -4.79779
-1.55452 6.90628 0.118742
0.422415 5.20958 -1.18924
1.79358 7.04799 -2.24122
2.29268 4.93897 -2.88212
0.724818 5.67625 -3.25124
-0.130725 7.01247 0.71635
0.0219699 6.93536 -5.25024
-2.10291 6.26847 0.0175182
-0.491022 6.96973 -4.84137
-1.33931 6.18153 0.549239
1.15329 5.48635 -1.90152
-2.35281 6.74889 -4.00713
0.734312 6.1473 0.785963
0.968568 5.22877 -5.24731
-1.38337 5.00682 -3.7376
-0.708599 5.62232 -1.18185
-2.51822 6.79711 -3.30686
0.137733 6.97128 -0.496871
0.460683 6.58428 -1.06033
0.162794 5.07035 -0.998802
3.16035 5.65839 -2.54199
-1.35266 6.89836 -1.13964
2.47492 4.90684 -2.03964
-0.693488 6.74931 0.654861
1.07759 6.19246 -1.91988
2.31637 6.7215 -0.424902
-1.90479 5.35092 -4.52615
0.689694 4.97921 0.222672
-0.657404 6.14527 -5.27471
0.778041 5.55502 -1.69216
-2.24232 4.77926 -3.59283
1.37909 4.9155 -3.78431
-2.14665 5.22252 -4.20288
-3.00664 5.56604 -2.52061
2.20514 7.29406 -2.7762
1.09118 4.94331 -0.0419623
-2.44473 6.96978 -1.37068
-0.559329 5.1151 0.490652
-1.20525 6.95586 -4.36585
0.0284334 5.64461 0.883471
2.40625 6.09127 -0.121245
-2.31522 4.69516 -2.42216
1.17476 5.40166 0.549225
1.80093 6.28106 0.401144
-3.19644 5.78903 -2.27158
-0.997025 4.98574 -5.02882
0.112689 5.1034 -5.30504
-3.02758 5.81794 -0.725769
-2.95315 6.0503 -3.53698
-1.71691 5.15646 -0.204856
-2.84224 5.68046 -3.36627
-2.16349 6.90318 -0.575423
-2.78314 5.25344 -2.58112
-1.12571 6.10461 -5.14154
-1.06193 7.14002 -3.30346
1.64836 4.72761 -3.09419
0.909513 6.0147 -1.60329
-0.97905 6.65276 -1.33583
-2.66855 5.18009 -1.77839
-0.952957 7.06742 -3.71895
1.9139 7.12602 -2.65407
-2.8658 6.60927 -3.28132
2.65935 5.23402 -2.93148
-1.90851 5.86112 -4.66841
-0.211305 6.90291 -0.695867
1.62057 6.98476 -1.85325
3.17519 6.25901 -2.68589
-2.59126 5.41022 -3.6128
-0.387154 6.89862 -5.26613
1.08736 6.887 -3.56397
2.11445 4.76653 -0.813792
0.636659 5.95775 -5.27137
-1.62136 5.6218 -4.8235
-0.504968 6.99301 -4.37605
2.70508 6.66947 -1.14605
-0.298209 4.95916 -0.396664
0.393874 5.46817 0.833237
0.895483 4.99595 0.568087
-1.17154 4.75434 -0.963384
-1.01623 6.47556 0.600852
-1.636 4.90891 -4.01064
3.41023 6.0399 -2.25399
-3.0746 5.66103 -1.41791
-3.17631 6.34577 -3.29728
2.73324 6.78455 -2.25778
0.858247 5.775 -1.99177
2.48097 4.98603 -2.49823
-0.836818 4.80616 -0.864518
-0.18791 5.00574 -4.39008
2.29437 6.58221 -4.05667
-1.8295 6.57027 0.0716541
-1.60405 5.24701 -4.75728
2.60782 6.33415 -3.83883
1.36548 6.76547 0.63133
1.40559 4.92294 -0.376371
-0.454656 6.00088 -3.33057
-2.00702 6.81242 -4.3117
-2.4255 5.44861 -0.296736
-0.645291 5.01857 -5.16566
-1.75325 7.03225 -1.79818
-0.873018 7.12348 0.430514
3.08392 6.17476 -3.16144
-0.679721 4.92921 -0.409853
1.02855 7.07272 -4.88698
0.839804 6.93375 0.383832
0.566896 7.045 -0.963422
-2.33046 7.10815 -2.23503
-0.411136 5.81002 -5.30562
0.965351 4.93506 -3.95548
-2.44247 5.88433 -4.16629
-1.27732 5.33403 -4.9857
0.672945 5.83046 -1.34396
1.89394 4.70536 -2.81445
2.14202 7.30172 -2.35714
-1.03178 6.86418 -0.908878
0.970367 6.96695 -0.0857376
-1.39688 7.07907 -0.654337
-0.188984 6.98279 -0.195783
2.05332 6.62657 0.295869
-2.00422 5.91322 0.285815
-1.05172 5.72393 -1.77872
1.97321 7.09121 -1.24778
0.294791 6.34718 -3.3321
-0.959507 6.98439 -0.510564
2.64432 5.69763 -0.679437
0.822406 5.40898 0.705519
-1.56845 6.76752 -4.97537
0.172751 6.92487 -0.989188
-0.948042 4.96329 -4.5779
-1.24491 5.38038 -2.59635
-1.25149 6.90455 -4.76279
0.704322 4.88008 -3.54952
1.07341 5.73693 -5.19745
-2.10584 7.31503 -1.58417
1.41905 6.91856 -3.32272
-2.67934 5.7761 -3.77367
1.98744 6.84365 -4.2479
0.51956 6.63798 -3.12577
1.49961 4.89146 0.133537
-1.8459 6.31291 -4.8127
1.58746 7.15283 -4.44063
3.39154 5.96449 -2.60046
-1.1747 6.82111 -5.12639
1.9309 4.81089 -0.408185
1.37719 6.87841 -1.55857
1.35931 6.62428 -2.52428
1.50435 6.73442 -2.17997
-0.362923 5.61077 0.893454
-0.387388 5.52848 -3.31861
-0.0882554 5.01504 -0.00711559
-0.608942 6.70528 -3.35694
-0.56119 6.97978 -0.308909
-1.07929 6.3763 -2.90089
2.22366 7.08027 -1.60999
-1.78148 4.89972 -1.77679
2.64222 5.39599 -3.68789
-3.36794 6.06466 -1.84224
-0.822019 5.19526 -1.05894
-1.97758 4.90822 -2.69771
1.64904 4.91247 -0.753738
-1.23156 5.35689 0.754075
3.04148 5.72208 -3.71346
-1.14527 5.59907 -2.16765
1.45266 6.20428 0.559682
-3.17056 5.87263 -2.73249
-3.04695 6.24869 -1.25451
2.81856 5.31861 -2.5823
2.23933 4.73489 -1.2426
-0.505443 5.41005 -5.27491
1.86269 6.86575 -0.353017
-1.72872 7.0701 -1.3871
-0.634954 6.74591 -1.06122
-2.666 5.48905 -0.660583
-1.61655 5.13985 -1.98114
-1.45057 6.70527 -1.93017
0.0836144 4.99753 -0.499946
-1.41169 5.35185 -2.20836
-2.07339 5.3243 -0.12446
2.63296 5.10706 -1.71751
-1.88402 6.71888 -4.80527
-2.3241 5.94472 0.027727
-1.40138 6.78204 -1.53325
-0.100829 7.02904 0.294809
-3.30925 5.98532 -1.48262
0.319831 5.05346 -4.96567
-2.68001 6.8235 -2.10951
2.09587 7.25499 -3.54848
1.20126 4.94424 0.38078
2.52389 5.04073 -1.35347
0.0865645 5.43099 -3.45054
2.98065 5.47724 -2.23374
-1.82216 4.90246 -3.59377
-0.984699 6.46717 -5.21315
-1.60877 6.92754 -4.16531
0.426724 6.1219 -1.10778
-1.98127 5.51917 0.412975
-1.64529 4.90708 -4.57223
1.27849 5.11191 -3.08421
2.71791 5.18634 -2.16327
2.06393 5.28072 -4.34401
-1.10641 6.48812 -1.72944
1.31574 6.56186 -1.86653
2.79253 6.41505 -3.40782
1.11252 6.37693 0.708777
-2.40636 5.51016 -4.0076
-0.697966 5.75667 -3.11647
2.03866 6.42911 -4.44279
2.07669 6.90368 -0.783384
3.38539 6.11459 -1.86057
1.3111 5.40199 -2.69956
0.926783 7.04274 -0.529873
-0.684122 6.36509 -1.59974
0.218815 6.95669 0.771256
0.198562 5.92886 -5.32875
1.58321 7.25015 -1.39918
2.50341 6.66706 -3.63557
-0.880544 5.9266 -2.15602
-2.38487 4.90522 -1.75427
-2.3351 4.74339 -3.19925
1.76742 4.93258 -3.57725
2.81881 5.44532 -1.41494
0.33641 6.98984 0.405883
3.1243 5.78179 -1.62824
3.30996 6.19476 -1.47017
2.43796 5.88238 -4.37905
-1.32043 5.38309 -1.75367
-0.828898 5.66593 0.835605
-3.07967 5.93311 -3.13049
2.39658 5.34857 -4.04608
-0.0928485 6.9926 -4.88802
2.05026 4.92 -3.24001
-1.58865 7.22736 -0.175249
0.00456089 5.46229 -1.00725
0.217854 6.82534 -3.36496
-2.60904 6.81194 -2.90168
1.05612 5.7807 -2.63177
-1.33708 4.94751 -4.82809
1.20894 5.05362 -0.802114
-1.85355 7.15394 -3.05818
-1.81111 7.2606 -0.498032
-0.954308 5.02974 -0.0932972
2.11027 5.97079 -4.61088
-0.815359 6.14611 -1.87647
-0.875365 7.08844 -0.0342848
2.17022 7.28054 -3.16482
-0.557151 5.04678 -3.81104
-0.267032 5.05689 -5.25857
-2.08308 4.82193 -3.97163
-0.551886 6.37007 0.76778
-1.65503 5.14038 -2.46826
2.66448 6.03745 -0.43681
-0.415396 5.32492 -0.977339
-0.492244 4.87518 -0.837203
0.583621 6.97556 0.0959195
1.35431 6.78497 -4.8287
3.06636 5.89112 -1.25102
0.465977 5.04697 -0.58671
1.70635 6.72416 -4.59298
-1.58351 5.12267 -2.88131
1.77863 7.05419 -3.03961
1.26791 6.88648 0.233118
-2.285 7.00803 -0.966876
-2.22422 4.68541 -2.07523
-1.7376 5.29286 0.184765
-2.61233 5.06 -2.9591
-0.48136 7.0655 0.613091
-2.59505 5.68654 -0.104937
-1.92994 4.90871 -2.22676
1.80062 5.84353 0.278764
1.10959 6.83857 -1.29989
3.32876 5.89 -2.95991
-1.97443 7.28387 -0.835244
-0.861035 6.95431 -4.69179
0.669126 6.34899 -5.21807
1.05383 4.81121 -3.46623
-2.49547 6.23872 -4.26867
-2.17131 6.65491 -4.61664
-1.18991 5.07853 -1.22721
-1.07089 4.89455 -0.534241
0.826768 6.21656 -2.56625
-0.926867 6.08209 0.729437
2.46206 7.06296 -2.47338
0.183381 6.99089 -0.0315246
-1.25085 5.72844 -5.05048
0.519197 4.9419 -3.89383
-1.62278 5.43807 0.607649
-2.45885 5.10688 -1.36695
-2.35172 5.12514 -3.82244
3.19958 5.75433 -2.05213
-0.562561 5.00548 -4.26665
-2.71246 5.33593 -3.20846
-0.507968 5.97148 0.837624
2.5676 6.67343 -0.758904
-0.569232 6.07579 -1.28027
0.810094 6.69273 -1.16016
-0.113929 5.01241 -4.8584
1.28116 7.20358 -1.1766
0.549629 6.99822 -0.281205
-0.496727 7.0593 0.156565
-3.29857 6.26835 -2.91452
-0.951343 5.00263 -4.13006
-1.66115 7.1233 -0.971305
-2.16382 5.67447 -4.3816
1.33937 7.12322 -4.65944
-0.154627 4.96253 -0.881911
0.989282 6.97289 -3.93118
-0.961507 6.70173 -3.17668
-0.103236 6.99312 -4.47022
-2.42195 7.0549 -1.79714
-2.35974 4.71672 -2.82957
2.6907 6.79973 -2.73008
-0.664037 7.05767 -3.43918
-0.925378 5.9599 -2.85706
-0.840958 5.78383 -5.21105
-0.77665 6.25999 -3.18549
-1.2584 5.76933 0.702036
2.37954 6.99103 -3.40841
-1.452 7.22113 -3.05827
-0.911898 5.39592 -5.15775
0.231075 6.36463 -5.3024
-2.29034 5.5778 0.178871
-2.07264 7.30486 -1.21546
-2.90726 5.5331 -2.9262
-2.74698 6.72225 -1.70786
-0.880051 5.28094 0.828155
