-4.43837 -4.0729 4.40076
-8.1092 -6.10452 -0.653128
10.1037 2.63021 -10.0066
-6.63599 -5.1187 -3.11408
-4.46513 -10.0074 8.16331
5.10513 -6.17345 15.362
-6.07221 -10.013 2.9332
7.08347 -4.61813 -17.1089
11.639 9.87333 1.81418
-3.2863 -0.570943 -19.0049
-6.24305 10.0064 0.59029
9.23916 3.23477 5.05016
-6.27672 -10.0083 -0.895492
8.11772 -9.90737 -9.81647
8.33123 1.95935 18.903
9.5126 -10.0054 -6.36203
-8.20937 -1.96796 7.85786
-1.86177 -5.95796 -11.8816
-4.7697 -10.0154 -4.35791
-8.13835 1.40539 -9.82344
11.6971 2.93904 -9.83499
0.554645 6.89806 -15.3566
11.7211 9.86087 -4.62525
7.59471 3.56319 18.8641
6.41637 8.32803 -3.81681
4.09404 6.36815 5.54397
11.6952 4.19204 -4.5719
5.1402 5.62024 -4.99284
8.02415 10.0072 7.88605
-8.20837 -8.01527 1.00045
3.94568 -6.67435 17.1251
-4.35839 9.88107 -9.86233
-6.74025 -0.718322 10.0141
-4.45323 -3.18329 17.0777
-2.93663 -9.82351 -3.91877
4.98874 -3.86574 19.0052
7.72974 -8.00288 0.731831
7.54797 10.0035 -5.88781
-8.06768 1.11943 6.04531
-6.3105 0.580467 5.98126
-1.15659 -3.05172 5.27219
-6.44519 -9.88096 -9.88354
-1.42045 1.68317 -5.7564
7.70612 5.93361 1.63282
-6.00552 -5.61287 2.09886
-5.74149 -10.0079 6.50823
-8.20686 -5.84833 -8.18293
5.72695 -6.16135 -4.5377
11.6935 1.10551 6.08861
11.6373 -9.91692 2.14456
-8.12556 -5.55163 2.61251
11.7071 5.21166 -3.26564
10.0193 3.04483 10.004
-8.21355 7.73487 3.38978
8.65779 0.484948 -18.8584
7.69937 -3.77478 -15.4483
-8.11018 3.71278 -4.98701
-1.59209 -9.84684 5.05275
-6.31463 4.34908 -4.13771
5.32831 -6.04196 11.9017
5.06017 -6.18861 -11.8581
7.15647 4.51175 -15.594
-8.2166 7.98134 1.48769
11.7094 -5.87819 1.66211
-8.2065 -8.32626 -5.6317
-8.07071 4.89041 -3.7837
7.13686 7.96453 -10.0133
-8.20696 -7.93427 5.96068
-4.77299 -2.41741 -13.6153
-4.67891 -10.0112 4.47484
-8.21425 8.23337 5.50404
-5.08858 1.3205 -17.1558
-2.00817 2.79925 19.0066
7.68685 -5.90547 -1.8295
11.7358 -7.77588 9.80099
-4.52966 3.95917 -4.5063
-1.21989 -6.44419 -10.113
-4.98934 -5.01044 -3.28645
-3.07053 -5.03239 -15.3811
11.8081 7.93353 -1.58569
3.85653 -10.0106 7.69172
-1.82326 -6.00449 17.0742
9.76426 -10.0115 1.33175
-2.4412 9.89948 4.45346
2.52231 -6.80074 18.9172
11.5969 9.79689 9.81759
7.9734 3.30588 -15.0707
-3.65265 -5.41362 2.89534
3.30577 6.8529 15.3167
4.34967 -6.52677 13.5903
7.76773 9.79706 9.86315
-2.50617 -7.63139 -4.17884
0.810219 3.67642 5.9287
-8.07627 9.85869 -1.45085
-1.26676 9.87096 9.85902
1.78792 -10.0157 8.0101
-8.20686 -6.48536 -4.4515
-8.08991 -4.59212 9.86833
-8.10354 2.34762 -5.71938
11.8084 2.12085 7.80221
-5.78278 -9.86137 9.90892
1.57277 6.98875 11.8227
-1.30466 0.413771 19.0029
-0.0157595 7.68939 5.71228
11.6805 9.87955 -6.31512
-5.0199 -1.62422 -15.3429
11.6887 9.82259 6.74082
0.497785 9.91171 -6.08346
1.69124 7.00178 -13.5616
-1.82829 -10.0166 -8.54554
9.94692 4.0797 -4.38704
4.43955 6.49109 -15.3289
7.20348 4.63969 -10.1194
11.6739 -5.18405 3.26564
-2.57164 -4.35345 4.21581
11.6264 4.63575 -9.91068
-8.20615 -7.85675 7.95389
9.49738 -5.47144 2.44301
-8.21342 -7.93008 2.91896
7.73062 3.70936 -11.8971
11.7139 9.82949 -2.93808
11.6779 9.88454 0.0329284
-4.73065 -2.76112 -10.1184
-2.77196 4.60049 -3.99688
9.90569 10.0126 7.98115
3.51527 6.36576 -5.75538
5.94653 -9.87068 4.57143
0.165581 -6.70974 -18.9392
-8.20947 8.02476 -8.05464
11.6917 -3.85885 -4.84248
-2.56358 5.474 15.3316
-3.18225 8.19535 -10.013
11.6601 -9.86655 -1.72204
4.17522 -6.69712 -5.51112
-6.30471 2.91365 -5.2582
8.00913 9.86492 -9.84492
-4.40478 2.92974 18.9268
8.10652 -3.02132 12.0178
-4.39291 3.2959 -17.1899
5.40211 1.35995 -5.87407
-3.5669 -10.0107 -5.92406
5.03631 9.93472 5.21269
-3.51973 4.33648 -18.8262
-1.84497 -10.0081 -6.86868
11.8052 7.49066 6.26762
-6.58242 -10.0142 -4.91523
-8.20522 5.47925 -5.97013
-0.62039 -3.97695 19.005
-8.2043 -5.60469 6.01356
1.8177 4.78244 -19.0037
-4.85704 -2.17177 15.3724
-8.2076 4.71831 6.30408
0.962992 6.96284 -11.8119
2.55887 0.966485 5.96056
9.85394 9.89479 -9.86539
-8.0737 9.85067 0.288158
-6.33674 9.84697 -9.89869
-6.41239 -1.55556 5.78724
-3.56225 -10.0076 6.19444
-8.07096 4.82616 9.88056
9.76393 -10.0073 -0.768709
10.073 10.0184 -7.85888
-0.652391 -6.55272 11.911
5.89125 9.89231 9.82177
-2.67499 -5.5897 -10.1218
11.643 6.54453 9.89796
7.18006 -4.24453 -18.9247
-8.20738 7.83319 -2.42862
11.8115 -7.9386 -8.20112
4.69181 -6.20476 -18.9164
-8.20343 6.60103 -4.27718
-6.23161 -5.99219 0.38407
7.73512 -3.69898 -11.9577
-5.13693 0.965974 13.6536
-0.386128 4.18131 19.0059
6.85689 7.89845 10.0075
11.8077 -6.90897 3.34201
7.96977 -6.27539 10.0039
-8.08251 -3.33832 -9.84389
3.92578 9.89742 9.8436
-8.06457 3.397 -9.84333
-1.47675 -1.12821 5.89505
6.99294 2.87217 5.26732
-8.03589 -8.29892 9.84998
11.6956 -2.2316 -5.76071
5.97378 -8.02893 -4.29543
-3.9096 -10.0091 -7.93422
5.88204 -10.0112 8.24038
-2.70193 4.50785 4.14864
-8.21695 8.05716 7.88999
-3.42509 9.85988 -3.22461
10.1569 2.00949 5.64801
9.86837 -9.79697 -9.91857
8.0712 -10.012 -7.84901
4.30562 1.01338 5.92645
3.51232 4.4596 19.0053
-8.04895 -9.8979 5.97018
0.971581 7.04778 10.1166
-8.2092 -8.29766 -3.65684
6.02853 5.75039 10.121
11.8059 -7.79184 -6.38865
5.55733 5.91203 -13.6084
4.68467 10.0089 -7.96401
11.6655 1.25862 9.87917
9.63303 -4.59463 3.84782
10.0685 6.50586 -10.0101
-4.33921 3.36577 -13.7223
-3.14313 4.98094 -16.7029
11.8085 7.95382 -5.83366
-1.50774 -10.0148 6.69239
5.33721 3.61435 19.0065
11.7333 -9.81727 -3.6218
-2.47066 9.8092 -4.35975
-2.91225 7.44576 -3.71867
-8.0669 9.89503 2.23477
8.7211 -1.06507 -13.6541
-6.19854 -10.0077 1.07756
11.7044 2.92954 9.82578
-4.6922 2.61522 -11.9504
-8.20707 -3.91658 7.55576
-0.383921 -4.40734 -5.58768
8.34935 -10.005 -4.29692
-8.21368 0.0668716 8.02465
-8.03187 8.26973 -9.93995
-8.1225 5.86559 1.92316
11.8079 4.3817 -8.28409
-0.00631864 0.62647 -5.98738
-6.15335 3.99666 10.0063
-4.51301 3.01805 13.6086
-8.2092 8.01051 -0.482442
-1.77718 6.0305 17.0774
9.02997 -0.0766492 -10.1103
-1.65126 -9.82409 -5.02761
1.77444 -6.81894 -18.8593
-8.15204 -2.3245 -5.81047
11.8038 -3.93081 -7.39648
3.57207 -6.12993 5.74015
-6.10625 7.79727 10.0133
7.13421 -4.2746 18.9407
-1.4848 -9.85871 9.86899
11.8096 -8.48518 3.10353
7.92659 -10.0068 7.61201
10.1415 -10.011 -4.63519
11.811 0.214915 8.05852
-8.21315 -8.24144 -0.871202
-4.46803 4.58008 3.85751
0.0628013 2.07716 19.0026
-2.95738 0.917561 -5.94249
7.89104 -3.45555 15.6125
9.94431 -10.0121 -8.2361
-3.08347 2.89125 -5.26223
2.74785 -8.13461 -5.92262
11.6734 5.81434 -1.95537
7.1678 -5.26361 3.08621
-6.35967 10.0066 -5.92093
11.651 5.23609 3.12931
-4.85998 -2.12578 11.9813
6.33988 -5.33053 -15.4364
7.35153 9.90491 -2.60402
4.27751 9.89971 -9.79693
0.847492 10.0078 -8.05485
-8.21226 3.84522 7.92695
9.5115 4.65562 -10.0019
9.99792 4.45391 4.00959
1.78269 5.41703 -6.01677
11.8023 -5.90503 -7.83339
-4.09461 -3.80587 -4.63601
11.7104 -9.84204 -5.60089
-2.42575 5.29086 18.8457
-4.0551 3.84271 -15.4939
7.20772 4.43665 11.8788
4.50121 -8.42315 -5.3401
-0.0854249 -9.87655 -5.8379
4.61608 -6.57324 10.1235
-4.72121 -9.84901 -9.89168
-3.75165 -9.88933 -2.57163
-8.20693 -6.93516 4.39346
-7.99699 9.937 -8.30524
3.58824 4.37463 -5.73638
-4.73134 9.86996 9.86932
8.21186 -2.84377 -17.1657
8.00931 -8.21832 -10.0086
2.16432 6.83837 18.8738
11.6421 9.91888 -1.446
-7.99696 -9.87252 9.79693
9.68419 9.81905 9.89951
-6.45085 -3.18917 10.0064
0.153401 -10.0167 -7.88216
-8.0403 9.84875 -9.8773
1.80903 -4.65808 -6.02175
-6.57641 -2.38788 -5.49369
2.87584 10.012 7.94362
3.65944 6.76831 11.8801
9.86984 -6.53123 10.0064
7.14653 -4.52018 -13.7449
-1.51413 3.47223 -5.03423
-0.842098 6.5011 -11.8731
5.91757 5.67639 17.0493
0.664346 2.99307 -19.0036
11.7071 -0.576183 6.13139
7.38927 1.00603 -5.92023
4.69415 8.29213 10.0112
3.23241 -6.70916 -18.9407
-0.868172 9.91497 5.5121
8.52773 -1.98412 -15.4548
-4.88462 -1.70186 -18.9087
11.5969 -0.469471 9.9028
5.91803 -2.73783 5.33266
-8.0344 -9.90657 -8.1364
-4.54158 -6.30144 -10.0054
3.77646 4.65965 -19.0078
6.82142 4.87956 15.3686
-5.04214 -3.81e-05 -18.8862
-3.74549 -4.05938 18.8644
2.93097 7.03039 10.1119
-4.84618 1.52816 -18.9216
1.65621 -6.08633 6.00621
-3.29829 4.79479 13.6001
-8.21126 -7.38539 -2.34477
2.54273 -6.96209 -15.3134
10.1404 10.0075 -3.913
-6.09194 -3.9041 -4.56856
-8.07352 -6.44811 9.88536
4.7505 10.0131 7.88919
9.90001 0.290204 5.99735
8.51108 -2.01822 -11.8947
-4.03899 6.78272 -10.0022
-3.14118 4.96088 -14.4352
2.84824 10.0153 -7.99837
8.81808 -1.55652 -10.1138
4.41246 -6.26341 18.8609
-5.19566 -0.128213 15.3879
-8.21226 2.21673 -7.89829
9.67477 -10.0094 -2.70338
-4.2881 6.08333 -0.987309
5.7722 6.11878 4.49194
-8.2099 5.88123 8.18563
-3.81506 7.83377 -2.09424
6.05613 -2.33391 -19.0074
-7.99699 -1.72202 -9.93178
9.81986 -3.19395 5.06758
-3.32418 -4.79211 17.0647
-1.55071 7.91761 -4.98158
6.57271 -5.11068 -11.9215
-6.02446 10.0235 -8.0466
2.22357 -6.36887 -6.00277
-0.239488 8.31652 10.0052
-8.10862 4.97862 -9.83654
8.44847 -2.21781 14.4148
4.40838 -0.166209 19.0036
6.50243 -2.34997 -5.52146
-6.06385 -5.80876 -1.48072
3.75933 9.90948 5.87816
-2.44663 -5.55867 11.947
-8.20931 -5.92692 7.94249
-2.47449 -10.0108 8.15088
7.92465 -3.94804 4.526
-1.42579 -8.24194 -10.0091
7.27297 -10.0053 -6.01021
0.525171 -6.75281 18.9099
-5.9438 10.0054 4.36437
-2.94921 -9.86834 3.90479
11.6042 -0.499481 -9.87969
-0.00754765 4.51453 -5.713
-0.220295 -6.70953 -11.854
8.0911 3.09657 -17.016
-8.06504 -0.683425 6.13064
11.717 -0.65557 -6.13339
0.284204 -6.83776 13.6952
-1.38477 6.06335 5.08532
-6.29679 4.08668 4.39911
-4.44532 -3.16103 13.6606
-0.295622 6.685 -13.7149
7.68702 -9.90349 9.83333
-1.28129 10.0104 7.91531
11.669 -6.78857 -9.89031
-3.97329 3.95472 11.8907
-3.61219 5.51744 -2.73306
4.47844 6.30676 -18.9145
11.8079 0.237839 -8.01536
3.70287 6.74328 -13.5415
6.37239 -7.8612 10.0137
5.93235 -0.546011 -5.99235
3.05967 -4.52077 19.0057
3.7974 9.94337 -5.85386
5.5792 5.88535 11.926
-0.309085 9.902 -9.82553
8.00466 -2.82339 18.9284
-6.35133 -7.58523 10.0167
9.57882 10.0079 -2.03471
6.527 9.83095 3.93591
1.22036 6.7751 -18.8938
8.80519 1.46825 10.1044
-1.77509 5.82034 -4.82699
9.834 -1.56629 5.79254
4.68147 -0.7534 -19.0035
-6.49182 9.80042 9.90918
1.88993 9.89871 -9.82566
6.17948 1.71371 19.0031
3.16765 8.48736 -10.0009
-5.19677 0.335621 -15.3669
8.30831 -2.61087 17.1437
9.95469 -2.90711 -5.25071
-5.53966 -10.0031 -6.39456
0.423812 5.6175 5.84649
-8.0522 6.67675 -9.85353
-8.08432 -4.77908 3.91254
-8.11248 0.910037 -6.09958
11.8088 7.64727 2.59066
-4.18517 8.01768 -0.102962
5.24909 -10.0063 -6.6755
6.72521 2.78689 -5.31898
-6.07189 -10.0183 -8.0713
6.7259 -4.9748 15.3798
11.8027 -4.51294 6.48907
-3.93371 -4.01992 15.3398
11.8079 -1.7099 7.83673
-5.10127 -1.16413 13.6668
-8.20391 6.69134 6.56861
-2.91114 -2.74836 5.33948
8.8221 1.41386 -10.1235
11.6611 9.8596 -8.09549
11.8057 6.43816 4.53863
-6.0568 -5.27832 10.0089
-8.20776 4.09406 -7.53305
8.46819 10.0052 -4.10638
2.96915 6.91498 -11.8299
7.38494 7.814 -2.17347
11.8079 7.9836 8.04639
-3.39707 4.70904 17.0496
-8.11227 6.17533 0.418048
6.69192 -0.307298 -19.0037
6.92957 -4.7554 11.9518
-8.205 7.62947 -6.2351
7.95128 -6.17322 -0.0768615
6.06506 5.38492 -18.9027
-0.0749277 6.44155 -5.69944
11.8106 -5.79956 8.23987
-8.08301 -3.70468 4.97437
1.9516 3.35225 -6.01003
11.6065 -9.92034 4.24533
8.34842 2.47181 11.9288
0.258812 8.2883 -5.8036
6.19184 -10.0118 -8.13811
4.26633 -9.83592 5.64802
0.847958 8.48433 -10.0027
-3.83611 -4.15233 -13.6633
8.1717 -2.89996 -13.6995
11.6237 -3.95719 9.88758
-6.46259 -10.019 8.26053
6.0095 5.5949 -15.3908
-3.27121 -5.2223 -3.3441
8.06879 4.33416 4.14085
-8.06903 -9.87427 2.06554
4.01506 -10.0102 -8.09754
11.8087 -7.98469 -0.900499
-8.20378 -4.92114 -6.16433
-4.31057 1.3948 5.83385
9.80135 10.0095 0.0761385
-4.74934 2.81135 10.1235
0.51305 6.66004 18.8889
-2.44765 -8.19083 4.24013
-5.0618 -1.40714 -11.8358
-0.646135 -9.79697 -9.86523
-4.13231 -5.95749 1.54338
7.581 7.9382 1.56075
-8.05678 -5.03417 -9.84922
11.6667 4.2453 4.44675
-2.33121 -6.3557 4.34976
4.08589 -9.91181 9.79693
-8.03427 9.90287 5.8864
4.54927 -4.24128 5.33834
2.84931 2.89522 5.90375
-2.76584 1.38924 -19.0049
-8.07803 -9.88548 -2.15723
7.39304 -4.50097 10.1235
-6.10598 5.80536 10.01
-5.17344 -0.695238 -17.0864
-2.84087 -1.04713 19.0041
6.00638 4.18391 4.38562
-8.20374 -6.73868 -6.47841
7.78149 8.04986 -0.352994
-5.20086 -0.0826955 11.9599
8.79401 0.650033 17.1566
-0.287781 4.69276 -19.0047
5.27075 8.04962 -10.0031
-4.49267 3.1975 5.08173
11.8064 -8.10476 5.26984
4.92106 -0.744394 5.9624
-6.59655 1.9298 10.0031
-0.0338086 -6.77996 17.1365
-8.20662 6.25739 4.74941
11.6018 -9.8724 -9.66516
3.69646 8.15066 5.68504
3.24548 0.768043 -19.0018
6.66831 -9.86723 -3.76068
0.169307 6.82409 17.0833
-4.49668 -6.45765 10.0024
6.11178 -4.31217 4.27891
2.92661 6.79169 -18.8802
8.66899 1.35683 15.4367
-8.20608 6.12987 -7.91916
11.8056 -5.96273 5.03688
-0.943651 6.58902 10.1235
-8.07946 -3.59225 -4.9917
-8.0399 9.79689 9.7739
9.63037 10.0049 2.16461
11.8049 -7.91814 1.16269
-8.20953 8.32476 -4.4161
5.22008 6.11304 15.3398
9.78253 5.95063 0.789349
-5.93315 10.0081 -3.55903
-4.13474 -3.39625 -18.8753
-3.71051 -4.3521 -17.1263
9.64742 10.0032 -5.88136
8.05681 6.29637 -10.0015
-1.04418 9.88291 -5.46997
1.51738 4.91091 19.0052
7.86143 -6.39035 -10.0013
6.94738 4.77445 -17.2953
5.40452 -9.89761 -4.96142
6.09875 9.87669 -9.89583
-0.475512 -6.65052 -17.1734
3.74701 -2.29039 19.0029
-1.40335 -0.571425 -19.0035
-8.05639 -5.66357 -2.38137
8.20376 -3.14654 10.1182
-3.13632 1.02665 19.0056
-2.04908 5.85659 -13.4075
7.92821 -10.0044 5.33486
-8.09557 4.21193 4.49824
4.0541 2.08969 19.0028
5.07068 7.67415 -5.01801
6.19537 -5.66052 10.1235
11.8056 6.20512 -7.45158
-0.39785 -1.71791 19.0051
11.6363 1.06876 -9.91271
6.71018 4.83785 18.7374
-4.02662 3.88608 15.308
0.737261 -4.73541 -19.0036
1.90713 2.94999 19.0021
-8.08459 0.984289 9.86481
-2.45002 5.27873 -18.8381
9.97483 -4.31546 -4.15418
0.571882 -9.85638 9.88289
5.86427 5.87812 -10.1008
-4.34509 -6.14105 -0.198082
7.58551 -3.94321 13.7049
-8.11348 5.75017 -2.34238
1.47228 -2.95011 19.0028
4.26449 -1.53513 -5.80321
3.81472 0.256143 -6.00011
-8.0585 9.87267 4.04741
6.82881 7.60111 3.25686
6.55902 9.88345 -3.94411
8.00446 -9.90781 -0.024179
11.8088 7.98226 -7.93113
11.7332 -3.41826 -9.83478
4.393 4.55933 5.41962
2.58516 6.95608 -15.2722
2.30211 -6.98563 13.6592
-3.49589 -9.8626 9.86459
-2.49202 -5.52997 -13.659
0.620563 0.0862805 19.0025
-8.06256 9.90624 7.76429
-8.1111 5.21582 3.18739
-2.49137 5.5268 11.8678
-4.29559 -3.45287 -15.3852
2.84524 -8.01209 5.89693
11.7028 -2.36525 5.73829
-8.06694 6.67635 9.90951
-6.44582 1.06319 -5.90115
11.683 -9.85892 -7.58678
-8.21485 -1.8215 -7.95763
8.73758 1.14916 -17.1315
-2.47539 5.53664 -11.7014
5.90699 -5.46212 18.8763
11.635 -5.75597 9.87659
9.44201 5.23405 -2.93516
8.38787 10.0081 -7.74415
11.8059 3.93288 7.76387
4.14146 6.60983 17.1215
8.10685 3.30852 10.1214
-4.04284 -5.86892 -1.82486
-4.95734 1.3191 18.9188
-1.41691 -6.00124 -18.8955
-8.08299 6.04467 -0.961024
8.39655 2.36505 13.7975
-2.33309 7.88395 10.0095
0.513117 -1.03697 -5.93499
-1.58071 6.13615 -15.3721
-6.221 -5.55766 -10.0072
3.6082 6.78458 -17.081
-4.32051 6.10637 0.854892
5.81521 -9.86481 9.91551
2.97302 2.79984 -19.0031
7.6781 -5.92056 1.61954
2.00367 -2.49087 6.00672
-4.31353 -9.87123 0.671871
-3.93129 -4.00846 11.9214
4.57921 -6.42757 -15.3485
7.68847 -9.87346 1.77058
-5.06224 5.25516 -2.89842
9.75088 5.87881 -1.15714
2.51415 -0.977762 -19.0033
-2.89472 -5.38368 10.1235
-5.32874 -1.25342 -10.053
5.99536 -4.21869 -4.42918
-4.38744 -3.26194 -11.9134
11.6837 -9.84949 0.0776287
2.40048 6.97352 13.5566
-1.63499 6.103 13.5987
11.636 -8.47941 -9.90895
-4.5644 2.93774 17.0978
-0.620704 -8.28228 10.0055
1.51792 -7.18445 10.0563
-8.04757 -9.89099 0.0334119
1.7576 8.27291 6.01794
-5.18558 -0.490146 -13.582
3.46715 -9.92216 -5.91773
-1.69394 8.05517 4.88141
7.24375 -7.88965 2.51432
9.22894 10.005 4.08198
7.60839 -9.90691 -1.99619
11.6557 5.99575 1.37725
-4.75263 0.453269 -5.99891
-2.25196 -5.73177 -17.1109
5.34725 5.87812 18.9094
-7.99936 -9.53169 -9.82311
8.65779 0.349975 18.9316
-0.910786 -6.45375 -13.6918
7.95599 -2.35076 5.53129
7.21576 4.72836 10.1175
-1.61377 -6.11195 13.637
6.07179 -10.005 6.46152
-6.24229 2.43246 5.48352
0.482554 -6.88199 -15.4472
-4.47926 10.0083 -4.85034
-3.0437 8.30241 3.52355
5.44191 -5.99405 -17.0841
-8.10124 8.3155 9.87106
-2.33839 9.87323 -9.84068
4.10051 -6.61721 -13.5835
2.18666 -1.07255 19.0032
-0.713751 -6.53883 15.3897
-2.84169 6.50881 3.79391
-8.20831 2.02875 7.83632
-1.79226 6.19219 -10.0955
-8.20659 0.179196 -8.02781
5.38908 6.02769 -17.1669
7.36703 4.26957 17.0825
1.24323 -6.97815 15.4401
4.04092 -2.42512 5.60968
3.75317 -2.59562 -19.0031
-3.49683 -7.66232 2.81444
4.70969 6.52231 10.1089
7.2682 -4.40797 17.2252
0.211092 -6.1651 -5.78479
5.7788 -5.77308 17.0976
2.10196 9.92722 9.79925
9.44009 5.42323 2.58625
9.55096 -9.94469 9.81056
7.95067 6.13493 -0.138324
-0.648058 1.31151 -19.0048
4.80287 -9.87599 -9.87082
4.81334 2.76005 5.36559
-0.945212 -8.01612 5.35258
7.57086 10.0024 5.6231
-8.0841 -4.66041 -4.02445
0.821332 10.0113 7.96198
-8.06881 -7.22593 -9.87446
10.1923 2.4723 -5.46928
6.12786 -5.50114 13.646
1.05996 -2.89777 -5.95928
7.88791 9.89025 -0.949023
8.34058 2.54565 17.1578
-2.73604 -7.90224 10.0052
11.654 0.94865 -6.05124
11.7503 2.64429 -5.55159
-0.166556 6.74797 -17.0146
6.58167 -0.181063 19.0047
8.55436 1.87282 -11.8591
-2.52803 -5.32722 18.9123
-3.83939 4.34983 10.119
11.6876 4.82266 9.87075
2.45167 -6.97197 -13.502
8.73561 -1.07198 16.6207
-4.38737 2.89308 -18.8777
11.7352 -5.20566 -3.36938
8.78404 -0.510993 14.834
-4.84972 2.20415 -15.4867
9.50982 0.775443 -5.96189
9.39356 -10.0034 3.41429
-6.0376 -4.80309 3.60558
-4.65651 -2.35343 5.52577
-1.75518 -5.92972 -4.83869
-4.063 9.8957 -1.91985
1.34121 -6.97815 11.9525
-1.26469 8.19271 -10.0085
7.38537 3.91873 -18.8883
0.000318661 6.85781 -10.1051
6.00131 -2.07348 19.0077
11.8104 -8.08959 7.77035
2.26441 8.45399 10.0015
-4.21495 10.0052 5.31165
11.8052 -3.57906 7.99672
-0.241641 -2.44205 -19.0033
4.90987 1.36722 -19.0045
0.905761 -8.03321 5.95409
3.24436 -6.86002 15.3532
2.1358 -10.014 -7.96915
3.75933 6.57702 18.9294
-5.18643 0.63328 -11.869
0.0509815 -6.90467 10.1264
-1.16412 10.0086 -7.74615
9.7889 -10.0104 7.66452
6.70119 10.0098 -8.19074
4.412 6.50604 13.6193
11.804 -5.65667 -5.70751
6.54396 -9.85019 -9.84657
6.30117 10.0047 7.2262
-8.0352 9.93742 -4.79525
11.6486 8.16499 9.89339
8.58566 1.75518 -15.3535
1.84974 0.989587 -6.00348
11.6044 -9.81867 9.77766
-4.68627 2.19559 -5.58709
0.190253 -1.93819 5.80278
-3.59478 -0.850223 -5.94443
11.6752 9.88906 8.27649
11.6393 9.79689 -9.8004
2.10437 9.92585 6.124
7.93931 -3.889 -4.573
-3.68157 4.35593 -12.2333
4.85549 -3.11473 -5.26547
11.8058 -7.51966 -4.54157
7.67977 -8.04045 -1.18378
5.26395 3.37408 -19.0049
-1.08205 -6.20476 18.8966
-3.21597 5.01787 -10.1235
0.774652 -6.93085 -13.6599
0.601235 -0.646917 -19.0034
8.76045 0.810374 -13.6298
6.54248 -6.51725 3.67869
0.83556 -8.03534 -5.9221
-5.04583 -0.603372 18.8833
-5.04202 1.50858 -13.6614
-2.82753 10.0067 -6.28604
-1.73295 3.17695 -19.0038
6.11418 -8.15899 4.14241
11.751 6.3932 -9.79693
2.7495 -9.84866 -9.88299
-8.21324 -8.05214 -7.97563
-8.20882 -3.75211 -7.74599
0.493685 9.88701 9.88049
-4.27584 6.3424 9.9994
-3.86686 5.59364 2.57238
-5.99736 -7.87689 -10.0163
-4.58368 -2.51525 18.9095
8.62154 -5.0895 -3.16391
-3.6051 4.22811 18.9146
9.65937 5.25697 10.0044
-2.66524 2.76205 5.31856
-6.29234 3.91964 -10.0142
-3.51008 -7.85947 -10.0099
5.97036 -7.88526 -10.0068
-8.09551 -2.34347 5.72451
8.51755 2.59715 -5.41209
11.8047 5.11306 6.13826
-6.27622 -3.39249 4.9452
4.02359 6.74118 -10.1081
11.8069 6.09415 -5.23408
11.6997 2.94027 5.46976
-8.08778 -9.82422 7.74798
-5.33527 0.285838 -10.0525
-3.01348 -9.83368 -9.86385
6.1899 -5.26391 -18.8016
-1.6264 -6.31858 10.1344
11.6798 -6.17726 -0.102145
7.88455 9.85427 0.894786
-2.35689 0.882655 5.95154
1.69968 -2.85177 -19.0029
-4.10645 -8.00346 -0.93288
9.61345 -4.575 10.0045
-1.13473 4.00349 5.23745
6.45711 5.22335 -11.9119
10.2458 -8.36469 10.0289
-4.92572 1.95661 15.3725
2.82957 -4.70959 -19.0033
-5.28865 -0.387232 10.1235
-6.00944 5.31686 2.79557
3.57584 -6.79462 -17.0537
-3.25987 -4.83774 13.5947
9.81157 -5.95511 0.76738
5.2819 9.80663 -5.01512
-1.5673 -0.652856 -5.98005
11.808 7.99718 0.573767
-0.732843 2.35338 5.57088
7.12448 4.5493 -13.6622
1.98117 -7.01817 17.2167
7.26826 -4.55085 -10.1194
2.65482 -4.27366 5.93859
11.6991 -5.01861 -9.8206
8.50996 -1.25587 18.8914
11.6832 -9.85359 6.33766
-6.48275 -10.0086 4.83733
-3.84009 7.78224 1.93784
-4.1913 8.17322 10.0132
6.28455 0.986801 5.92539
-8.06853 -9.89706 -4.2011
9.93535 -1.01803 -5.91725
4.05539 -4.88834 -5.55921
-8.03994 9.88853 -3.14865
11.8066 2.32327 -7.77179
-1.17932 -4.04836 -19.0067
-5.58541 8.14896 -10.015
7.64642 5.82956 -1.92295
8.33988 -2.34644 -5.52377
6.19069 5.45336 13.6078
3.77948 -8.35749 -10.006
-3.89924 -4.34913 10.1111
11.6182 8.19664 -9.91165
8.67025 -1.33704 12.5733
11.8066 7.61343 -3.65535
8.08535 4.16308 -4.31608
-6.09063 10.0192 8.1861
-8.0774 -2.76509 9.84689
-0.45293 0.414895 5.9954
11.6183 9.88685 5.12418
-0.544002 6.59957 11.8557
3.04219 -0.823204 5.96293
-2.25769 -2.8883 19.007
2.33372 -1.10545 -5.99746
2.1696 7.01672 17.0103
9.82883 -10.0086 5.54191
-2.45512 -2.46234 -19.0044
0.512545 9.85262 6.01661
-8.02135 -0.208258 -9.93454
-8.13414 -9.80643 4.11384
7.08661 5.27685 3.12774
-3.67916 9.90056 2.9093
9.61269 10.0052 6.0523
0.602642 -4.17706 5.88649
11.6233 9.87169 3.37062
11.6568 -3.95268 4.68155
-4.32602 -9.91501 -0.979692
8.50259 -1.50863 -18.9407
11.8066 -1.94053 -7.93436
11.8073 8.27734 4.45099
-2.13634 -3.99931 -4.63603
7.98719 3.29261 15.4516
9.24836 8.15004 -10.0226
9.79648 -7.45628 -10.0094
9.45845 7.77225 10.0153
8.16514 -0.389798 5.99829
-4.00913 -4.24537 -10.1223
-0.29025 -6.32298 5.62663
8.22256 -3.26086 -10.1107
2.27738 -9.79697 9.93688
-4.36208 9.90048 -0.311019
1.04251 -9.81426 -9.9049
6.05325 4.25509 -4.30315
7.54655 3.99544 13.6082
-3.29365 -4.79682 -11.8807
6.99913 5.14974 -3.19506
-5.97262 10.0069 6.3619
2.41601 0.966235 19.0017
1.5361 -7.0025 -11.8359
8.78391 -0.117929 -11.8754
5.47818 8.05167 4.73552
5.74551 -5.78342 -13.6634
-6.17329 10.0137 -1.51668
1.43158 1.16518 -19.003
11.675 -9.8834 8.05395
-6.0471 -10.0085 -2.82157
-5.15475 0.84012 17.114
-6.696 1.73835 -10.013
1.82331 7.5052 -6.01641
0.99332 1.74555 5.9518
-3.019 9.90227 9.79693
2.96518 -7.05948 10.1046
-4.77271 -2.27178 -5.55721
-8.11755 -1.07271 9.79053
4.64998 -7.99435 5.28099
-1.80538 6.02622 -17.3256
4.24254 -6.69701 -10.1138
-6.60727 5.41583 -2.56541
11.803 -6.67453 6.65676
1.63802 -9.88338 -6.14969
-6.18242 5.89331 1.08561
-8.08204 -6.09144 0.937725
0.314107 6.84464 13.5287
9.68166 -5.91418 -1.02321
-1.14428 -4.91152 5.23987
2.44095 4.79262 5.97394
11.741 -2.21399 9.82118
-0.739306 6.52999 15.3274
-2.51097 -5.52006 15.3302
7.01765 -9.9181 3.26564
-4.60984 -8.37946 10.0119
8.79816 -0.127344 -15.4369
-3.24335 -0.803013 5.9586
4.85676 -4.07983 -19.0065
8.27728 2.28591 -18.848
11.7104 6.13711 -0.311996
4.26816 -8.35532 10.0078
-3.53248 -7.69697 -2.74366
-5.20401 1.10178 10.1235
8.227 1.56654 5.79064
-8.09558 9.8281 -6.52628
-3.92606 -9.8745 2.30011
8.75364 -1.56002 10.1639
-3.31368 10.0178 -8.14622
0.322639 -9.88995 5.9149
8.08859 6.41983 10.0018
7.03896 -7.58801 -2.91931
-2.45424 5.70219 10.1154
-2.75167 -2.40557 -5.49327
6.47333 6.60507 -3.77474
3.48047 2.0604 -5.7486
5.93036 -5.8062 -10.1192
-8.09614 2.75257 5.55159
-5.96068 10.0066 2.54679
-6.30548 -3.39169 -10.0097
6.93743 -5.23632 -3.25775
10.1451 -2.40502 10.0058
-0.199057 -10.0095 8.05563
11.5969 -1.79683 -9.89284
-2.84544 -4.99864 -18.825
2.24648 -9.84934 6.1485
10.1491 -5.39174 -2.61033
-4.02789 10.0076 7.82045
8.21202 3.17941 -10.1235
8.98972 -0.0746474 10.0454
11.8062 5.97955 7.93097
-6.41612 6.40518 -10.0112
9.6106 -5.24265 -10.0025
1.20406 6.97566 15.2495
8.7797 0.64725 13.4115
0.565809 -7.10201 -10.084
-5.0565 2.05868 -10.1235
-0.952045 -7.87739 -5.32642
1.57239 -7.01256 -17.086
-5.10119 5.33432 -9.99945
3.02215 -3.10242 -5.8749
8.77867 0.372569 11.7042
7.9521 -0.674146 -5.97809
3.45869 8.30221 -5.75487
-4.10777 -7.97869 0.986535
10.0298 -3.16247 -10.0059
-4.22949 9.84507 1.29153
-2.63258 10.0073 6.59406
1.77791 7.01951 -17.1023
7.36236 9.90829 2.61251
-8.08019 2.99068 9.82221
-8.0849 -0.710159 -6.11482
-5.09048 -1.27102 17.1281
-6.12845 5.94959 -0.790628
4.83175 6.30189 -11.8328
0.31234 2.4927 -5.8119
4.88755 3.16829 -5.17208
8.24869 2.71593 -13.4788
1.21085 -0.409541 5.99842
5.80559 10.0047 -6.58519
11.8046 4.33146 -6.49093
3.37558 -6.8386 11.8798
-4.60627 -3.22623 10.1235
2.05211 7.09888 -10.1007
-4.71181 -2.6137 -17.1089
-4.73533 10.0063 -6.72985
-6.08596 -0.75509 -5.95975
-4.90729 2.02708 11.9243
-0.814745 -2.54987 -5.48976
1.08854 -5.00501 19.0053
6.68137 1.73379 -19.0112
2.23913 -7.17082 -10.0685
-0.528227 6.47397 -18.8124
-1.02078 6.24446 18.8909
2.08648 9.89374 -6.08586
11.8054 -7.75116 -2.78307
-5.11971 -1.76395 10.1335
-1.45334 -6.20664 -15.456
7.92959 -3.09969 -18.8954
-7.99977 -9.90395 -6.45422
2.12651 6.59641 6.01465
11.7148 -5.87419 -1.84651
3.34293 -6.84254 -11.7262
6.58657 -0.991183 5.93333
-4.87333 -0.4765 5.99473
5.28476 -6.12398 4.88884
-4.34532 3.59965 -10.1286
8.7713 -0.859528 -17.2121
8.36837 -8.12661 10.0082
