4.51716 5.17987 -5.36391
4.00086 6.49304 -19
-4.59813 1.77276 -5.74571
-4.4568 -9.99965 4.54562
1.42241 9.81926 -5.98571
5.75433 5.77363 -13.5153
11.7995 5.59488 -5.63956
-2.51372 5.51351 17.3298
6.52745 -9.99948 9.77245
-8.19955 -1.16519 8.02436
-6.36354 6.27757 -9.9994
-6.14914 8.20277 9.99947
2.5612 5.16447 5.94991
-4.19633 8.02261 0.0557452
7.90641 3.41888 -11.831
11.7994 2.06426 -7.83854
-8.04963 -9.99942 -5.38305
-2.4306 6.26622 -4.27497
-5.0084 -1.68389 17.3037
2.36722 -5.13884 19
11.7995 -6.24811 -4.47706
-6.47222 0.939238 -5.93429
5.64943 6.20824 -4.61405
1.34786 -9.74787 -9.99953
6.52676 9.8507 -3.68693
-8.19929 -6.73713 9.83555
5.31679 -9.84218 -4.86917
11.7996 6.15367 -0.653217
-8.1995 -3.46773 5.11814
1.6242 -6.35743 -6
-0.569315 6.59511 -16.9991
-8.1995 8.01767 1.58143
7.67308 4.1497 -10.0002
8.03488 -9.99936 -9.86422
7.24685 2.5608 5.42329
11.7995 6.46047 4.60542
1.48188 0.652188 19
-4.4581 -8.40489 9.99951
10.2558 5.68478 9.99942
7.30711 4.32373 18.8381
-2.26903 9.99931 4.74596
-4.04457 -8.0505 1.37021
4.79372 -6.32677 15.4146
8.53994 1.95851 15.3795
4.73028 -3.27442 5.26118
11.7995 0.0744697 6.19163
5.69203 5.61924 -18.9998
3.67307 -6.74566 -10.2158
3.74246 -5.62012 5.68796
-8.1995 3.20072 -9.71521
7.96435 -3.33178 -16.8227
-8.19954 -7.98528 -2.4719
9.84643 -9.99956 -1.07288
2.26583 6.80288 18.9994
7.95009 3.07241 -19.0001
-1.17831 8.2407 5.20657
6.8118 -4.90277 -16.9625
-6.36756 -7.84523 9.99939
1.08363 2.52068 19.0001
-8.19952 9.80378 -6.0001
11.7994 7.58866 -6.16192
2.91024 0.744686 -5.98183
1.29109 -8.09573 5.97701
-8.19965 -1.198 -6.13793
11.5239 -9.79229 -9.99895
-3.75214 -7.96184 -9.99949
4.28758 -6.55161 -15.6719
11.7995 -1.26837 9.79509
-3.11877 7.97893 -3.43379
-8.19951 5.97955 -7.81741
-0.70356 -6.53884 -14.2839
9.77701 -2.0543 -5.65521
7.67692 5.69517 -1.8912
7.78614 5.82485 1.45392
11.7995 -7.73696 3.40383
11.4077 9.99955 9.78798
-4.32478 -9.99964 -0.866425
2.92637 6.90879 -11.7441
7.47569 -4.1119 13.5963
-6.44058 9.99953 -4.89788
4.27488 9.66508 -9.99947
-8.19954 -8.28961 5.60785
6.96958 4.9302 -3.44747
-4.1262 3.72592 12.4132
-4.93408 -1.47579 18.9993
4.97758 6.23421 16.9323
-4.30659 -9.99943 0.872302
-8.19955 -9.86012 2.50841
-6.20054 4.5898 3.89476
-8.19951 -2.68369 -7.8852
11.7995 6.87502 2.64615
-8.19991 6.08356 1.17563
-8.19956 -8.47513 3.64281
-3.42244 2.4433 5.48767
-2.49421 -5.52887 -15.4695
11.7994 -6.13607 -0.753141
1.26115 -9.99949 9.81855
-1.01356 -6.40985 -18.7899
8.47713 -1.59773 -18.9999
4.42382 -3.25409 -19
-4.67207 -2.69187 15.628
-2.38258 3.9254 4.54389
0.344297 -9.99954 -8.0019
4.20259 6.42984 18.9999
4.36654 6.52822 12.1879
9.95638 -3.67728 -4.74098
-8.1995 -5.91591 8.21462
11.7997 0.943764 -9.83243
-4.72056 2.5834 16.6224
-4.41176 -3.23297 18.8404
-6.32901 6.41042 9.99945
-4.19906 3.61883 18.7728
-6.08424 -9.99963 -2.15755
11.6039 -4.497 -3.98583
9.57529 -5.55176 2.31459
-5.61681 4.78297 -9.99956
11.7995 0.163458 -7.9159
-4.92812 1.93766 11.973
-1.83646 9.82351 -4.77323
-3.13593 -4.96757 18.8367
4.56028 7.7371 -5.35346
-0.369258 9.99975 -5.90368
10.2463 9.99952 -4.4483
-4.22819 6.39805 -9.99952
-1.75909 7.89622 -4.82842
-4.73485 1.0228 5.91615
10.1314 -3.06636 9.99957
0.955496 6.96907 -11.8766
6.66924 8.36331 3.51403
-3.86981 -9.99945 2.56544
0.435062 4.6502 5.86141
6.43367 -8.34212 3.82177
6.4113 -6.55191 3.86713
-7.96675 9.99966 -9.6588
2.49871 -6.97673 18.7772
1.93075 7.01555 -13.5322
8.22444 -9.99969 -4.52784
-4.33311 9.99949 -5.4646
11.7994 -7.88158 -8.20505
-6.28731 2.75224 -5.33519
7.09192 4.57865 -18.8556
8.42144 1.56431 -18.9996
-4.45381 4.05375 4.43695
-8.19948 -3.68257 -9.7771
11.7995 -2.97101 7.57417
8.79224 -0.263734 15.6152
-0.689155 6.07644 -5.48311
-5.11158 1.09236 15.29
9.20409 -9.99951 -6.52199
-8.19949 8.18054 5.78322
-8.19956 8.08833 -0.403226
-8.19953 7.8345 3.49092
11.5113 2.62835 -9.99945
-0.0923151 -0.644579 -19
4.92297 -6.93984 5.12168
8.29811 -2.59578 13.2229
1.92155 9.99951 8.02342
-8.19943 8.29297 7.97456
-5.07394 -1.32664 13.7653
5.18586 8.21772 4.95951
1.13693 -6.9681 -15.4365
9.83821 -5.71584 -1.89131
1.94186 -7.01508 12.239
8.05533 -3.14654 -18.8173
-4.0266 -6.02294 1.46483
6.07686 -5.55494 -15.2788
11.657 5.91776 1.03705
-3.99431 -3.92669 17.2103
-3.52308 -5.46045 2.80067
9.46583 9.99965 2.7489
-1.3345 -6.2732 13.3764
9.93852 3.73254 -4.70668
-8.19969 5.57496 2.78835
-6.15558 9.9996 0.322038
4.06242 1.64596 5.77716
-2.79085 2.4483 -18.9998
11.7995 -1.09203 7.9313
-0.916494 -9.99945 9.82471
0.496411 -8.47948 9.99958
-1.64708 -8.11845 -9.9995
0.128864 9.99962 -7.98339
1.0935 -3.90186 19
11.7995 -1.5946 -8.18922
0.521358 -4.72888 5.88672
10.2331 -1.21515 9.99963
-1.51791 -6.16184 18.8074
2.15093 6.82666 -18.9996
-8.03569 9.99931 -0.620726
2.55672 -1.02929 -5.9655
-1.22134 -5.16236 5.17907
-3.92787 -9.99943 -2.5172
-4.25255 3.5462 -15.4192
0.719553 -6.93729 13.6253
9.09264 4.89583 -3.47613
-2.48303 -5.5378 17.0233
9.85248 5.68527 -1.95497
2.11084 9.99965 -7.94485
-4.75435 1.94877 18.9999
8.26483 2.67618 -15.4889
-2.62959 -5.19126 -18.9997
-8.04322 -4.81791 9.99954
4.66477 -0.710611 -5.99202
0.899994 9.81601 -9.99946
9.15103 0.700635 -10
6.8826 -9.99962 3.49861
11.6563 -9.99937 -8.06934
-8.19955 -8.04733 -0.403743
-6.15046 5.58812 2.1866
-0.762744 -6.5139 -16.2435
11.7998 -4.47028 4.30097
0.399458 6.68837 18.9996
-3.77953 4.24552 16.8716
8.63327 2.3639 -9.99985
-7.88643 1.52157 -9.9996
7.03762 -9.99965 -5.98812
9.82954 6.0054 -0.0607298
-6.19438 -2.94614 5.23796
-5.71401 -5.43152 2.54046
-1.6231 0.603586 -18.9999
-8.19948 -5.36647 -8.18064
7.59646 -3.93585 -15.1788
1.94882 -6.15832 6.01899
-2.25127 -5.72595 -13.6551
11.7994 -8.10779 9.7633
-3.44669 -9.99963 6.27543
6.27613 -5.39216 16.7817
8.04893 -3.19673 -13.5975
11.6518 8.33305 9.99926
-2.24814 -5.99627 -10
11.4879 -0.805415 -9.9995
11.598 -1.50688 5.80729
-5.19134 -0.252284 -18.8382
5.19931 -5.64741 -4.93366
2.21461 1.64286 6.00505
8.51119 -9.9996 3.55732
5.13311 9.83944 -4.98509
11.7998 4.48409 4.40526
8.67645 -1.29925 -13.4894
-6.16212 -9.9996 1.74167
1.24049 5.40264 -5.96855
7.82813 -9.99947 7.85631
3.96075 6.69003 5.59364
-5.6034 5.78995 -1.5821
-1.418 6.22647 18.7908
-0.211942 -9.99881 -5.88626
7.77032 9.99935 1.54095
2.24315 -9.99943 -8.0591
11.5286 0.464603 9.99952
-1.48837 -9.88355 5.04941
11.7996 9.81388 -6.13162
6.13192 -2.91092 -18.9999
-2.53415 5.49609 15.5066
2.13493 -9.99996 6.15792
-6.75025 -1.1594 -9.99974
11.7995 7.95389 -0.173679
8.56953 -1.07746 18.9997
11.7995 6.50706 9.8171
-1.1024 -6.37064 -12.1455
-1.05055 9.86268 -9.9993
1.35103 9.9995 9.8805
-5.20204 -0.255502 11.7955
5.85227 5.70584 18.819
9.7634 2.06783 -5.65034
7.79704 -8.00857 0.0837751
11.6124 0.710354 -5.9586
11.7995 -7.78177 1.34054
4.01553 9.9996 -8.36137
11.6255 -8.18668 -9.99964
11.7995 8.21269 -9.8025
4.46115 -6.49118 13.5278
6.23447 9.99956 -8.54027
3.82152 -4.27364 -5.66214
11.7997 -9.79117 2.76069
-4.95089 4.95457 -3.38155
-8.19954 9.72558 -4.13219
-2.15274 6.65761 4.51344
-4.81177 -2.28804 11.9265
2.29307 -9.99963 7.97666
9.00269 -1.14309 -9.99997
3.23442 4.83952 18.9999
0.481257 -1.53033 -5.8622
-8.19957 5.61314 -5.8132
-2.7824 5.29408 -12.1109
9.69548 -9.75189 -9.99939
-5.82311 2.88171 5.27813
11.7998 2.29847 -5.73247
-8.19949 9.82939 4.64768
-8.04676 -0.281008 6.00419
-6.49936 4.24511 -4.23715
11.7995 -5.61212 -2.57086
-3.99844 3.91917 -12.0881
8.00114 -9.9995 -0.193525
-6.31557 -2.91164 -5.25689
-0.252827 8.32642 -9.99958
-8.05273 -9.99945 -1.35879
11.7995 -6.68083 -6.38444
1.49039 -4.8138 -19
-2.00943 -5.87673 -17.3687
2.54907 -0.213327 5.99812
-3.62982 4.43286 -17.0638
-0.170689 -6.625 5.67039
1.58448 -1.09039 -19
-1.98334 -3.48942 4.88224
-6.69023 0.455441 9.99964
5.44828 -3.73454 -4.7592
-3.17967 9.99948 -3.68126
-5.97887 -7.87002 -9.99943
-2.87953 9.84784 -9.99925
8.21473 9.99952 -7.94797
7.11991 -4.54531 -18.813
7.30328 9.9994 9.84491
6.30907 8.00347 9.99943
11.7994 5.9506 -7.77492
-4.76422 -6.23207 9.99965
-5.41192 -0.138833 -9.9996
-3.26985 -6.89331 -3.20442
-5.17165 -0.741728 15.6178
9.51039 9.99952 -6.25983
-2.25784 -5.71907 11.8956
7.89805 -3.38205 -4.95194
4.83866 -6.30337 -13.7661
9.43448 9.99936 9.84113
5.76143 6.41175 4.51283
-8.19952 0.320922 9.77785
4.14513 -6.43892 18.9997
5.38178 -1.42054 5.82429
-4.15942 -3.67444 -11.8372
-8.19954 -6.67897 6.34161
6.1387 -5.50957 14.1671
-4.64468 2.74674 -17.17
-8.19955 -6.56388 -4.25242
-2.91638 5.18054 13.5543
-4.50848 -3.0287 -17.0703
-2.86906 4.93353 18.9997
5.99685 4.04994 -4.44074
8.79907 -0.259211 17.3896
10.117 -9.99956 -3.08975
-5.86011 -5.34398 -2.71512
-2.10794 7.9785 9.99944
-1.59906 -1.38829 -19
3.93503 -9.99945 5.84465
-6.09727 -0.993652 5.93306
-6.31707 -5.50831 9.99944
9.78079 3.91239 -9.9996
8.01132 -2.85075 19
-8.1994 6.69467 -9.80675
-6.48258 -3.41915 -9.99969
-5.13462 1.00758 10.1596
6.31979 2.43595 -18.9999
-5.09034 -1.96577 -9.99996
-1.12332 6.36743 -11.8212
6.54002 -7.86114 9.99943
6.80382 6.69169 -3.31585
3.11417 8.294 5.86667
-5.18744 0.611825 17.2118
10.093 9.99949 7.94754
-4.93223 -9.99951 -9.81756
5.97311 4.30349 4.30981
11.5841 5.27513 2.88362
-4.57127 2.90116 -13.6833
6.18044 -5.47329 -11.8674
11.7996 -9.75392 9.80074
7.87866 6.07951 -9.99961
-8.19942 -8.48856 -9.82389
4.05171 -2.40542 -5.56552
-3.77503 -9.99951 -7.98667
2.57603 9.99975 6.14553
8.26304 2.6828 13.6012
7.1308 -4.53072 18.8143
6.01597 5.59764 11.8089
11.7996 9.8159 4.79094
9.68931 -0.0213869 -5.99705
-0.243245 8.24959 -5.65892
-8.08964 -3.96834 -4.51001
6.73279 -4.69433 -3.76576
3.43279 -1.16059 -19.0001
-8.19948 1.463 5.99885
-8.19946 -7.98427 7.78138
-5.16897 0.785558 -17.1362
6.93127 -1.06001 -18.9999
-1.3258 6.2745 14.2248
7.40853 -7.75669 2.14597
-8.19952 1.71964 -7.99179
7.55915 -5.53698 -2.3154
0.189552 -6.80719 10.1517
4.91867 6.26432 -11.7952
6.25697 9.99952 8.24494
-2.39056 5.60987 -10.1419
-5.20237 0.278215 -11.8428
5.10463 3.95284 18.9998
7.58314 -9.838 1.60399
9.79052 -7.59713 -9.99944
-8.19957 -6.10071 1.11752
8.61223 1.62966 -11.8317
11.7995 9.73632 8.14638
-8.19944 0.494098 -6.18461
10.117 0.82381 5.96154
-4.10175 9.848 1.10322
6.56034 2.23495 18.9999
-3.76819 9.99952 8.15266
8.08212 1.18852 -5.87973
6.84958 -4.86093 11.9321
7.62264 -9.99948 -7.99002
-4.25864 -3.99083 10
6.17144 5.47332 -10.1531
-3.60674 4.4622 -10.1757
-8.19962 -2.66008 -5.5733
8.57762 -1.78518 -17.2306
8.22968 8.47447 9.99952
-1.7585 4.10043 -4.82752
7.4413 9.85727 -2.06106
11.7995 -6.32316 4.96689
5.25238 -5.13053 4.91038
11.7995 -4.86218 8.32403
11.7994 8.26749 -4.35489
4.90572 -9.99947 9.77079
1.20532 -6.97514 15.5411
8.06732 3.9471 4.54045
8.33914 2.48916 -13.6878
-3.8372 -4.15313 11.9022
-2.96316 -5.14305 10.1612
2.83394 -6.92235 -14.4505
2.93203 4.32633 -5.8903
1.31556 4.63478 19
8.56503 -9.99971 -2.62498
4.28046 9.9993 5.63164
6.56075 -6.50154 -3.66654
6.59761 -9.88904 -3.59311
7.63892 7.99102 1.42518
-6.33185 -4.33597 -4.15058
-5.86469 9.99953 2.1442
6.71649 -4.98949 -13.5873
-4.59339 2.85095 10.1812
9.76647 -9.99932 -8.25729
-1.94232 -3.24944 -18.9999
-8.19952 -0.472402 -8.01343
-3.44235 -4.63757 -17.2203
-4.22205 6.30516 9.99955
5.13797 -1.03245 -19.0001
7.8223 9.83481 -0.294697
2.19825 -4.70375 -6.01274
-8.02662 9.99932 1.14118
-3.95515 7.94691 -1.78662
-2.43376 7.92279 -9.99944
-3.99828 5.41774 2.60738
-8.19952 0.984785 7.88958
-1.62922 -9.82778 -4.92039
-3.474 4.6035 -14.0965
4.75693 3.14834 -5.22728
11.7995 -8.11531 -4.41947
6.55922 9.99964 -6.84074
1.85216 2.82428 -6.01649
8.19356 2.60358 18.9998
11.7995 8.01282 -2.2433
11.6214 -9.99926 -0.539415
-8.19949 6.05347 9.7922
9.17568 -4.83678 -3.56227
2.24666 -7.26569 -10.0001
11.7994 -4.77495 -6.19941
2.42045 6.97198 11.9153
-8.0576 -9.99946 0.620404
-8.19952 -6.8029 3.8909
-4.19693 -7.94348 -0.504148
4.61181 -6.41383 -11.9551
8.51593 -2.04197 17.0904
4.78117 6.33306 14.1055
9.90228 7.75012 9.99939
-2.59484 -8.23978 -4.08294
-2.17651 -5.77546 15.1767
-4.97661 1.79526 -18.851
11.7997 4.2929 9.84459
10.1538 -4.51223 3.96854
11.7996 3.15339 5.26331
-8.19952 3.05119 6.95373
8.03393 3.45539 -4.90233
-3.68096 9.99918 2.87544
3.05182 6.88994 17.2751
-6.23009 -9.99964 -0.168545
-8.01313 -9.99956 6.41733
-1.87679 9.99956 -8.13018
7.49273 -7.55234 -1.88203
2.80557 -6.92508 -12.3073
9.36832 -5.42754 -9.99945
3.32668 9.99943 -5.99869
-8.01828 -5.04226 -3.2398
-8.19954 6.4298 4.88705
0.432815 -6.61556 18.9997
3.86047 6.68774 -13.4955
9.57131 2.64458 5.3855
7.69711 9.81972 -9.99953
-5.12749 0.997467 -13.6666
0.560267 0.512244 5.99521
-3.92811 -4.02314 -15.4027
-4.75282 -1.7751 -5.74515
11.7994 7.61107 7.95033
-3.08028 2.92551 -5.24408
11.5571 -9.99919 -6.2286
8.58856 -1.72605 -15.2462
-4.3828 -3.28672 13.7605
-2.57326 2.76126 18.9999
2.97562 -9.78226 -9.99949
-2.33285 -9.99951 8.35204
11.7995 -9.86975 8.20396
-3.38431 -1.26521 18.9998
3.24511 -2.02886 5.83704
8.01245 -7.3531 -9.9994
11.7997 -2.63093 -9.84
-4.42416 8.14918 -9.99938
2.59775 9.73928 -9.99951
11.7995 -5.81285 -8.15961
0.902216 9.99966 6.18759
4.34975 6.53095 -15.3147
-4.19012 6.09645 -0.62308
-4.35229 9.99952 -0.577636
-0.511437 -8.39759 5.55636
11.7995 6.50598 -9.82165
11.7995 -8.15539 -0.676045
0.597411 -8.15177 -5.9065
-8.19936 -9.82688 8.16454
11.7994 6.60924 -4.00974
-0.819875 1.50761 19
5.21102 2.97464 5.20941
3.16588 6.87652 -17.2186
-0.419261 -2.64345 19.0001
-8.19958 7.2015 -4.11573
11.7995 -2.80346 -6.91126
-6.29498 8.09295 -9.99931
5.47691 -5.96615 11.9863
5.83966 0.398216 19
-4.30805 9.99955 4.52884
-6.10333 9.99956 5.80618
6.73238 4.9745 17.0461
1.74222 3.46869 6.0089
-0.30398 -0.253102 19
-2.75547 -9.99966 -6.25012
5.89147 9.82377 -9.99938
11.7995 0.990333 8.07628
-2.9744 5.01624 3.64955
7.21016 -5.53214 2.6069
-2.29393 5.68513 10.1692
-3.61078 -4.45147 -13.6444
9.33945 -4.59013 9.99954
11.7992 -5.53775 2.81178
6.35454 5.61343 9.99988
-4.59871 -2.84128 -13.4616
3.11076 9.99951 9.82879
4.62808 -6.40956 17.3043
-1.98844 5.88872 -13.6874
9.97017 -9.99939 9.75893
6.75036 -1.12849 18.9999
-1.71914 -8.35755 9.9995
-8.19952 -4.14494 -6.73697
2.35257 -3.0117 -19.0001
3.94232 4.63199 -18.9998
-2.20972 5.75247 -17.3838
8.29787 -2.59362 15.2581
8.24669 -9.99942 9.81469
8.38236 -8.10359 9.99945
2.07944 -2.8004 -6.02873
11.7995 -8.44386 -6.33473
-5.18849 0.65086 13.5021
-3.43901 0.496353 -18.9998
5.00473 6.22215 -17.1548
1.24326 6.97831 -17.042
8.78352 0.782151 13.7496
-8.01249 9.99968 6.53423
11.7995 8.23774 3.84704
0.306833 2.33473 5.81763
11.7995 8.09025 5.99149
9.71897 -9.99947 7.49136
-7.92153 9.71979 9.99977
0.541472 -3.96203 -5.88529
-7.69856 -9.99955 9.80448
5.73966 -5.52736 -18.9997
2.46498 0.805052 -19
4.18303 -6.58243 -18.8006
11.6074 9.99919 2.96385
8.94421 -0.37075 10.0002
10.0944 3.19009 9.99954
-8.19963 2.17766 -5.83672
0.10696 4.0244 -5.75664
-4.82723 -2.25022 -15.2113
6.09607 5.54155 15.4737
-8.19957 -5.47396 5.22576
-8.19954 -8.44507 9.80772
7.97953 -5.9764 -0.622606
6.37692 -8.11923 -9.99937
-2.68122 5.375 -15.6233
7.87704 -5.90714 1.06836
-3.32406 -7.80952 3.11335
-4.65114 3.06422 -10
-1.39921 -9.99961 6.93492
-8.09299 -4.64241 3.83262
5.95141 -5.82558 9.99982
-7.92048 -1.34372 9.99942
10.1436 9.99951 4.56041
11.6213 9.99921 1.19172
-1.99014 -6.22431 -4.64572
3.58844 6.76795 10.1961
8.22707 2.76094 11.7652
8.1841 9.99951 7.98743
4.64248 -1.39722 19.0001
5.39504 -7.59086 -4.8199
-5.00044 1.71152 -15.4532
3.16624 -9.99948 9.81206
-5.62975 -9.99939 9.83696
-0.981472 -2.68267 -5.35896
2.9064 -6.91444 -16.9065
4.92176 -8.5567 5.12184
-2.95076 5.15405 11.727
0.950376 -6.96204 -13.4223
-8.19864 -9.81829 -7.50368
-7.99494 9.99961 -7.79858
-5.13416 -0.96933 -13.5315
2.56043 6.95641 -15.383
8.72769 -1.04221 13.9102
2.79443 -6.92659 14.2602
-6.73572 5.38752 -2.62484
7.54247 4.02435 14.9595
9.70882 -9.99955 5.30952
9.84099 -5.99323 0.218625
8.0095 -1.29427 -5.85559
-5.0224 0.201512 18.9997
-8.1991 8.39771 -9.82576
-8.19952 2.11201 9.84585
6.229 -2.15071 -5.63193
8.59713 1.67843 -17.2021
-3.98847 9.99908 -2.19489
-7.99071 -9.99858 -9.50762
11.5851 9.99938 6.46894
-4.72533 2.56742 14.1005
-8.0356 9.99941 2.84718
-4.54043 -4.65542 -3.81274
0.317311 6.84506 -18.8354
-8.1995 4.52694 4.19316
0.999802 6.96349 17.224
11.7995 -7.62536 -2.60113
6.68516 5.01334 -11.8526
9.81221 5.88456 -9.99945
-8.1996 8.05766 -2.39276
-8.19946 4.89373 -9.8082
-8.19964 6.14986 -0.595766
-0.274109 9.99953 8.12201
7.32628 4.29618 -15.4098
3.46114 3.39828 5.8008
-1.38108 6.06191 -19
8.19472 9.99962 4.40677
-4.35262 -1.05118 5.91494
11.7996 9.8498 -4.06735
-6.30891 6.00299 0.183246
-0.164792 6.72789 -13.4434
0.313094 -9.99979 5.99078
-6.50043 1.06693 5.90071
11.7995 3.99255 -6.70954
-8.19954 -3.61508 8.53506
-4.10829 8.19758 9.99937
5.60633 9.99962 6.66196
7.34119 7.96912 -2.33418
-7.96786 9.99969 8.28537
0.462094 1.94832 -5.85821
2.8135 -0.933651 19.0001
-8.1995 6.67343 7.25059
11.7994 -8.13808 5.54333
9.50355 9.82439 -9.99966
-0.555573 -6.59912 15.0772
11.7997 -9.82267 1.1173
-6.57584 3.22502 -9.99957
11.6146 2.18647 9.99946
-8.01854 -1.84576 5.72942
-1.25288 3.99876 -19
-8.1995 -8.42258 -4.44674
-3.9538 -3.70217 -18.9996
-4.20583 -2.95464 5.23758
1.22978 7.38922 -5.97034
-0.697814 3.35869 19
7.84737 -6.20709 9.99955
-5.39682 -0.97162 10.0003
11.7995 3.90995 -8.45702
7.98438 5.99219 -0.307548
-4.19792 3.60661 -18.8543
-6.44445 -9.99959 -5.91971
-4.47051 -9.99945 7.98553
-3.10053 -9.99989 -3.94511
-3.75032 -8.27295 -2.26671
3.58586 -6.37801 -5.75463
11.7995 3.00543 8.11226
-2.94801 4.91895 -18.9992
-1.06999 -7.94803 -5.26429
11.7991 -3.09564 5.37082
7.33084 4.2904 -13.5879
6.33393 -9.99939 -9.76387
-3.33064 -1.50429 -18.9999
7.02461 6.88169 2.98315
11.7991 -3.03321 -5.31568
11.7998 1.81131 5.98791
8.23834 0.899208 5.94713
-1.24342 5.17769 5.17169
-8.19946 -8.00301 -6.28729
6.07544 7.88291 -9.99945
11.5848 -4.59767 -9.99934
8.488 0.778233 18.9998
-5.8644 -9.99957 5.87714
5.21229 -6.11868 -17.2035
10.0088 -2.94373 5.25898
-0.981911 6.42255 16.8516
3.56821 2.26627 -5.76013
1.68896 -9.99963 -6.17775
-0.473605 -4.62049 -18.9999
-8.19963 -5.92395 -1.97506
3.71843 6.73395 15.5163
-7.96997 -9.99945 4.56691
-4.84091 2.19945 -11.9082
9.40153 -1.02833 5.91523
11.7994 -8.163 7.64336
2.41909 -8.17456 -5.97222
6.58598 5.1059 -17.0978
-1.15916 2.50868 -5.45679
-7.97774 -5.4762 2.45558
-4.48758 -3.59704 -10.0002
0.83493 -6.95971 -11.6462
-8.19966 4.97843 -3.74429
10.0372 9.99944 -8.17909
-8.05674 -2.87788 9.99953
6.4334 -4.39437 4.08061
-1.06199 6.38822 -15.2581
-0.123956 6.56862 5.68424
5.62094 -9.99958 -7.3763
4.22469 -9.99962 7.87929
4.13027 -8.29067 -5.53662
7.69012 -9.99967 5.69287
8.09904 6.53855 9.99958
-0.419933 9.69942 9.99945
5.84745 -5.71492 18.8305
8.19495 2.87533 10.1257
7.23487 -4.40812 15.4281
-0.243294 -9.76767 -9.99947
11.7995 6.06985 6.38434
3.06123 6.36517 -5.87118
11.6422 -1.04602 -5.917
8.79073 0.751752 -15.2388
-3.98683 9.9996 6.31103
-0.142806 -6.12791 -5.67685
4.52988 4.9438 5.35695
5.93807 9.99953 4.55624
1.19434 -1.70414 19.0001
11.7997 -2.99843 9.75595
-4.28125 5.90277 1.04995
8.98147 1.28046 9.99992
8.36109 -4.45306 4.02658
8.41403 9.99967 -4.10418
-3.96559 -5.93442 -1.75559
0.950608 -1.32438 5.96223
-2.12654 9.99958 7.25373
11.4492 9.80062 -9.99818
-2.44882 -6.27586 4.26034
5.22974 9.99946 9.8428
-0.563396 -2.7122 5.52003
2.87204 8.31561 -5.8998
-8.19954 7.7727 -5.92394
0.663302 -6.70513 -18.9993
2.96641 2.85628 18.9999
-4.59501 3.6749 -4.74441
-5.97197 -9.99942 -7.82926
-4.43318 -3.34392 -4.98175
9.69425 -9.99954 1.04166
6.00882 5.59814 -15.306
4.82763 -8.36207 9.99944
-7.97657 3.07771 5.15723
11.7997 -9.78276 -2.34673
0.376173 4.93164 -19
-0.640041 -6.56227 17.0007
-3.29978 -9.82424 -9.99946
-8.19951 5.02927 8.13204
-6.49612 2.61544 9.99973
-3.118 -7.19222 9.99963
3.05218 -2.97007 19.0001
-2.36247 -3.21505 19
0.222691 -2.76919 -19
-2.47016 -4.06799 -4.42396
7.30225 4.33187 10.2469
11.7994 -4.71847 6.3848
-1.94769 -7.8427 4.67944
2.80703 -8.4117 9.99961
-0.788818 0.627825 -5.99518
2.75778 6.93031 13.6885
-8.1995 -5.91807 -6.10234
6.64215 -5.44077 -9.99978
-6.1433 -9.9996 3.58815
6.88514 5.21631 3.18284
-8.19963 5.87397 -2.1686
11.7995 8.23794 1.66005
11.7997 9.83086 -0.554092
8.61959 1.57984 17.1801
4.3864 -0.0899954 5.99425
-2.82172 8.47566 3.82492
-8.19946 -7.48459 -8.05904
-8.1995 -1.90864 -9.78862
-2.85824 -4.45232 4.02162
-6.54113 -4.49705 3.98058
6.11598 8.19432 -4.17733
8.8424 5.10263 3.15555
3.65635 -9.99944 -5.94989
-3.30151 -9.99941 9.86824
4.79719 6.54906 -9.99968
-6.17431 9.99957 3.89473
9.3025 9.99959 6.20252
5.64969 -9.99941 4.94948
-8.19954 4.88772 6.18226
10.1529 -8.23951 9.99931
3.65683 -6.75156 11.8026
6.35758 5.31333 13.676
6.12145 0.952382 5.93377
4.99263 3.31478 -18.9998
-3.70963 4.33654 10.1669
7.52628 -4.03976 -11.9029
-4.76048 -4.39024 4.08905
8.8006 -0.205562 -16.7972
11.5443 4.81056 -3.57755
-3.21056 -5.21341 -3.28832
4.74661 2.09685 18.9999
11.7997 -9.8503 -4.27154
7.79227 7.88796 -0.523249
-4.99011 -1.7482 -11.7379
2.21684 4.77873 -19
-1.13528 3.09715 5.23759
0.62461 1.05931 -19
4.29944 -8.26495 -9.99955
-7.98483 -6.84657 -9.99957
8.79168 -0.304167 -11.7147
7.35995 9.99966 6.16079
-1.79245 -9.99949 -9.76286
-2.84364 -2.42408 -5.4881
1.10607 0.295463 -5.99417
9.43404 9.99952 -2.52593
-1.0311 -4.62105 -5.29125
3.19488 -7.89016 5.84348
-8.19954 3.16341 8.53124
-1.57605 -9.99956 -7.75593
8.76891 0.863357 11.8728
-5.83542 4.59653 9.99961
-7.99276 9.99932 -2.43107
-0.815051 2.27389 -19
11.555 -4.77342 9.99936
3.57007 0.746738 19
4.74747 -9.99943 -9.80291
-8.19954 3.64663 -5.05938
1.81912 6.71476 6.01335
-5.86551 9.99945 7.77564
-4.37231 -5.99718 -0.126526
2.08639 -7.00059 10.1994
8.90919 4.70676 9.99962
-4.20678 9.99943 9.85892
-4.88386 -2.08147 -18.811
-7.99004 -9.99941 -3.34669
10.114 -9.99948 2.98309
-8.19956 -4.65696 6.90519
11.6843 9.99902 -8.0341
11.7994 7.98625 -7.91217
-2.68501 -9.80263 3.98547
7.70617 -3.75384 17.1298
8.79807 0.503921 -13.5433
0.228004 -9.99958 8.06776
4.13723 8.39609 9.99953
11.7994 -6.49102 7.25874
0.546945 7.33965 9.99973
-4.02331 9.99952 -7.76899
5.02711 6.41304 9.99973
-8.19963 -2.81196 7.04193
7.26481 -0.87804 5.95777
-4.55305 -9.99958 -5.81085
11.6173 -9.99924 6.3875
1.82499 7.00709 15.3807
7.45231 9.99967 -5.62766
6.55408 2.29475 -5.5598
-1.05422 -0.6872 5.99521
11.6226 -5.90083 1.10757
7.8345 3.54402 -17.1959
9.86896 -6.37981 9.9994
8.16647 7.86913 -9.99948
-6.08231 9.9995 -6.65164
-3.13318 -4.97263 13.551
-6.19038 -5.89609 -1.12366
8.2617 -2.75947 5.3256
-0.705774 -4.64918 19
-1.32887 6.2713 12.1685
1.28452 -6.98452 17.3756
11.6104 9.99921 -2.3214
-2.87146 4.72601 -3.77786
-2.58301 -1.84038 5.72638
4.84381 9.99968 -6.89351
-0.630157 9.99882 5.56339
11.6454 -9.99922 4.50661
-1.22404 6.53493 -10
-8.19948 7.79121 9.83064
-5.57822 9.99954 -3.41287
-2.90174 0.31884 5.99481
3.04368 -6.89055 16.451
-6.61471 -1.133 -5.89112
-8.19955 3.8811 -7.4745
-3.60583 -4.46074 15.43
11.7996 -6.50428 9.78027
7.46771 -4.32397 10.0003
11.7996 5.76991 -2.19378
-8.0332 -6.00809 -0.415576
-2.50395 9.99969 -6.42484
0.00765559 6.7651 15.4222
-1.45952 -0.919967 -5.94624
-8.009 -5.24642 -9.9995
-3.70559 5.77924 -2.40902
5.81127 -3.01638 19
10.0213 -9.99955 -4.91765
2.15525 7.31781 9.99985
-3.9226 4.03108 14.8563
9.99751 -3.17239 -9.99955
-5.89006 9.99943 -8.33202
11.7996 -3.91966 -8.26691
11.7996 5.33799 8.20817
6.63999 -8.28509 -3.55584
7.50951 -9.86597 -1.84653
-3.29546 -0.579312 -5.99656
-5.01795 -0.0395548 -5.99718
11.7997 4.73214 -9.87016
9.83058 5.69971 1.87795
1.32521 -3.058 5.97678
-2.23594 9.9995 9.78088
3.46816 -4.90233 -19
11.6743 3.69392 -4.74789
0.729698 6.94074 -15.1227
-6.08334 -5.48983 -9.99961
-1.68521 -1.26335 19
-3.39943 6.90567 2.99204
-6.50017 -9.99947 -9.85665
3.97804 -9.99954 -8.01718
0.202902 6.81612 -10.1994
7.92808 3.39189 16.9151
4.47252 1.04956 -19
-4.44578 -6.23172 -9.99973
-8.19951 -0.023309 -9.8434
-4.90743 -2.47027 10
8.40917 -2.32884 10.1414
-8.19958 -7.94208 1.72753
9.67448 9.99955 0.913874
7.36998 4.24827 12.5184
0.778242 -6.94691 -17.3058
0.536493 6.8945 11.699
8.79296 0.00827713 -18.8311
-0.875274 6.62533 10.0001
7.97731 -3.29657 11.611
3.00663 2.70898 -19
4.00411 9.99951 7.92399
7.65199 -4.26162 -10.0001
2.44987 -6.9781 -18.8436
-2.71978 1.096 -5.90348
8.22427 -2.8024 -10.1479
-8.19944 8.03584 -7.85586
-6.37462 -9.99943 7.84847
3.41739 7.21761 -9.99989
8.45277 -2.22368 -11.8281
-0.656353 4.91605 18.9999
-0.163134 -6.72355 11.8589
-1.44043 1.36455 5.83949
-3.37928 -4.70611 -10.1656
-5.19923 -0.265286 -15.3194
5.02702 1.15412 -5.8907
5.98463 -9.99962 7.22227
-4.56324 9.87069 -9.99935
0.782514 8.32101 5.93112
-6.39095 -3.3445 9.99962
5.27188 -6.31848 -10.0001
0.589195 6.90886 13.5205
-5.30356 1.43619 -9.99956
-1.42194 -6.22198 10.1287
6.57933 -0.0133283 -5.99523
-3.89778 8.09176 1.89814
-7.98253 4.22964 9.99959
-2.76085 0.674294 18.9998
8.70568 -1.12734 11.8938
10.0754 7.83794 -9.99946
4.42862 -4.31378 19
-6.18014 9.99961 -1.60546
11.7995 4.16115 6.65043
4.22938 -6.72344 9.99996
2.76424 -4.12888 5.91725
-5.66832 -9.99961 -4.0208
-6.34575 9.99942 -9.87926
-5.09473 -1.20016 -16.9871
-6.23038 -5.95412 0.829633
6.51437 0.668433 -19
9.86784 9.99953 -0.851279
-6.02021 9.99946 9.79597
-0.694799 -6.54562 -10.194
6.98475 9.87433 3.01514
10.1243 4.25726 4.22409
1.01799 3.02456 -19.0001
0.641242 -7.33529 -9.99984
-2.807 -5.27227 -11.8734
11.59 -6.39803 -9.99931
1.75686 7.3132 -9.99991
6.56705 -2.86555 5.26409
