4.50375 5.18217 -5.36958
3.98035 6.4976 -19
-4.60117 1.80067 -5.73941
-4.45497 -9.99965 4.53547
1.40645 9.81357 -5.98459
5.76041 5.76942 -13.5162
11.7995 5.61647 -5.62507
-2.49735 5.52689 17.3322
6.54532 -9.99948 9.77524
-8.19954 -1.15944 8.04433
-6.37753 6.28125 -9.9994
-6.13183 8.17461 9.99947
2.5655 5.147 5.94917
-4.19638 8.01316 0.0639922
7.9067 3.41838 -11.8285
11.7994 2.03177 -7.82632
-8.04019 -9.99943 -5.38195
-2.44105 6.25946 -4.26623
-5.00456 -1.69567 17.2867
2.36343 -5.15325 19
11.7995 -6.2391 -4.47562
-6.48641 0.95745 -5.93005
5.64906 6.19808 -4.6144
1.37464 -9.73551 -9.99953
6.52721 9.84155 -3.68642
-8.19931 -6.70087 9.84125
5.29687 -9.83173 -4.88207
11.7996 6.15049 -0.687302
-8.1995 -3.46498 5.11464
1.61156 -6.38635 -5.99898
-0.549007 6.60371 -17.0453
-8.1995 7.99254 1.62003
7.68098 4.15333 -10.0002
8.0628 -9.99936 -9.8583
7.25064 2.5528 5.42705
11.7995 6.45667 4.62109
1.49438 0.669061 19
-4.44498 -8.42029 9.99951
10.2447 5.693 9.99942
7.29279 4.34067 18.8357
-2.27576 9.99931 4.75038
-4.03999 -8.02973 1.39212
4.79485 -6.32621 15.4266
8.53544 1.98005 15.3889
4.72319 -3.27258 5.26584
11.7995 0.0730268 6.18595
5.68287 5.62382 -18.9998
3.67857 -6.74396 -10.1978
3.67434 -5.67096 5.71711
-8.1995 3.21324 -9.72406
7.95589 -3.34559 -16.8156
-8.19954 -7.95002 -2.42679
9.82388 -9.99956 -1.05631
2.24469 6.79904 18.9994
7.95032 3.07075 -19.0001
-1.18185 8.26066 5.20461
6.78128 -4.93033 -16.9794
-6.36011 -7.81183 9.99938
1.04438 2.55202 19.0001
-8.19948 9.80437 -6.05779
11.7994 7.60089 -6.18665
2.90601 0.755279 -5.97923
1.29727 -8.07127 5.97701
-8.19966 -1.19568 -6.13309
11.5301 -9.79263 -9.99895
-3.74474 -7.97026 -9.99949
4.29478 -6.54934 -15.6302
11.7995 -1.26122 9.79641
-3.13423 7.95678 -3.40967
-8.19951 5.97114 -7.81194
-0.686711 -6.54596 -14.2974
9.81145 -2.0595 -5.65265
7.67974 5.70331 -1.86934
7.79643 5.82956 1.43749
11.7995 -7.72927 3.41832
11.4217 9.99955 9.78893
-4.31617 -9.99964 -0.897781
2.95172 6.90529 -11.7766
7.47245 -4.11586 13.5696
-6.50474 9.99953 -4.89062
4.29225 9.66352 -9.99947
-8.19954 -8.27473 5.60048
6.97291 4.93542 -3.43879
-4.13744 3.70902 12.3981
-4.92171 -1.49694 18.9993
5.0041 6.22094 17.0221
-4.31912 -9.99946 0.832466
-8.19955 -9.86574 2.51402
-6.20037 4.59455 3.88997
-8.19951 -2.68912 -7.86963
11.7995 6.88715 2.6613
-8.19991 6.08163 1.15378
-8.19956 -8.46322 3.61364
-3.42033 2.42936 5.49459
-2.49554 -5.52778 -15.4549
11.7994 -6.13798 -0.771805
1.24675 -9.99949 9.81697
-1.01111 -6.41086 -18.7876
8.4885 -1.58606 -18.9999
4.41733 -3.24234 -19
-4.67213 -2.69184 15.5812
-2.38708 3.88953 4.57188
0.317193 -9.99954 -8.01628
4.18436 6.42842 18.9999
4.3597 6.53158 12.1289
9.9325 -3.67199 -4.7447
-8.1995 -5.88656 8.22774
11.7998 0.918382 -9.8297
-4.72145 2.58133 16.6709
-4.40994 -3.23679 18.8374
-6.34056 6.40155 9.99945
-4.19929 3.61849 18.7804
-6.10161 -9.99963 -2.18968
11.5913 -4.50327 -3.97936
9.56058 -5.55785 2.30214
-5.66266 4.75534 -9.99956
11.7995 0.143027 -7.88915
-4.93357 1.92085 11.9869
-1.85708 9.81721 -4.75664
-3.14292 -4.95985 18.8355
4.56098 7.75929 -5.35316
-0.399252 9.99966 -5.86631
10.2364 9.99952 -4.47424
-4.25557 6.37939 -9.99952
-1.75992 7.88473 -4.82793
-4.74927 1.01501 5.91802
10.1234 -3.07853 9.99957
0.945636 6.96885 -11.8579
6.60029 8.29883 3.60625
-3.88098 -9.99943 2.53927
0.434046 4.68225 5.86111
6.42911 -8.30486 3.8279
6.41432 -6.51899 3.86325
-7.97234 9.99966 -9.66975
2.4722 -6.98125 18.7836
1.91954 7.01489 -13.5262
8.2582 -9.99969 -4.52631
-4.34432 9.99949 -5.44205
11.7994 -7.89152 -8.21619
-6.2843 2.76157 -5.33094
7.09444 4.57555 -18.8535
8.4253 1.56002 -18.9996
-4.46663 4.06487 4.42531
-8.19948 -3.65849 -9.76363
11.7995 -2.94375 7.58358
8.79225 -0.258251 15.6195
-0.688587 6.06073 -5.48391
-5.10294 1.14404 15.3489
9.17727 -9.99951 -6.52318
-8.19949 8.16738 5.75612
-8.19955 8.0761 -0.358189
-8.19953 7.83435 3.51218
11.5173 2.60341 -9.99945
-0.0819146 -0.677233 -19
4.94401 -6.92918 5.10792
8.31081 -2.56328 13.2447
1.90672 9.99951 8.02639
-8.19944 8.27242 7.95334
-5.06859 -1.35933 13.7602
5.13221 8.23537 4.99352
1.14955 -6.96885 -15.4398
9.84294 -5.72268 -1.87552
1.89195 -7.01226 12.2012
8.05543 -3.14634 -18.8157
-4.03005 -6.02467 1.44642
6.07774 -5.55433 -15.2953
11.6542 5.91886 1.03217
-4.01245 -3.8998 17.1863
-3.52025 -5.49713 2.81097
9.46883 9.99964 2.76488
-1.35469 -6.26476 13.3984
9.92525 3.75804 -4.68892
-8.19969 5.57761 2.79505
-6.17686 9.9996 0.337533
4.05323 1.65105 5.7764
-2.76878 2.44412 -18.9998
11.7995 -1.07472 7.92518
-0.940958 -9.99945 9.815
0.483457 -8.48298 9.99958
-1.65393 -8.13281 -9.9995
0.1062 9.99962 -7.95363
1.10104 -3.91521 19
11.7995 -1.59094 -8.1852
0.542605 -4.68036 5.89305
10.2344 -1.17993 9.99964
-1.53668 -6.15134 18.8122
2.14267 6.82349 -18.9996
-8.03339 9.99931 -0.67576
2.57473 -1.03586 -5.96226
-1.21246 -5.14318 5.1847
-3.91991 -9.99943 -2.54319
-4.20103 3.62152 -15.439
0.711673 -6.93538 13.6423
9.0931 4.90207 -3.46668
-2.51318 -5.51347 17.0394
9.82529 5.68191 -1.96236
2.09297 9.99965 -7.93301
-4.74401 1.94143 18.9999
8.28038 2.63806 -15.4694
-2.61682 -5.20424 -18.9997
-8.03885 -4.79125 9.99955
4.65456 -0.686726 -5.9921
0.900795 9.81568 -9.99946
9.15595 0.696031 -10
6.88075 -9.99962 3.49967
11.651 -9.99938 -8.09569
-8.19955 -8.04572 -0.379453
-6.16298 5.59657 2.16722
-0.744309 -6.52162 -16.2559
11.7998 -4.46576 4.3085
0.371323 6.68139 18.9996
-3.78256 4.24104 16.8878
8.63709 2.36354 -9.99985
-7.89863 1.49543 -9.9996
7.03731 -9.99965 -5.96669
9.84837 6.0052 -0.0762169
-6.15816 -2.88502 5.26672
-5.72268 -5.4299 2.54414
-1.59438 0.589159 -18.9999
-8.19948 -5.34836 -8.1728
7.58033 -3.96233 -15.1715
1.89807 -6.15744 6.01553
-2.23316 -5.73699 -13.6552
11.7994 -8.09191 9.77251
-3.43764 -9.99963 6.23417
6.26418 -5.40321 16.7472
8.05076 -3.19376 -13.5947
11.6519 8.32469 9.99926
-2.23408 -6.01244 -10
11.478 -0.804463 -9.9995
11.6016 -1.52044 5.80387
-5.19132 -0.251861 -18.8399
5.22026 -5.64446 -4.9187
2.19766 1.62308 6.00767
8.53678 -9.9996 3.60887
5.15413 9.83076 -4.97255
11.7998 4.48307 4.39003
8.68462 -1.2594 -13.5274
-6.10513 -9.9996 1.76504
1.27043 5.40175 -5.97085
7.80686 -9.99947 7.86816
3.96 6.68897 5.59394
-5.66496 5.80748 -1.52341
-1.4412 6.21289 18.8024
-0.211204 -9.99883 -5.89577
7.79654 9.99943 1.51173
2.22067 -9.99943 -8.05958
11.5275 0.482399 9.99952
-1.46906 -9.87684 5.06377
11.7996 9.81211 -6.12452
6.11289 -2.93801 -18.9999
-2.53206 5.49788 15.5302
2.16361 -9.99995 6.16122
-6.75362 -1.15702 -9.99974
11.7995 7.9458 -0.177162
8.5717 -1.07318 18.9997
11.7995 6.48897 9.81294
-1.04259 -6.39543 -12.1664
-1.07179 9.85481 -9.9993
1.34487 9.9995 9.88308
-5.20209 -0.258113 11.8194
5.85977 5.70096 18.812
9.79689 2.04996 -5.65845
7.7974 -8.02702 0.0912121
11.6116 0.683839 -5.96167
11.7995 -7.78465 1.40519
3.97432 9.9996 -8.33711
11.6245 -8.19018 -9.99964
11.7995 8.20551 -9.80807
4.46222 -6.49067 13.5398
6.18571 9.99956 -8.49118
3.82228 -4.27842 -5.66178
11.7997 -9.74987 2.76058
-4.95899 4.96284 -3.36993
-8.19954 9.71408 -4.1616
-2.11599 6.69175 4.54318
-4.81264 -2.2853 11.9163
2.26884 -9.99963 7.99312
9.01359 -1.14227 -9.99996
3.25241 4.81141 18.9999
0.509428 -1.55509 -5.87079
-8.19957 5.60757 -5.81431
-2.78563 5.2916 -12.0817
9.72877 -9.76777 -9.99939
-5.80178 2.86441 5.28581
11.7998 2.29695 -5.7322
-8.19949 9.82563 4.67306
-8.05228 -0.267027 6.00358
-6.47971 4.23911 -4.24336
11.7995 -5.60892 -2.57578
-4.01243 3.8987 -12.0541
7.98694 -9.99949 -0.14782
-6.33871 -2.87774 -5.27268
-0.260276 8.31374 -9.99958
-8.0475 -9.99945 -1.37215
11.7995 -6.67946 -6.38909
1.48293 -4.82115 -19
-2.0084 -5.87726 -17.3364
2.52894 -0.210845 5.99893
-3.61713 4.44669 -17.0963
-0.211082 -6.6051 5.65811
1.59712 -1.09571 -19
-1.93908 -3.46704 4.89938
-6.66263 0.46084 9.99964
5.45002 -3.73459 -4.75783
-3.20938 9.99948 -3.7253
-5.97164 -7.87222 -9.99943
-2.89646 9.8399 -9.99925
8.20028 9.99952 -7.957
7.1175 -4.54814 -18.8171
7.28387 9.9994 9.84848
6.29124 7.98614 9.99944
11.7994 5.9405 -7.7741
-4.75521 -6.24406 9.99965
-5.41526 -0.139357 -9.9996
-3.25833 -6.89137 -3.2233
-5.17414 -0.726643 15.592
9.5131 9.99952 -6.25497
-2.26093 -5.71657 11.884
7.88091 -3.35606 -4.97091
4.8618 -6.29205 -13.7241
9.43183 9.99936 9.84102
5.77067 6.42559 4.50308
-8.19952 0.305127 9.78933
4.11239 -6.38482 18.9998
5.41655 -1.44844 5.81734
-4.14864 -3.69073 -11.8372
-8.19953 -6.67833 6.39515
6.13096 -5.51492 14.1114
-4.64894 2.73792 -17.1321
-8.19955 -6.53487 -4.24116
-2.91812 5.1791 13.5599
-4.50465 -3.03692 -17.0794
-2.86839 4.91519 18.9997
6.01156 4.04779 -4.44243
8.79953 -0.227234 17.3876
10.1406 -9.99955 -3.10192
-5.90476 -5.37511 -2.65255
-2.06936 7.98315 9.99944
-1.58082 -1.40989 -19
3.95806 -9.99945 5.8377
-6.11812 -0.964296 5.94074
-6.30377 -5.47515 9.99945
9.79925 3.86948 -9.99959
8.00243 -2.86322 19.0001
-8.1994 6.70616 -9.80216
-6.48318 -3.42151 -9.99969
-5.13157 1.02334 10.169
6.32819 2.39534 -18.9999
-5.09611 -1.95421 -9.99995
-1.11097 6.37245 -11.8157
6.52355 -7.84193 9.99943
6.8158 6.69035 -3.29869
3.09563 8.29713 5.86941
-5.19393 0.570789 17.2185
10.0721 9.99949 7.97637
-4.92694 -9.99951 -9.81651
5.97005 4.29793 4.31286
11.5855 5.26785 2.89959
-4.57874 2.88585 -13.677
6.15921 -5.49241 -11.8885
11.7996 -9.7527 9.79993
7.88097 6.1113 -9.99961
-8.19942 -8.47269 -9.82119
4.05981 -2.40584 -5.56205
-3.79545 -9.99951 -7.98541
2.5741 9.99975 6.14764
8.26426 2.67978 13.6102
7.11713 -4.54772 18.8123
6.02845 5.58928 11.7902
11.7996 9.82318 4.79897
9.68677 -0.0472866 -5.99715
-0.237726 8.21697 -5.66053
-8.08324 -3.95237 -4.52564
6.75482 -4.70057 -3.75818
3.43135 -1.16121 -19.0001
-8.19948 1.49644 5.99329
-8.19946 -8.00015 7.79618
-5.17031 0.778143 -17.1429
6.93994 -1.09807 -18.9999
-1.33185 6.27191 14.1905
7.41212 -7.74735 2.13506
-8.19952 1.71523 -7.99239
7.55901 -5.55008 -2.28433
0.224857 -6.81459 10.1629
4.9383 6.25426 -11.7943
6.23569 9.99952 8.22273
-2.39294 5.60812 -10.1629
-5.20222 0.265486 -11.8435
5.10431 3.94362 18.9998
7.56457 -9.82463 1.66388
9.77841 -7.63348 -9.99944
-8.19957 -6.14365 1.10277
8.61398 1.62029 -11.8307
11.7995 9.74494 8.13126
-8.19943 0.487699 -6.18626
10.0954 0.807824 5.96515
-4.10506 9.84658 1.09002
6.55622 2.22773 18.9999
-3.77341 9.99952 8.18031
8.08768 1.17861 -5.88201
6.81819 -4.89 11.9041
7.60317 -9.99948 -7.99433
-4.25104 -4.00235 10
6.17881 5.46798 -10.1526
-3.61415 4.45402 -10.1625
-8.19962 -2.65267 -5.58325
8.57724 -1.7882 -17.2523
8.22484 8.44362 9.99952
-1.76916 4.10385 -4.82085
7.44295 9.85353 -2.05573
11.7995 -6.3382 4.94243
5.22679 -5.0952 4.92819
11.7995 -4.83438 8.32657
11.7994 8.27768 -4.36318
4.92833 -9.99947 9.77011
1.22602 -6.97613 15.5443
8.06305 3.95587 4.53395
8.33444 2.50064 -13.6668
-3.82327 -4.17342 11.8806
-2.96941 -5.13724 10.1624
2.8664 -6.91808 -14.4153
2.9594 4.3147 -5.88591
1.32972 4.64477 19
8.63326 -9.9997 -2.69277
4.2735 9.9993 5.63733
6.5827 -6.50463 -3.63363
6.57529 -9.88086 -3.62269
7.63808 8.03381 1.42833
-6.36261 -4.33956 -4.1469
-5.87874 9.99953 2.17917
6.71428 -4.99148 -13.5875
-4.59248 2.85289 10.1867
9.7685 -9.99932 -8.21557
-1.92977 -3.26528 -18.9999
-8.19952 -0.459511 -8.03568
-3.44039 -4.63971 -17.2078
-4.21724 6.2968 9.99955
5.14305 -1.03198 -19.0001
7.82238 9.8227 -0.302357
2.17527 -4.75184 -6.01664
-8.03024 9.99931 1.0929
-3.95975 7.95683 -1.77548
-2.42159 7.88005 -9.99944
-3.99402 5.41795 2.60699
-8.19952 0.984269 7.91626
-1.64384 -9.82838 -4.91137
-3.47951 4.59755 -13.975
4.77819 3.15034 -5.21394
11.7995 -8.09985 -4.44097
6.58117 9.99964 -6.77264
1.86259 2.84826 -6.01734
8.18117 2.6131 18.9998
11.7995 8.00956 -2.2194
11.6186 -9.99926 -0.541407
-8.19949 6.06052 9.79229
9.16668 -4.8391 -3.55886
2.24454 -7.27056 -10.0001
11.7994 -4.77473 -6.18057
2.36015 6.97958 11.9203
-8.04451 -9.99947 0.630193
-8.19952 -6.79808 3.89004
-4.19685 -7.9281 -0.485984
4.55734 -6.44038 -11.9011
8.52001 -2.02374 17.0852
4.78903 6.32904 14.0654
9.9128 7.77407 9.99939
-2.59448 -8.23293 -4.08335
-2.17367 -5.77718 15.1978
-4.97507 1.8 -18.8485
11.7997 4.2859 9.83868
10.1389 -4.54134 3.93943
11.7996 3.15012 5.26625
-8.19952 3.08215 6.95083
8.0429 3.44423 -4.9104
-3.68168 9.99917 2.86662
3.05084 6.89007 17.3035
-6.23665 -9.99964 -0.181993
-8.00348 -9.99956 6.40915
-1.86612 9.99956 -8.12194
7.49538 -7.70307 -1.87329
2.79639 -6.92629 -12.2922
9.35817 -5.42343 -9.99945
3.3389 9.99937 -5.98724
-8.01184 -5.02583 -3.26506
-8.19954 6.40928 4.89998
0.423747 -6.61242 18.9997
3.85775 6.68855 -13.5221
9.58297 2.62989 5.39254
7.6726 9.82431 -9.99952
-5.12527 1.01064 -13.6376
0.539729 0.518274 5.99521
-3.93448 -4.01367 -15.3669
-4.74158 -1.78387 -5.74307
11.7994 7.60923 7.97117
-3.0762 2.9227 -5.24541
11.5601 -9.99919 -6.25108
8.57882 -1.77261 -15.2724
-4.37129 -3.31017 13.7031
-2.55133 2.74572 18.9999
2.99736 -9.77704 -9.99949
-2.36359 -9.99951 8.30034
11.7995 -9.87248 8.1902
-3.36208 -1.24239 18.9998
3.27135 -1.98981 5.83261
8.01172 -7.32301 -9.99941
11.7997 -2.61176 -9.83649
-4.40549 8.13072 -9.99938
2.60555 9.73308 -9.99951
11.7995 -5.81744 -8.14423
0.888809 9.99965 6.20397
4.39076 6.51781 -15.3181
-4.18772 6.13305 -0.635476
-4.35477 9.99952 -0.590473
-0.501608 -8.40408 5.56137
11.7995 6.49492 -9.80224
11.7995 -8.15046 -0.615858
0.597207 -8.15108 -5.90645
-8.19939 -9.82285 8.18881
11.7994 6.66849 -4.01128
-0.817166 1.45783 19
5.23315 2.95608 5.21875
3.19905 6.87104 -17.2123
-0.417874 -2.6302 19.0001
-8.19958 7.19607 -4.11499
11.7995 -2.80214 -6.90471
-6.29551 8.1161 -9.99931
5.43835 -5.99291 11.9566
5.86183 0.419438 19
-4.34977 9.99955 4.51679
-6.10871 9.99956 5.82401
6.74497 4.96312 17.0243
1.72853 3.4497 6.00785
-0.263389 -0.286846 19
-2.74205 -9.99966 -6.25466
5.90551 9.77362 -9.99938
11.7995 0.998357 8.05503
-2.9534 4.99635 3.68177
7.20466 -5.57285 2.62512
-2.31107 5.67414 10.166
-3.58874 -4.47569 -13.607
9.32853 -4.62517 9.99954
11.7992 -5.53556 2.80825
6.35678 5.60504 9.99988
-4.59719 -2.84447 -13.497
3.09234 9.99951 9.81892
4.62182 -6.41276 17.3425
-1.99289 5.88606 -13.6892
9.99852 -9.99939 9.75934
6.75059 -1.1335 18.9999
-1.7143 -8.35659 9.9995
-8.19952 -4.15888 -6.69996
2.37135 -3.01983 -19.0001
3.94631 4.6507 -18.9998
-2.21675 5.74715 -17.3653
8.30076 -2.58644 15.2409
8.27394 -9.99942 9.8129
8.37684 -8.10675 9.99945
2.11041 -2.82976 -6.02759
11.7995 -8.44412 -6.35106
-5.1937 0.619457 13.5535
-3.44147 0.498368 -18.9998
4.99883 6.22512 -17.1882
1.29542 6.98173 -17.0407
8.78136 0.792396 13.7528
-8.01036 9.99968 6.56034
11.7995 8.24298 3.86581
0.290346 2.33727 5.81297
11.7995 8.08649 6.01415
9.7091 -9.99947 7.52436
-7.91992 9.71394 9.99977
0.532799 -3.95503 -5.88257
-7.69901 -9.99955 9.80589
5.71797 -5.51323 -18.9997
2.51146 0.796939 -19
4.16505 -6.58843 -18.8127
11.6076 9.99919 2.93889
8.94473 -0.361358 10.0002
10.0739 3.16764 9.99954
-8.19963 2.17459 -5.83706
0.113866 4.04712 -5.75893
-4.8408 -2.20787 -15.2516
6.04695 5.57492 15.4628
-8.19957 -5.4831 5.24475
-8.19954 -8.4338 9.80733
7.96941 -5.97148 -0.65457
6.38597 -8.08502 -9.99937
-2.74707 5.32141 -15.605
7.8811 -5.91431 1.03298
-3.32296 -7.79417 3.11482
-4.64621 3.08759 -10
-1.40495 -9.99961 6.89954
-8.08113 -4.68165 3.78199
5.97732 -5.83233 9.99981
-7.91742 -1.36314 9.99942
10.1291 9.99952 4.55111
11.6162 9.99922 1.16069
-1.98121 -6.23464 -4.65297
3.56594 6.77433 10.1956
8.23943 2.73159 11.7805
8.17157 9.9995 8.0323
4.6392 -1.368 19.0001
5.41738 -7.59522 -4.80622
-4.9922 1.73707 -15.4324
3.17535 -9.99948 9.80768
-5.62969 -9.99939 9.83119
-0.989293 -2.68334 -5.35866
2.89844 -6.91529 -16.8785
4.90444 -8.57123 5.13291
-2.95242 5.15273 11.745
0.977939 -6.9634 -13.4475
-8.19865 -9.80824 -7.51111
-7.99459 9.99961 -7.82523
-5.13467 -0.966398 -13.5265
2.57385 6.95462 -15.3848
8.73546 -1.00453 13.9127
2.79595 -6.92636 14.2509
-6.71248 5.3804 -2.63988
7.54715 4.01669 14.962
9.72234 -9.99954 5.33825
9.84104 -5.99311 0.250211
8.03464 -1.2836 -5.85796
-5.02157 0.199414 18.9997
-8.1991 8.39937 -9.8247
-8.19952 2.10009 9.85347
6.22891 -2.12972 -5.64288
8.59543 1.68604 -17.1886
-3.98549 9.9991 -2.22094
-7.99504 -9.99854 -9.5268
11.5858 9.99938 6.46475
-4.72722 2.5615 14.1067
-8.03616 9.9994 2.82963
-4.56144 -4.67526 -3.78865
0.312758 6.84386 -18.8233
-8.1995 4.52339 4.19296
0.987241 6.96221 17.2395
11.7995 -7.6271 -2.57656
6.6935 5.0056 -11.853
9.77794 5.86069 -9.99946
-8.1996 8.02014 -2.36802
-8.19946 4.89911 -9.7985
-8.19963 6.14924 -0.620525
-0.282184 9.99953 8.08823
7.33776 4.2821 -15.4175
3.47457 3.40259 5.79858
-1.38193 6.05547 -19
8.16596 9.99963 4.43146
-4.37204 -1.05397 5.91445
11.7996 9.85505 -4.09136
-6.29069 6.00435 0.229382
-0.160742 6.72872 -13.4565
0.32921 -9.99979 6.00187
-6.52882 1.04159 5.90613
11.7995 3.98478 -6.68146
-8.19954 -3.64726 8.5081
-4.09368 8.18282 9.99937
5.6106 9.99962 6.64586
7.3287 8.01838 -2.35968
-7.97118 9.99969 8.29434
0.467844 1.93754 -5.85974
2.79112 -0.945074 19.0001
-8.1995 6.65552 7.27405
11.7994 -8.15471 5.57486
9.50715 9.81765 -9.99966
-0.560906 -6.59696 15.1231
11.7997 -9.81097 1.1113
-6.5747 3.14973 -9.99958
11.6121 2.18705 9.99946
-8.00548 -1.82946 5.73519
-1.26263 3.99737 -19
-8.1995 -8.38311 -4.40307
-3.94251 -3.71186 -18.9996
-4.14982 -2.96408 5.23292
1.21275 7.38512 -5.9693
-0.718561 3.34586 19
7.87078 -6.22502 9.99955
-5.39828 -0.973557 10.0003
11.7995 3.90619 -8.43393
7.99704 5.99485 -0.257967
-4.2023 3.60015 -18.836
-6.44107 -9.99959 -5.95412
-4.4583 -9.99945 7.99129
-3.10098 -9.99989 -3.95004
-3.76011 -8.25593 -2.24222
3.5951 -6.37425 -5.75097
11.7995 3.01599 8.10361
-2.94728 4.91052 -18.9992
-1.06316 -7.97565 -5.2679
11.7991 -3.11203 5.36742
7.32504 4.29757 -13.6049
6.35564 -9.99939 -9.77166
-3.29335 -1.51759 -18.9999
7.05927 6.87985 2.92648
11.7991 -3.06328 -5.30326
11.7998 1.80775 5.98773
8.22404 0.923156 5.94149
-1.24586 5.14171 5.16923
-8.19946 -8.00458 -6.25819
6.02506 7.86986 -9.99946
11.5815 -4.59873 -9.99934
8.48064 0.792682 18.9998
-5.84157 -9.99957 5.90812
5.15528 -6.14702 -17.2014
10.0263 -2.95658 5.25202
-0.966932 6.42882 16.8702
3.59015 2.25303 -5.75119
1.68294 -9.99963 -6.18405
-0.481332 -4.61694 -18.9999
-8.19963 -5.90272 -1.99027
3.77763 6.71487 15.542
-7.9683 -9.99945 4.56409
-4.84703 2.18211 -11.8495
9.43986 -1.01398 5.91815
11.7994 -8.17245 7.69214
2.41987 -8.16942 -5.97215
6.57427 5.11671 -17.1023
-1.14236 2.52986 -5.4461
-7.9867 -5.49525 2.41603
-4.48556 -3.59203 -10.0002
0.848799 -6.96292 -11.6614
-8.19966 4.98357 -3.73868
10.0349 9.99944 -8.14944
-8.04969 -2.90202 9.99953
6.42391 -4.39521 4.07977
-1.09553 6.37427 -15.3006
-0.157436 6.62143 5.67426
5.6195 -9.99958 -7.3691
4.21245 -9.99962 7.87744
4.13476 -8.29507 -5.53501
7.68458 -9.99967 5.72158
8.11391 6.51289 9.99958
-0.414657 9.6913 9.99945
5.83661 -5.72229 18.8122
8.19279 2.88066 10.1212
7.23754 -4.40488 15.412
-0.228289 -9.7638 -9.99947
11.7995 6.07694 6.4003
3.06306 6.37235 -5.87085
11.6369 -1.07873 -5.91014
8.79133 0.682321 -15.2181
-3.98618 9.99959 6.33027
-0.144774 -6.13238 -5.67625
4.5481 4.9416 5.3492
5.97549 9.99955 4.58367
1.22332 -1.74367 19.0001
11.7997 -3.00447 9.76173
-4.28306 5.90502 1.03832
8.98503 1.29514 9.99992
8.3533 -4.44238 4.03776
8.40614 9.99967 -4.07863
-3.97588 -5.91989 -1.73019
0.957153 -1.31529 5.96271
-2.06162 9.99958 7.25202
11.4644 9.79624 -9.99817
-2.43682 -6.28171 4.2704
5.21687 9.99946 9.83751
-0.532747 -2.67382 5.53513
2.83138 8.30178 -5.90669
-8.19954 7.7869 -5.91131
0.655495 -6.70522 -18.9993
2.93005 2.81569 18.9999
-4.57557 3.6801 -4.74072
-5.96618 -9.99942 -7.84393
-4.42204 -3.37063 -4.96223
9.7068 -9.99953 1.0641
6.01848 5.59148 -15.3205
4.8036 -8.36819 9.99944
-7.94757 3.09442 5.14643
11.7997 -9.78243 -2.34298
0.377302 4.92404 -19
-0.675034 -6.54779 17.0293
-3.32097 -9.8291 -9.99946
-8.19951 4.98241 8.12369
-6.49324 2.63405 9.99973
-3.10379 -7.18853 9.99963
3.0725 -2.97225 19.0001
-2.35785 -3.19678 19
0.254298 -2.77358 -19
-2.44904 -4.05885 -4.43351
7.30917 4.32363 10.2435
11.7994 -4.73551 6.3789
-1.96457 -7.88158 4.66659
2.78677 -8.42494 9.99961
-0.781892 0.600109 -5.99525
2.80179 6.92473 13.6875
-8.1995 -5.92818 -6.08786
6.64828 -5.43789 -9.99977
-6.13608 -9.99961 3.63515
6.87571 5.21164 3.19855
-8.19963 5.86277 -2.18134
11.7995 8.23051 1.64817
11.7997 9.83362 -0.579794
8.61435 1.60466 17.1703
4.37399 -0.111466 5.99414
-2.81437 8.482 3.83326
-8.19946 -7.48302 -8.03723
-8.1995 -1.90564 -9.78474
-2.85104 -4.45403 4.01986
-6.53181 -4.45377 4.02487
6.13139 8.1886 -4.16265
8.84182 5.11257 3.14053
3.6458 -9.99944 -5.95592
-3.2938 -9.99941 9.85335
4.78664 6.52798 -9.99968
-6.23837 9.99956 3.92114
9.34071 9.99959 6.23262
5.66225 -9.99939 4.93941
-8.19954 4.90794 6.17253
10.1441 -8.21988 9.99931
3.63288 -6.7589 11.8252
6.3788 5.29414 13.6543
6.10994 0.886088 5.94938
5.01617 3.34691 -18.9998
-3.70028 4.35048 10.1818
7.52255 -4.04586 -11.9126
-4.74992 -4.38063 4.09893
8.80054 -0.188596 -16.8182
11.5512 4.82793 -3.55408
-3.19937 -5.20512 -3.30542
4.72904 2.10949 18.9999
11.7997 -9.84213 -4.26299
7.78818 7.88929 -0.548635
-4.98273 -1.77088 -11.7343
2.22443 4.79569 -19
-1.12484 3.08991 5.24345
0.665518 1.04726 -19
4.2808 -8.28252 -9.99955
-7.98372 -6.83599 -9.99957
8.79145 -0.324871 -11.7115
7.38998 9.99966 6.18025
-1.80647 -9.99949 -9.77391
-2.86533 -2.41854 -5.49057
1.12156 0.282291 -5.994
9.47441 9.99953 -2.57088
-1.03987 -4.63689 -5.28632
3.20075 -7.89332 5.84247
-8.19954 3.11908 8.5558
-1.59964 -9.99955 -7.77852
8.77077 0.854708 11.8773
-5.8303 4.6087 9.99961
-7.99055 9.99932 -2.46419
-0.7895 2.2787 -19
11.5603 -4.78457 9.99936
3.58847 0.720696 19
4.78009 -9.99943 -9.80361
-8.19954 3.65808 -5.05019
1.81147 6.71363 6.01278
-5.85519 9.99945 7.79081
-4.3784 -5.9972 -0.133717
2.12224 -7.00052 10.1933
8.91442 4.70047 9.99962
-4.22656 9.99943 9.84835
-4.88221 -2.08694 -18.8178
-7.99102 -9.99941 -3.35876
10.1199 -9.99947 2.9957
-8.19957 -4.636 6.85468
11.675 9.99902 -8.02497
11.7994 7.97756 -7.91746
-2.71588 -9.79555 3.94839
7.70184 -3.7609 17.1233
8.79841 0.542151 -13.5085
0.20332 -9.99958 8.05206
4.07824 8.42337 9.99954
11.7994 -6.49512 7.26013
0.538246 7.32684 9.99974
-4.01009 9.99952 -7.79436
5.01497 6.42564 9.99972
-8.19963 -2.77769 7.05977
7.32064 -0.893808 5.95369
-4.53767 -9.99958 -5.80866
11.6114 -9.99924 6.37266
1.85329 7.00851 15.4106
7.5121 9.99966 -5.59578
6.57096 2.27142 -5.57071
-1.0503 -0.656385 5.99521
11.5901 -5.90215 1.10536
7.83557 3.54225 -17.1777
9.89597 -6.37197 9.9994
8.11935 7.93759 -9.99949
-6.0372 9.99951 -6.63363
-3.11846 -4.98857 13.5532
-6.20127 -5.91301 -1.05684
8.27307 -2.73501 5.33735
-0.695336 -4.64156 19
-1.31574 6.27688 12.1468
1.24203 -6.98221 17.3675
11.6016 9.99921 -2.34534
-2.88575 4.73912 -3.75963
-2.58231 -1.81177 5.73319
4.82613 9.99968 -6.89005
-0.673553 9.99891 5.61986
11.6323 -9.99922 4.49276
-1.20346 6.51689 -10
-8.19948 7.82806 9.82564
-5.55605 9.99954 -3.4517
-2.91838 0.316894 5.99482
3.04735 -6.88994 16.4722
-6.55863 -1.07301 -5.90533
-8.19955 3.85553 -7.46704
-3.60785 -4.45856 15.4002
11.7996 -6.49894 9.72314
7.47822 -4.32146 10.0003
11.7996 5.78606 -2.22025
-8.03725 -6.00771 -0.445551
-2.51816 9.99969 -6.40347
-0.0105405 6.76066 15.412
-1.45259 -0.946796 -5.93978
-8.01514 -5.22735 -9.9995
-3.70439 5.77428 -2.41241
5.80021 -3.01983 19
10.0462 -9.99954 -4.9563
2.1446 7.35999 9.99984
-3.92727 4.02415 14.8539
10.014 -3.17307 -9.99955
-5.93176 9.99943 -8.32124
11.7996 -3.91182 -8.26022
11.7996 5.32479 8.2021
6.6822 -8.29789 -3.49705
7.52548 -9.74977 -1.80332
-3.27504 -0.587494 -5.99657
-4.96989 0.0287006 -5.9975
11.7997 4.73771 -9.86854
9.87809 5.69754 1.88685
1.37938 -3.02043 5.98057
-2.24847 9.9995 9.77122
3.49051 -4.89674 -19
11.6574 3.69157 -4.74972
0.716699 6.9376 -15.1447
-6.08717 -5.49865 -9.99961
-1.6803 -1.23125 19
-3.38673 6.87582 3.01312
-6.48333 -9.99947 -9.84799
3.96571 -9.99954 -8.01565
0.219833 6.81973 -10.1839
7.92279 3.40072 16.9544
4.50717 1.05299 -19
-4.43768 -6.2416 -9.99972
-8.19951 -0.0378095 -9.83473
-4.90863 -2.47092 10
8.40491 -2.33937 10.1457
-8.19958 -7.96396 1.72474
9.694 9.99954 0.92273
7.38342 4.2323 12.489
0.801586 -6.94849 -17.3141
0.515461 6.88918 11.6486
8.79322 0.0130285 -18.8247
-0.904009 6.62329 10.0001
7.97286 -3.30431 11.6364
3.01718 2.70669 -19
3.98311 9.99951 7.93516
7.66461 -4.23241 -10.0001
2.44348 -6.97925 -18.831
-2.70981 1.10988 -5.9001
8.22912 -2.78988 -10.1592
-8.19944 8.03357 -7.85714
-6.37431 -9.99943 7.86264
3.41734 7.19706 -9.99989
8.44997 -2.23036 -11.8345
-0.644859 4.89679 18.9999
-0.192818 -6.71638 11.8792
-1.45956 1.36971 5.8382
-3.36362 -4.72411 -10.1653
-5.19918 -0.24485 -15.3319
5.03436 1.15152 -5.89137
5.97685 -9.99962 7.23895
-4.5883 9.86738 -9.99935
0.822617 8.33192 5.93464
-6.35294 -3.34859 9.99962
5.27228 -6.31691 -10.0001
0.613537 6.91491 13.5131
-5.32455 1.42485 -9.99956
-1.43064 -6.21878 10.1655
6.56559 -0.0395019 -5.99514
-3.89669 8.07843 1.90097
-7.98214 4.22483 9.99959
-2.81292 0.681716 18.9998
8.70466 -1.13291 11.8843
10.0607 7.82711 -9.99946
4.40459 -4.31365 19
-6.15797 9.99961 -1.62637
11.7995 4.17416 6.60932
4.24117 -6.72316 9.99996
2.78143 -4.09831 5.91435
-5.67937 -9.99961 -4.05058
-6.35673 9.99943 -9.87629
-5.09471 -1.19954 -17.0279
-6.2409 -5.95327 0.833472
6.54655 0.634701 -19
9.84324 9.99953 -0.879671
-6.05139 9.99946 9.81357
-0.699132 -6.54372 -10.1984
7.02766 9.84139 2.94002
10.0961 4.23403 4.24838
1.03235 3.03162 -19.0001
0.632685 -7.31688 -9.99984
-2.76342 -5.30805 -11.8634
11.5836 -6.40192 -9.99931
1.77441 7.31579 -9.99991
6.5554 -2.885 5.25418
