1.47111 5.71988 0.452675
-3.18323 5.89379 -1.06656
-2.76713 5.37305 -1.36861
0.714017 5.56381 -5.29865
0.660351 7.04366 -4.60868
2.38611 5.03566 -0.928375
-1.26596 6.84019 -2.95748
-2.21584 6.98193 -3.12488
-2.83918 6.28834 -0.908145
-2.57105 4.94847 -2.56463
0.497906 6.68638 -5.22212
-0.04571 6.16145 -3.42274
-2.89164 5.38468 -2.1551
0.689294 5.00754 -0.215538
-0.568807 6.51593 -5.29941
-2.18847 6.56294 -0.279871
0.704886 6.4467 -2.87002
3.12488 6.42062 -1.78664
-2.99021 6.56257 -2.87568
-1.88201 4.876 -4.31543
1.48501 5.2564 -1.91855
-2.25785 5.25246 -0.595189
1.16412 6.36547 -2.28566
-0.0972004 5.56252 -5.3356
0.0540115 5.94887 -1.03709
1.32483 5.28669 -5.15071
-2.84023 6.68911 -2.47806
0.50716 7.02945 -0.654046
-2.92562 5.45837 -1.75043
-1.2266 7.12408 -0.267856
0.853536 5.96912 -2.9337
0.66773 5.75731 0.780933
1.37989 6.42641 -4.92131
2.09584 5.72926 0.000926825
0.311452 6.98321 -5.176
1.59203 5.10368 -1.53999
1.77053 7.19263 -4.19384
-1.13645 5.14039 -3.34703
-1.54891 6.02882 -4.939
1.38274 4.75854 -3.32611
-0.659964 5.28675 -3.0967
-1.28885 6.52867 -2.61462
-1.44487 6.56431 0.354034
-3.38742 6.128 -2.17744
-2.74835 6.11091 -0.553763
-1.78442 4.69367 -1.3892
0.253181 6.46898 0.839729
2.40487 6.54063 0.0239904
-2.49291 5.04657 -3.4078
-1.15166 6.84149 0.423348
-0.80275 6.86854 -5.21001
0.096679 6.42988 -1.05185
1.08018 6.5221 -2.74586
-1.44047 6.66878 -2.30768
0.547312 5.04999 0.716502
-0.161241 5.01437 -3.90023
2.19632 4.69715 -2.12293
1.62938 6.98889 -0.602762
0.872939 5.98854 -2.27417
-1.87602 5.07593 -0.572733
2.46842 5.18069 -3.27803
1.48912 7.06674 -3.76989
-0.100045 5.78212 -3.41972
-0.406327 6.43305 -3.38689
-2.18284 6.16963 -4.53328
1.32633 5.05226 -4.25341
-1.06545 5.45441 -1.39905
-1.24905 7.0144 -3.9426
-2.22382 6.87375 -3.58656
-2.18948 5.07256 -0.963064
-0.165091 6.99466 -4.03176
-2.54234 6.68007 -0.957611
2.35825 5.51115 -4.57188
0.979755 5.05154 -4.45254
1.82991 7.28011 -1.6719
1.36409 6.95303 -0.257882
-0.109572 6.12713 0.855141
2.3196 6.8937 -1.15148
1.51988 5.25163 -2.33155
-1.478 5.05052 -1.50874
2.68066 6.46999 -0.263718
-1.53231 5.05713 -3.2832
0.722052 5.11903 -0.874465
-1.35312 5.24226 0.400887
-2.05442 4.68279 -1.72458
2.23964 5.14484 -3.60361
0.263057 5.02047 0.358959
1.25936 7.08485 -0.732532
-1.49142 4.71737 -1.13947
-0.813164 5.47445 -2.79584
0.974351 6.65449 -5.06309
0.653284 6.98784 -4.18995
2.61493 5.34891 -1.02091
2.63192 5.5857 -4.30267
-0.492638 6.56036 -1.35777
1.81287 5.81684 -4.86858
-0.759746 5.12849 -3.44248
-2.53851 5.29571 -0.988983
1.00933 6.82928 0.726318
2.95744 6.53542 -1.4234
-1.95471 7.3025 -2.36576
-0.192209 5.17598 0.872744
-1.15945 5.26233 -2.97952
-0.322582 5.77841 -1.05682
-1.65005 5.85632 0.513215
-0.550194 5.23895 0.876908
-2.81548 5.73673 -0.384247
1.00358 6.70451 -3.14902
-0.173742 6.14149 -5.32898
2.01999 7.29656 -1.9973
2.63904 6.73561 -3.1879
3.13103 6.39756 -2.20703
-1.08092 6.13247 -2.49188
2.86229 5.46959 -3.32647
1.33838 7.09766 -4.13836
-3.14755 6.44254 -2.46656
-0.333626 5.13076 -3.37765
1.76579 7.12139 -3.45158
-0.254632 6.26851 -1.13125
-0.944989 5.14214 0.34907
-0.611054 6.87686 -0.708997
-0.842211 5.89209 -1.501
1.16606 5.3059 -1.52012
-2.44579 6.597 -4.38173
2.09756 4.69646 -2.48681
-2.73965 6.5156 -4.06021
-2.4707 6.16581 -0.269438
-1.33642 5.13262 0.0385263
0.552002 6.91093 -3.80149
2.02156 5.14264 -3.91195
0.258567 6.98164 -4.22851
1.68783 5.08384 -4.08445
3.18619 6.27394 -1.09516
0.181443 4.99157 -4.0838
-1.38919 7.11374 -3.48043
-3.04531 6.49242 -2.0529
1.94546 7.22707 -3.89443
-0.157434 5.0621 0.428625
-1.31766 4.94317 -4.29151
2.22057 6.92998 -3.84259
2.36687 6.22712 -4.23401
1.73783 4.86312 -0.100644
-0.230251 6.97445 -3.49151
2.90427 6.3958 -0.560584
1.84005 4.97172 -1.96702
1.66001 7.10058 -0.975873
2.82407 6.68388 -1.8846
2.90939 5.44346 -1.82495
1.39488 6.78244 -2.94005
0.558486 5.1621 -5.30061
0.690096 7.02539 -5.05817
0.50836 5.33307 -3.43812
-1.76696 7.27562 -2.71066
2.45282 7.04354 -2.96138
2.84218 5.63869 -4.02943
0.904287 5.11861 -4.90852
-2.06407 7.31438 -1.98597
-3.07387 6.3776 -1.65314
-1.84707 7.03726 -3.43376
1.46135 5.65888 -5.08162
-2.58726 5.01049 -2.1637
0.596793 6.12623 -3.17961
-0.883963 5.68679 -2.48701
0.960329 5.21089 -1.17765
1.6718 6.82907 0.0720495
1.43614 6.03514 -4.99938
1.82072 4.9065 -1.1553
-0.189786 6.76158 -1.13007
0.965177 5.02422 -0.491295
-2.51087 6.92954 -2.53329
2.43137 7.03108 -2.01094
1.57433 5.03779 -2.75038
-1.3915 5.01391 -0.347936
0.638082 5.37657 -1.43323
-0.18688 6.61232 0.799464
-1.17391 6.34128 -2.14582
1.32489 5.16305 -4.73816
-0.537636 4.98578 -4.74538
1.08656 6.44809 -1.51979
2.90297 6.48907 -2.96253
-1.61682 6.86918 -4.55526
2.36199 5.66971 -0.31124
0.139484 6.94773 -3.76626
-1.96634 6.89484 -3.89854
0.68464 6.51967 0.808734
2.7086 5.98732 -4.01619
-1.88651 6.90556 -0.203902
-1.84219 4.88055 -0.982446
-1.72862 6.2395 0.31412
0.591585 6.9004 0.776685
0.686786 6.80446 -3.4488
-0.136693 6.58521 -5.32153
-3.16473 5.72318 -1.87641
1.20186 5.58374 -2.2872
2.19355 5.05998 -0.521424
2.40598 5.36665 -0.598138
0.294974 7.01661 -4.71867
1.01875 7.07046 -4.39861
1.09537 5.8722 0.655944
2.07761 6.73927 -0.0751241
0.771293 6.28033 -1.26763
-2.13806 4.87355 -1.34704
-2.89691 5.57006 -1.02668
2.9399 6.55485 -2.52954
1.69859 5.21211 -4.55143
-1.52825 6.9441 -2.64265
-1.61431 7.00326 -3.77039
0.157211 5.11288 0.822028
-2.6359 6.67885 -3.68645
3.02832 5.54936 -2.94274
-2.74677 6.13902 -3.92402
1.80568 5.37118 0.113496
0.313166 5.01125 -0.0991987
1.49804 5.27852 0.324967
1.94816 4.87935 -1.57072
2.92789 6.08459 -3.60455
1.04261 6.18828 -5.12734
-2.48551 6.4939 -0.602308
2.83403 5.6823 -1.04067
-0.0318604 5.05341 -3.49704
1.4105 5.09099 -1.15721
0.31282 5.99951 0.848507
3.21091 5.8073 -3.34372
1.6916 6.70277 0.500009
-1.25185 7.17716 0.169984
0.914732 5.21161 -3.316
-2.98657 6.43439 -3.68918
-1.7073 7.00744 -2.22114
1.63927 6.88469 -2.61963
-0.849857 7.00359 -4.16501
-0.52417 5.0334 0.05525
0.608247 4.99991 -4.28077
0.372667 5.65188 -1.13987
1.04709 5.53302 -3.02185
2.93629 6.04689 -0.811325
0.918428 7.13363 -1.01936
2.06515 5.27363 -0.195426
-1.00318 5.05333 -3.76466
1.71649 5.36575 -4.99673
-0.519406 7.02879 -3.86482
0.330371 5.83653 -3.3942
2.57511 6.83757 -1.58514
-2.76097 6.59586 -1.31473
-2.18524 7.10463 -2.71352
0.308634 5.53641 -5.34078
-0.0576569 6.58439 -3.42176
2.12369 6.18462 0.161067
1.81012 4.93708 -2.38792
-1.94291 4.90123 -3.15185
2.28014 4.71375 -1.68088
-1.41431 6.41652 -5.05623
0.593284 5.05334 -4.69648
-1.5006 4.88498 -0.720083
0.204555 5.01615 -4.5236
1.75633 6.27101 -4.74173
-3.36915 6.17404 -2.52694
3.00319 6.43006 -0.885156
0.291684 4.97695 -3.55541
2.06063 5.43984 -4.799
-1.56441 6.90769 0.10984
0.433602 5.21514 -1.1977
1.79129 7.04657 -2.23598
2.29417 4.94026 -2.88281
0.721101 5.66633 -3.25735
-0.128074 7.01364 0.71478
0.0106177 6.93378 -5.25191
-2.10465 6.26753 0.016569
-0.491043 6.96965 -4.84289
-1.33556 6.17888 0.551778
1.15449 5.48707 -1.9047
-2.35286 6.74856 -4.00906
0.735905 6.14631 0.785594
0.9703 5.23193 -5.24823
-1.38703 5.00751 -3.72887
-0.707026 5.62159 -1.18052
-2.51291 6.79923 -3.31021
0.13742 6.97124 -0.497044
0.459378 6.58648 -1.05985
0.168432 5.07256 -1.00155
3.16166 5.65976 -2.5407
-1.35436 6.89787 -1.14335
2.4755 4.90799 -2.04493
-0.690253 6.74757 0.656418
1.08165 6.19813 -1.92431
2.31326 6.72239 -0.422919
-1.90522 5.34243 -4.52293
0.691213 4.97921 0.218207
-0.635478 6.14891 -5.279
0.778677 5.55982 -1.6968
-2.24241 4.77924 -3.59261
1.38498 4.91788 -3.78836
-2.15219 5.2253 -4.1971
-3.00607 5.56501 -2.51957
2.20109 7.29493 -2.78197
1.0905 4.94343 -0.0420533
-2.44506 6.96962 -1.37149
-0.562102 5.11647 0.496409
-1.20429 6.95608 -4.3649
0.0309291 5.63876 0.88353
2.40474 6.0944 -0.11816
-2.31492 4.69523 -2.42434
1.18263 5.39857 0.544565
1.79781 6.28353 0.40352
-3.19447 5.78607 -2.26952
-0.999599 4.98103 -5.0207
0.113733 5.10667 -5.30741
-3.02453 5.81684 -0.720182
-2.95048 6.0476 -3.53941
-1.71953 5.15829 -0.202197
-2.84438 5.67674 -3.35651
-2.16384 6.90156 -0.574104
-2.78159 5.25143 -2.58355
-1.12492 6.11099 -5.14239
-1.05534 7.13869 -3.30657
1.63423 4.72923 -3.10873
0.911371 6.01472 -1.60863
-0.979225 6.65164 -1.33802
-2.66905 5.18091 -1.77698
-0.949065 7.06736 -3.71907
1.91738 7.12908 -2.64904
-2.86262 6.61159 -3.27767
2.66102 5.2348 -2.92864
-1.905 5.86302 -4.67156
-0.212206 6.90272 -0.69616
1.62084 6.98745 -1.84925
3.17484 6.25936 -2.68607
-2.59363 5.4132 -3.61088
-0.380648 6.90144 -5.26348
1.0869 6.88642 -3.5625
2.11486 4.76645 -0.814772
0.632416 5.96388 -5.2715
-1.62545 5.62097 -4.82057
-0.506857 6.99307 -4.3746
2.67136 6.69549 -1.17387
-0.301239 4.95911 -0.39512
0.396399 5.4589 0.832372
0.896412 4.99628 0.568115
-1.16677 4.75476 -0.960046
-1.00979 6.47352 0.604029
-1.63501 4.90884 -4.01328
3.41 6.0424 -2.25303
-3.07591 5.66213 -1.4196
-3.17707 6.34535 -3.29524
2.73453 6.78334 -2.25962
0.858496 5.77617 -1.99332
2.47889 4.98393 -2.49751
-0.832253 4.80554 -0.858777
-0.19034 5.00578 -4.37698
2.2953 6.582 -4.05563
-1.83328 6.56627 0.0707667
-1.60351 5.24857 -4.75802
2.61178 6.3283 -3.83876
1.37123 6.7644 0.629388
1.40842 4.92201 -0.375007
-0.458604 6.01375 -3.33051
-2.00493 6.81243 -4.31535
-2.42411 5.44813 -0.295748
-0.655954 5.01827 -5.16315
-1.75357 7.03285 -1.79461
-0.872149 7.12194 0.433869
3.08337 6.17627 -3.15992
-0.681097 4.92999 -0.406814
1.03189 7.07322 -4.88498
0.838075 6.93401 0.383509
0.564607 7.04211 -0.96548
-2.32754 7.11039 -2.23551
-0.43976 5.78445 -5.30051
0.968148 4.93325 -3.94892
-2.44363 5.88524 -4.16537
-1.27917 5.33975 -4.98549
0.675246 5.8328 -1.3456
1.89215 4.70555 -2.82022
2.14192 7.30176 -2.35784
-1.02743 6.86083 -0.914701
0.966043 6.96755 -0.0874283
-1.39877 7.07762 -0.661888
-0.18863 6.98239 -0.198681
2.05335 6.62656 0.295846
-2.00387 5.91456 0.285422
-1.05226 5.72349 -1.77999
1.97132 7.0925 -1.24911
0.301244 6.34082 -3.32977
-0.960102 6.98378 -0.513112
2.64104 5.69329 -0.678194
0.827649 5.4085 0.703505
-1.56501 6.76801 -4.97694
0.171725 6.92237 -0.992629
-0.952845 4.96279 -4.5793
-1.24551 5.38247 -2.5897
-1.24802 6.905 -4.76307
0.705727 4.88195 -3.54692
1.07168 5.74171 -5.19712
-2.11416 7.31343 -1.58092
1.4198 6.91827 -3.32074
-2.68302 5.7775 -3.76879
1.98887 6.84253 -4.24698
0.519506 6.63803 -3.12583
1.4992 4.89001 0.130415
-1.84334 6.31364 -4.81446
1.57353 7.15311 -4.4509
3.39194 5.96527 -2.59666
-1.17428 6.82411 -5.1237
1.92977 4.81011 -0.410244
1.3765 6.87628 -1.55962
1.3619 6.62619 -2.52322
1.50484 6.73502 -2.17962
-0.360736 5.61387 0.893212
-0.390316 5.5318 -3.31727
-0.0831042 5.01475 -0.0109527
-0.63217 6.71438 -3.35023
-0.561616 6.97904 -0.312447
-1.07953 6.36768 -2.89392
2.22373 7.07982 -1.60865
-1.77913 4.90175 -1.77614
2.64092 5.39479 -3.68625
-3.36831 6.06569 -1.84623
-0.818074 5.19788 -1.05833
-1.98278 4.90478 -2.69756
1.64917 4.91263 -0.754989
-1.23497 5.35753 0.753074
3.04333 5.72095 -3.70859
-1.14906 5.59597 -2.16582
1.44919 6.20134 0.560664
-3.16731 5.86968 -2.7377
-3.04555 6.25163 -1.25721
2.8166 5.31624 -2.57774
2.23965 4.73486 -1.24366
-0.510374 5.39288 -5.27297
1.85823 6.86706 -0.353239
-1.72616 7.06912 -1.3825
-0.631753 6.74573 -1.06166
-2.66831 5.49048 -0.661274
-1.61605 5.13985 -1.979
-1.45053 6.70502 -1.93103
0.0805825 4.99714 -0.499246
-1.41214 5.35146 -2.20814
-2.07421 5.3232 -0.128834
2.63083 5.10416 -1.71828
-1.88319 6.71636 -4.80822
-2.3231 5.94433 0.0288249
-1.39981 6.77898 -1.53875
-0.106899 7.02979 0.296844
-3.31061 5.97882 -1.48414
0.317691 5.05366 -4.97081
-2.67628 6.82677 -2.11351
2.09568 7.25296 -3.5571
1.20243 4.94906 0.386184
2.5241 5.04111 -1.35324
0.0890134 5.43468 -3.45053
2.98051 5.47699 -2.23518
-1.81932 4.90378 -3.59147
-0.973117 6.46219 -5.21619
-1.60738 6.9275 -4.16711
0.42629 6.11792 -1.10811
-1.98295 5.51132 0.408575
-1.63928 4.90802 -4.57824
1.28267 5.11705 -3.07592
2.71897 5.18752 -2.16144
2.06231 5.28055 -4.34573
-1.10512 6.48603 -1.73168
1.31863 6.56532 -1.86852
2.78988 6.41708 -3.41032
1.11585 6.38324 0.70845
-2.41019 5.51584 -4.0056
-0.699536 5.76086 -3.11587
2.0421 6.42541 -4.44162
2.07187 6.90518 -0.781837
3.38492 6.11535 -1.85683
1.30723 5.40816 -2.69743
0.923562 7.04218 -0.527269
-0.685637 6.3632 -1.60209
0.219195 6.95448 0.772664
0.205489 5.93888 -5.32775
1.57817 7.24947 -1.39447
2.50391 6.66575 -3.63631
-0.880391 5.9275 -2.15486
-2.38661 4.90568 -1.75765
-2.33587 4.74296 -3.19391
1.76526 4.92985 -3.57199
2.81925 5.44562 -1.4157
0.337665 6.9897 0.407361
3.12504 5.783 -1.62765
3.30654 6.19748 -1.45707
2.43519 5.88861 -4.37802
-1.32227 5.38106 -1.75407
-0.827027 5.66418 0.836226
-3.08157 5.93731 -3.13191
2.39669 5.34925 -4.04849
-0.0913425 6.99286 -4.87908
2.04829 4.91963 -3.2417
-1.58806 7.22655 -0.17059
0.00758091 5.46377 -1.008
0.222094 6.82547 -3.36513
-2.60691 6.81309 -2.90261
1.05275 5.78591 -2.63013
-1.33665 4.94749 -4.82826
1.21331 5.05266 -0.801859
-1.85002 7.1538 -3.06224
-1.81148 7.26032 -0.497716
-0.955488 5.03013 -0.092332
2.11038 5.96989 -4.61122
-0.817584 6.14863 -1.87848
-0.876409 7.08796 -0.0374726
2.16395 7.28081 -3.17119
-0.548373 5.04592 -3.81479
-0.274195 5.05798 -5.25889
-2.08238 4.82131 -3.97002
-0.547254 6.36768 0.76922
-1.65726 5.13912 -2.46337
2.6648 6.03871 -0.43631
-0.40966 5.32176 -0.976051
-0.486306 4.87652 -0.837323
0.580927 6.97579 0.0935621
1.35747 6.78405 -4.82692
3.06544 5.89033 -1.25014
0.462352 5.04694 -0.589346
1.71002 6.7252 -4.58946
-1.58749 5.12183 -2.87558
1.77963 7.05402 -3.03437
1.2658 6.88732 0.229482
-2.28606 7.0075 -0.968475
-2.22509 4.68556 -2.07514
-1.74115 5.29405 0.184555
-2.61151 5.05914 -2.96093
-0.482181 7.06486 0.61434
-2.59833 5.68627 -0.10897
-1.93021 4.9081 -2.22457
1.80067 5.85364 0.281851
1.10585 6.83035 -1.30121
3.3275 5.88158 -2.95776
-1.97182 7.28419 -0.832416
-0.861166 6.95445 -4.68993
0.669013 6.35294 -5.21758
1.04378 4.81432 -3.46539
-2.49314 6.23682 -4.27032
-2.17247 6.65287 -4.61646
-1.18761 5.07681 -1.22403
-1.07162 4.89477 -0.533792
0.825568 6.21859 -2.5707
-0.92535 6.07789 0.730836
2.45975 7.06533 -2.47272
0.178927 6.9912 -0.0245337
-1.25135 5.73041 -5.05048
0.518087 4.94288 -3.89894
-1.62319 5.4408 0.608576
-2.45927 5.10842 -1.36352
-2.35309 5.12755 -3.82193
3.19691 5.7521 -2.04713
-0.568861 5.00504 -4.27089
-2.70546 5.32662 -3.21446
-0.510694 5.97016 0.837447
2.55337 6.67951 -0.752149
-0.570354 6.075 -1.2809
0.810012 6.69375 -1.15984
-0.114669 5.01215 -4.85074
1.27435 7.20242 -1.17258
0.540929 6.99824 -0.28374
-0.497474 7.05894 0.153422
-3.29899 6.26676 -2.91466
-0.950874 5.00306 -4.12679
-1.66463 7.12528 -0.971757
-2.16073 5.6729 -4.38423
1.33659 7.12089 -4.66588
-0.15123 4.96522 -0.886012
0.996078 6.97469 -3.93404
-0.97598 6.69705 -3.16533
-0.104156 6.9931 -4.4689
-2.42132 7.0555 -1.7968
-2.3592 4.71687 -2.83187
2.6878 6.80267 -2.73265
-0.656238 7.05764 -3.44459
-0.922028 5.9487 -2.8536
-0.849505 5.79832 -5.20959
-0.778798 6.26503 -3.18508
-1.25954 5.76575 0.702563
2.38029 6.99005 -3.40825
-1.45028 7.21991 -3.0576
-0.910195 5.40542 -5.15918
0.22594 6.36754 -5.30282
-2.30045 5.58273 0.171193
-2.07587 7.30284 -1.20798
-2.90451 5.53002 -2.92975
-2.74628 6.72393 -1.71331
-0.884494 5.27361 0.820083
