4.61708 5.52299 -5.32507
3.99861 6.61339 -18.9998
-4.66574 2.00135 -5.68728
-4.76816 -9.99963 4.15978
1.09216 9.9512 -5.96177
5.55315 5.91296 -13.6416
11.7994 5.74017 -5.73529
-2.33297 5.66132 17.2146
6.49813 -9.99947 9.9347
-8.19955 -1.20871 8.05526
-6.37184 6.11058 -9.9994
-5.47845 8.2368 9.99944
2.56166 4.99587 5.9494
-4.19677 7.97763 0.135248
7.71837 3.73984 -11.8505
11.7994 1.97612 -7.85967
-8.13492 -9.99942 -5.43959
-2.7507 6.48705 -3.91456
-5.06142 -1.39287 17.1589
2.60949 -4.94537 19
11.7995 -6.40158 -4.46851
-6.40243 0.947224 -5.93266
5.81297 6.34296 -4.457
1.73768 -9.89408 -9.99952
6.27611 9.96161 -4.01234
-8.1993 -6.57075 9.95116
4.74023 -9.99958 -5.31363
11.7996 6.05507 -0.507776
-8.19941 -3.48096 4.98493
1.89062 -6.78641 -6.01914
-0.375045 6.67086 -17.1696
-8.1995 7.80485 2.07055
7.60313 4.07439 -10.0005
8.40107 -9.99934 -9.95037
7.10688 2.61902 5.39683
11.7995 6.35191 4.84061
1.51523 1.02353 19
-4.72338 -8.27748 9.99949
9.9705 6.0167 9.99944
7.23753 4.40519 18.9488
-2.37531 9.99925 4.44658
-4.03811 -7.99682 1.40039
4.25667 -6.55974 15.3756
8.38598 2.38117 15.3621
4.89722 -3.17144 5.14977
11.7995 0.0598704 6.07573
5.56591 5.85813 -18.9998
3.85281 -6.77044 -10
3.03731 -6.17785 5.87195
-8.1995 3.25972 -9.92414
7.6696 -3.81544 -17.0676
-8.19954 -7.8665 -2.318
9.79447 -9.99956 -1.00539
2.15416 6.96596 18.999
7.80406 3.52753 -18.9999
-1.30139 8.21718 5.14075
6.46974 -5.21233 -17.1287
-6.44561 -7.50476 9.99938
0.672015 2.88192 19.0001
-8.19916 9.94273 -6.43149
11.7994 7.78276 -5.99409
2.63739 0.709808 -5.98368
1.21923 -7.83687 5.97011
-8.19953 -0.946239 -6.01292
11.7214 -9.91403 -9.99867
-3.51933 -7.98397 -9.9995
4.00473 -6.6416 -15.3286
11.7995 -1.25123 9.93489
-3.13895 8.18294 -3.40546
-8.19951 5.93355 -7.83373
-0.251201 -6.70148 -14.9796
9.86019 -2.1618 -5.60615
7.6526 5.78359 -1.65164
7.63642 5.75791 1.68736
11.7995 -7.83998 3.81506
11.6538 9.99957 9.92391
-4.21146 -9.99963 -0.907194
2.73252 6.93492 -11.8584
7.15245 -4.50997 13.7138
-6.52781 9.99954 -4.22778
4.59041 9.95761 -9.99943
-8.19954 -8.10045 5.63845
6.86826 5.02929 -3.28797
-4.32321 3.42221 11.9735
-4.97868 -1.63578 18.9992
4.97389 6.23603 17.1376
-4.23335 -9.99944 0.706852
-8.19954 -9.95524 2.54066
-6.4578 4.33983 4.14597
-8.19951 -2.55926 -7.92693
11.7995 6.92401 2.93361
-8.19997 5.98732 1.05338
-8.19956 -8.51882 3.6709
-3.51883 2.49631 5.46065
-2.27662 -5.70844 -15.4901
11.7994 -6.02985 -0.744455
0.552104 -9.99947 9.94262
-1.15515 -6.35173 -18.9436
8.6033 -1.45467 -18.9998
3.9729 -2.43359 -19.0001
-4.76842 -2.43216 15.398
-2.14732 3.83032 4.62065
-0.0628319 -9.99957 -7.81292
4.01757 6.63641 18.9272
4.07353 6.62609 11.8731
9.96089 -3.88993 -4.58813
-8.19949 -5.73668 8.31759
11.7998 0.902924 -9.95182
-4.64641 2.73691 17.095
-4.4269 -3.20122 18.9513
-6.51745 6.67189 9.99946
-4.17622 3.65309 18.944
-6.09511 -9.99963 -2.16105
11.7372 -4.53088 -3.95165
9.52996 -5.59914 2.21462
-6.07888 4.23746 -9.99956
11.7995 0.0316208 -7.93806
-5.02006 1.61448 11.9404
-1.93909 9.94512 -4.68847
-3.37261 -4.70531 18.9477
4.16755 7.90375 -5.51029
-0.527829 9.99899 -5.62537
9.96843 9.99955 -4.48797
-4.41366 6.19941 -9.99953
-1.6617 7.95781 -4.90496
-4.87494 0.910891 5.94237
10.1362 -2.36175 9.9996
0.739276 6.93424 -11.8995
6.31957 8.28104 3.97887
-3.80798 -9.99904 2.35506
0.571477 4.59512 5.90553
6.26402 -8.19157 4.03426
6.27193 -6.31977 4.01676
-8.12182 9.99968 -9.9044
1.86946 -7.01386 18.9504
1.75465 7.00543 -13.6371
8.20109 -9.9997 -4.49071
-4.08292 9.99949 -5.66862
11.7994 -8.06027 -7.93253
-6.33191 2.83216 -5.29896
6.80697 4.90898 -18.9477
8.49928 1.94258 -18.9995
-4.49332 4.19458 4.29052
-8.19948 -3.54241 -9.92359
11.7995 -2.71394 7.72021
8.8017 0.452424 15.4064
-1.17923 5.88252 -5.19944
-4.94605 1.87837 15.3842
8.51709 -9.99956 -6.42699
-8.19949 7.773 5.96849
-8.19953 8.07855 0.0318104
-8.19952 8.29359 3.93835
11.7599 2.71351 -9.99944
0.120314 -0.814969 -19.0001
4.78209 -6.8225 5.21251
8.23113 -2.7613 13.7191
1.75038 9.9995 8.00243
-8.19944 8.34416 7.89945
-5.06201 -1.39816 13.6502
4.84056 8.18006 5.17515
1.88323 -7.01668 -15.3084
9.80879 -5.73016 -1.85792
1.71376 -7.00181 11.9151
8.06363 -3.12607 -18.9506
-4.00323 -5.85419 1.59215
5.88659 -5.68427 -15.3306
11.7998 5.9664 1.14358
-4.30687 -3.45157 17.1201
-3.45293 -5.31353 2.95037
9.33488 9.99962 2.88178
-1.20843 -6.32626 13.6337
9.94291 3.9928 -4.48908
-8.19971 5.48449 2.61364
-6.23045 9.9996 0.0838212
3.82823 1.4782 5.82193
-2.74275 2.25395 -18.9998
11.7995 -0.70963 8.01176
-1.56301 -9.99942 9.94118
-0.522974 -8.30283 9.99956
-1.28845 -8.20751 -9.99952
-0.260284 9.99961 -7.86655
0.774167 -4.76469 19
11.7995 -1.79197 -8.1717
0.720585 -3.88329 5.93384
10.3015 -0.186119 9.99965
-1.90807 -5.94314 18.9412
2.29395 6.95463 -18.9995
-8.14455 9.99929 -0.958697
2.53832 -1.15645 -5.96646
-0.861509 -4.95321 5.39373
-3.80452 -9.9994 -2.41927
-4.20946 3.60929 -15.3585
0.846725 -6.95566 13.6702
8.35694 4.7452 -3.70745
-2.9562 -5.15543 17.1136
9.80447 5.35741 -2.71279
1.68454 9.99965 -7.95013
-4.89904 1.90071 18.9998
8.5455 1.91915 -15.3225
-2.75509 -5.25945 -18.9997
-8.14338 -4.74891 9.99955
4.51825 -0.749845 -5.984
1.00407 9.94881 -9.99945
8.85931 0.891399 -10.0001
6.62543 -9.99967 3.68957
11.7439 -9.99933 -8.31993
-8.19955 -8.10008 -0.304467
-5.88903 5.37397 2.67909
-0.533641 -6.6096 -16.8398
11.7997 -4.35914 4.23323
0.287497 6.80002 18.9995
-3.64857 4.41088 17.0773
8.34317 2.69251 -9.99986
-8.15416 1.46007 -9.9996
6.61511 -9.99966 -6.08331
9.77694 5.96313 -0.754147
-6.04257 -2.57516 5.41223
-5.93165 -5.29226 2.85559
-1.33452 0.696686 -19
-8.19948 -5.22855 -8.17136
7.38722 -4.22561 -15.3148
1.07528 -5.74977 5.95993
-1.59704 -6.12495 -13.737
11.7994 -8.30972 9.95047
-3.67849 -9.99964 5.99041
6.37613 -5.29956 16.8535
8.03284 -3.22284 -13.6365
11.7522 8.34347 9.99926
-1.96382 -6.01807 -10.0002
11.6973 -0.839997 -9.99948
11.7468 -1.56223 5.78916
-5.19136 -0.117794 -18.9505
5.39194 -5.93654 -4.80326
2.05299 1.33499 6.01575
8.37997 -9.99964 4.18533
4.74898 9.93726 -5.21505
11.7995 4.4571 4.14748
8.69675 -1.19967 -13.6131
-6.02436 -9.9996 1.95745
1.90766 4.84486 -6.02151
7.56478 -9.99948 8.07663
3.85915 6.57795 5.6334
-6.023 5.91178 -1.10269
-1.55376 6.14687 18.9517
-0.432916 -9.99857 -5.67
7.6756 9.99914 1.52386
1.91788 -9.9994 -8.04393
11.7588 0.793635 9.99949
-1.57563 -9.99972 5.045
11.7996 9.93241 -6.63576
5.24658 -3.83579 -18.9999
-2.4101 5.59846 15.3784
2.16929 -9.99995 6.06672
-6.70236 -0.670444 -9.99971
11.7995 8.02299 -0.12159
8.69252 -1.00581 18.9997
11.7995 6.53424 9.94393
-0.726875 -6.52636 -12.1938
-1.01071 9.95057 -9.99929
1.13047 9.99951 9.96333
-5.2039 -0.435778 11.8826
5.77029 5.75879 18.9497
9.86551 2.15229 -5.6115
7.76765 -8.01639 0.681651
11.7461 0.544198 -5.97307
11.7995 -7.77157 2.0089
3.53582 9.9996 -8.20336
11.7404 -8.22643 -9.99966
11.7995 8.20611 -9.9507
5.07417 -6.18784 13.5008
5.78061 9.99958 -8.32369
3.80696 -4.45878 -5.66766
11.7997 -9.9373 2.73978
-4.86609 5.02936 -3.27665
-8.19955 9.91088 -4.64182
-2.04152 6.5029 4.60373
-4.75478 -2.46183 11.8705
1.55647 -9.99962 8.01955
8.90248 -0.699166 -10.0001
3.5409 4.81701 18.9999
0.533855 -1.8261 -5.88339
-8.19957 5.65703 -5.70547
-2.95465 5.15632 -11.8215
10.069 -9.93887 -9.99922
-5.69724 2.91352 5.26372
11.7998 2.12958 -5.69805
-8.19949 9.94642 4.8806
-8.1547 -0.194014 5.99856
-6.39177 4.25087 -4.2316
11.7994 -5.55131 -2.51103
-4.21581 3.60115 -11.8065
7.86819 -9.99938 0.433461
-6.29915 -2.88207 -5.27074
0.117373 8.42003 -9.99958
-8.14617 -9.99944 -1.35097
11.7995 -6.70903 -6.45829
1.44094 -5.01643 -19
-2.05342 -5.85033 -17.3153
2.53944 -0.419538 5.99226
-3.60793 4.45661 -17.1365
-0.632486 -6.75124 5.50058
1.89287 -1.14674 -19
-1.48029 -3.236 5.07639
-6.66693 -0.0774556 9.99961
5.48871 -3.78197 -4.72694
-3.04667 9.99949 -3.66515
-5.95991 -7.82828 -9.99943
-3.00886 9.94373 -9.99925
7.7787 9.99954 -7.93066
7.09309 -4.57625 -18.9493
7.14345 9.9994 9.95527
6.05892 7.95448 9.99945
11.7994 5.95307 -7.83088
-4.81031 -6.13233 9.99966
-5.22306 -0.697493 -9.99969
-3.23801 -6.66337 -3.25862
-5.19714 -0.323855 15.4067
9.93862 9.99946 -6.51565
-2.16747 -5.77884 11.8844
7.8886 -3.43047 -4.91625
5.10993 -6.17037 -13.6209
9.37149 9.99935 9.95569
5.82685 6.42544 4.44761
-8.19952 0.253299 9.92636
3.84652 -6.65504 18.9997
5.85351 -1.31935 5.84993
-3.82798 -4.17515 -11.9017
-8.19951 -6.64331 6.76618
6.13282 -5.51319 14.9961
-4.63915 2.75834 -17.1526
-8.19955 -6.57902 -4.24955
-3.2386 4.8603 13.6161
-4.49752 -3.05297 -17.1654
-2.9983 5.01764 18.9998
6.00199 4.13456 -4.37315
8.79392 -0.448179 17.1296
9.72541 -9.9996 -3.08236
-6.31344 -5.49868 -2.39952
-0.829041 8.31419 9.99952
-1.58477 -1.34465 -19
3.90675 -9.99945 5.72112
-6.32593 -0.700515 5.98204
-6.23522 -4.97124 9.9995
10.0984 2.69566 -9.9996
8.0733 -3.0084 19
-8.19929 6.7373 -9.93604
-6.39913 -3.25195 -9.99971
-5.17655 0.791369 10.0523
6.62398 1.70659 -19
-4.93882 -2.14238 -10.0002
-1.24028 6.31859 -11.86
5.95415 -7.86101 9.99939
7.00277 6.96075 -3.00128
2.93185 8.25255 5.89253
-5.16947 0.726551 17.1358
10.0915 9.99947 8.17606
-4.79173 -9.99951 -9.94651
5.96282 4.23105 4.31964
11.7998 5.32045 2.84747
-4.67634 2.68602 -13.5624
6.1391 -5.51054 -11.868
11.7997 -9.92265 9.91582
8.29342 6.18553 -9.99957
-8.19931 -8.41847 -9.94133
4.12533 -2.47076 -5.53317
-4.15324 -9.99948 -7.78714
2.40353 9.99978 6.05775
8.02128 3.2416 13.5887
7.01379 -4.67435 18.9514
5.95157 5.64073 11.8245
11.7996 9.95076 4.65198
9.8771 -0.0812162 -5.99708
0.0154507 8.03217 -5.73016
-8.19979 -3.77827 -4.76183
6.69592 -4.81858 -3.61713
3.51521 -0.411532 -19.0001
-8.19945 1.60513 5.88246
-8.19946 -8.02083 7.95262
-5.16114 0.830246 -17.1541
6.36382 -2.22811 -19
-1.39577 6.24445 13.7381
7.25205 -7.69171 2.50923
-8.19952 1.86043 -7.95184
7.53444 -5.67422 -1.98969
0.686474 -6.9028 10.0585
4.66339 6.39513 -11.8392
6.07763 9.99952 8.28696
-2.36689 5.62826 -10.0425
-5.19532 -0.380054 -11.8483
5.12042 3.79598 18.9998
7.41972 -9.94712 2.1284
9.60215 -7.73063 -9.99945
-8.19966 -6.04937 0.606306
8.57228 1.84423 -11.8229
11.7995 9.92857 8.16248
-8.19943 0.654795 -6.05243
10.0193 0.811963 5.9648
-4.12302 9.94909 1.00763
6.58531 2.37884 18.9999
-3.79766 9.99952 8.17365
8.21181 0.991961 -5.92514
6.54995 -5.13891 12.0717
7.5521 -9.99948 -8.1178
-4.00074 -4.07459 10.0003
6.51323 5.27044 -9.99975
-3.79645 4.31827 -9.99997
-8.19964 -2.37401 -5.59306
8.43795 -2.26196 -17.2231
8.02786 8.22762 9.99952
-1.82465 3.77323 -4.78263
7.48958 9.95912 -1.90296
11.7995 -6.21426 4.98599
4.77168 -5.06263 5.24844
11.7995 -4.71782 8.30379
11.7994 8.3758 -4.01316
4.75956 -9.99946 9.92431
1.97187 -7.01429 15.4137
8.0998 4.07473 4.42046
8.19964 2.84274 -13.5708
-3.72904 -4.3105 11.8925
-2.84758 -5.23678 10.0565
3.16192 -6.87885 -13.6483
3.49694 4.12432 -5.789
1.66986 4.83588 19
7.27009 -9.99949 -2.66968
4.0895 9.99922 5.62117
6.75888 -6.58766 -3.36791
6.18993 -9.94912 -4.12723
7.73183 8.01929 0.931345
-6.31058 -4.3522 -4.13456
-5.92987 9.99953 2.12792
6.78761 -4.92533 -13.5918
-4.7037 2.61646 10.0507
9.76145 -9.99934 -7.84709
-1.97566 -3.33019 -18.9999
-8.19952 -0.367213 -8.01917
-3.42706 -4.65431 -17.1747
-4.52868 6.26787 9.99951
5.22954 -0.692385 -19.0001
7.87819 9.9993 -0.196868
2.01505 -5.06322 -6.02488
-8.14305 9.99929 1.02179
-3.96265 7.82824 -1.76479
-2.12058 7.9829 -9.99945
-3.70882 5.42682 2.58802
-8.19952 0.795431 7.86615
-1.91548 -9.95254 -4.74003
-3.63371 4.43077 -13.5888
4.88982 3.14243 -5.14348
11.7995 -8.02771 -3.58701
6.49628 9.99968 -6.24063
1.922 2.8576 -6.02176
8.25236 2.66853 18.9997
11.7995 7.86099 -2.067
11.7494 -9.99922 -0.785606
-8.19949 5.87721 9.94827
9.02559 -4.91558 -3.44366
2.42736 -7.10962 -10.0001
11.7994 -4.88983 -6.14838
1.92761 7.01779 11.8838
-8.14438 -9.99946 0.690534
-8.19952 -6.83277 3.59395
-4.19687 -7.94031 -0.488715
4.45143 -6.49205 -11.8446
8.42731 -2.28788 17.2657
5.0055 6.22163 13.604
9.92879 8.01011 9.9994
-2.62227 -8.18943 -4.05193
-2.12138 -5.80866 15.3744
-4.94752 1.8858 -18.9528
11.7997 4.54782 9.94906
9.98624 -4.71136 3.72289
11.7995 3.10068 5.22186
-8.19951 3.50776 6.74377
8.02548 3.22491 -5.07106
-3.6213 9.99914 2.73618
3.09527 6.88368 17.137
-6.25726 -9.99964 -0.1203
-8.14264 -9.99957 6.54534
-2.17637 9.99955 -8.37187
7.67234 -7.87334 -1.25368
2.61637 -6.94989 -11.8879
9.7567 -5.17257 -9.99943
2.95376 9.99959 -5.96348
-8.14958 -4.73448 -3.70115
-8.19956 6.48645 4.256
-0.116076 -6.6949 18.9996
3.69996 6.73997 -13.6233
9.46974 2.59967 5.40703
8.29862 9.92198 -9.99964
-5.17542 0.702873 -13.5779
0.30901 0.569811 5.9952
-3.84887 -4.14071 -15.4044
-4.6526 -1.90251 -5.71539
11.7994 7.80503 8.13026
-2.97852 2.77146 -5.31816
11.74 -9.99913 -6.51853
8.4207 -2.29641 -15.3694
-4.32381 -3.40712 13.6357
-2.77442 2.38499 18.9998
3.27841 -9.90745 -9.99945
-2.71719 -9.9995 8.26147
11.7995 -9.9556 8.23376
-3.28809 -1.22047 18.9998
3.72037 -2.03666 5.70154
8.1434 -6.29335 -9.9995
11.7997 -2.73438 -9.94437
-4.02428 8.02374 -9.99937
2.75511 9.89195 -9.99949
11.7995 -5.94857 -8.19264
0.685528 9.9995 5.99459
4.61831 6.41418 -15.4084
-4.19027 6.0433 -0.599634
-4.24513 9.99948 -0.625236
-0.484552 -8.5021 5.56965
11.7996 6.44491 -9.94759
11.7995 -8.01466 0.106549
0.636782 -8.23292 -5.91698
-8.19927 -9.94292 8.28484
11.7994 6.63862 -3.94631
-0.757156 1.24661 19
4.98251 2.93035 5.23205
3.5783 6.7804 -17.161
-0.242332 -2.60418 19.0001
-8.19958 7.38852 -3.94462
11.7995 -2.94024 -6.82233
-6.08455 8.02995 -9.99933
5.19878 -6.12451 11.648
6.41418 0.486922 19
-4.6171 9.99955 4.30902
-6.07165 9.99957 5.98502
6.64367 5.05463 17.1173
1.78475 3.20574 6.01202
0.583705 -0.731556 19.0001
-2.49529 -9.99963 -6.44336
6.50616 9.93482 -9.9994
11.7995 1.33398 8.0078
-2.89932 4.76581 3.75727
7.20308 -5.3518 2.75881
-2.69492 5.48385 10.0002
-3.18603 -4.91807 -13.7054
9.57492 -4.29085 9.99954
11.7991 -5.43571 2.74451
6.20475 5.53546 9.99993
-4.39595 -3.26339 -13.6449
2.88411 9.99951 9.94662
4.82075 -6.31312 17.1669
-2.13643 5.80029 -13.5944
10.141 -9.99939 9.93306
6.8507 -1.33186 18.9999
-2.49846 -8.52381 9.99942
-8.19952 -4.05572 -6.6942
2.14108 -3.15932 -19.0001
4.03001 4.68444 -18.9998
-2.15279 5.79123 -17.1864
8.56709 -1.81187 15.4542
8.44234 -9.99941 9.939
7.77431 -8.20845 9.9995
2.24564 -3.06715 -6.00584
11.7995 -8.32556 -5.65432
-5.17172 0.746015 13.6928
-3.285 0.30463 -18.9998
5.48586 5.96009 -17.1787
1.63276 7.00345 -17.154
8.69291 1.21903 13.5677
-8.13871 9.99971 6.60787
11.7995 8.30512 3.99448
0.228635 2.15222 5.79359
11.7995 8.20526 6.04071
9.60899 -9.99945 7.68766
-8.11527 9.88654 9.99982
0.594029 -3.93427 -5.90167
-8.06676 -9.9996 9.92605
5.66784 -5.7939 -18.9993
2.54993 1.15523 -19
4.07794 -6.61727 -18.9459
11.7282 9.99916 2.69319
8.79277 -0.924188 10.0002
10.144 2.22505 9.99958
-8.19962 2.2233 -5.66657
0.1612 4.15736 -5.77477
-4.81924 -2.27535 -15.3811
5.88265 5.68665 15.3425
-8.19955 -5.86265 5.1612
-8.19946 -8.37608 9.94855
7.86791 -6.00492 -0.387699
7.14538 -7.96179 -9.99937
-2.93996 5.16456 -15.3735
7.7344 -5.8639 1.26816
-3.36317 -7.65263 3.05165
-4.70269 2.74451 -10.0001
-1.69225 -9.99962 6.74672
-8.14436 -4.77134 3.64919
6.0484 -5.66343 9.99981
-8.14015 -1.4426 9.99939
10.1292 9.99951 4.53954
11.7465 9.9992 0.701765
-1.88783 -6.24978 -4.72886
3.224 6.87168 10.0575
8.46953 2.18508 11.8399
8.14251 9.99949 8.15751
4.80582 -0.970244 19.0001
5.84826 -7.99409 -4.43028
-4.98815 1.74952 -15.3552
2.70787 -9.99948 9.93469
-6.03875 -9.99938 9.95091
-0.974099 -2.6889 -5.3558
3.10795 -6.88826 -17.0685
4.76963 -8.46978 5.21897
-3.25864 4.83844 11.7296
0.977787 -6.96314 -13.5029
-8.19865 -9.9421 -7.693
-8.14796 9.99963 -8.1573
-5.07184 -1.33372 -13.603
2.66005 6.94317 -15.3909
8.78145 -0.777043 13.7327
3.04262 -6.89295 13.7632
-6.49722 5.34981 -2.70565
7.38831 4.22416 15.3343
9.78276 -9.99954 5.56004
9.83344 -5.99303 0.259047
8.13977 -1.34373 -5.8429
-5.16511 0.0898903 18.9997
-8.19901 8.38764 -9.94548
-8.19952 1.9006 9.95011
6.24999 -2.15263 -5.63081
8.72501 1.10527 -17.0762
-3.89298 9.99901 -2.15453
-8.12485 -9.9979 -9.85273
11.7306 9.99935 6.4472
-4.57365 2.89395 13.7218
-8.14593 9.99939 2.81565
-4.78821 -5.01256 -3.3051
0.473182 6.88513 -18.9516
-8.19948 4.50436 4.09111
1.05414 6.96971 17.0989
11.7995 -7.81566 -1.80068
6.38616 5.29143 -11.8673
9.83068 5.01923 -9.99949
-8.19961 7.96914 -2.03791
-8.19946 4.93586 -9.92757
-8.19963 6.05538 -0.591064
-0.327472 9.99953 7.99293
7.70837 3.75377 -15.3576
3.44123 3.31285 5.80389
-1.33921 6.21017 -19
8.09127 9.99965 4.6011
-4.46574 -1.1106 5.90175
11.7996 9.94772 -4.954
-6.26106 5.96219 0.782371
-0.291996 6.69774 -13.6385
0.343834 -9.99981 5.91452
-6.60739 1.40311 5.82979
11.7995 3.96926 -6.69946
-8.19955 -3.60145 8.40807
-3.13515 7.92032 9.99935
5.46796 9.99962 6.62565
7.03657 8.65881 -2.94937
-8.12582 9.99962 8.34558
0.624552 1.56256 -5.90045
2.60732 -1.01857 19.0001
-8.1995 6.59833 7.9695
11.7994 -8.09053 5.87014
10.0746 9.92763 -9.99967
-0.189586 -6.71845 15.39
11.7997 -9.94236 0.988962
-6.5521 2.11059 -9.99963
11.7576 2.75665 9.99943
-8.13994 -1.8623 5.71876
-1.67247 3.96649 -18.9999
-8.1995 -8.38414 -4.26811
-4.04923 -3.79507 -18.9995
-3.96615 -3.02483 5.20358
0.721688 6.33272 -5.93702
-1.41207 3.46483 18.9999
8.0021 -6.28372 9.99953
-5.17526 -1.13119 10.0006
11.7995 3.91198 -8.38802
7.87895 6.00422 0.0740415
-4.13649 3.70035 -18.9508
-6.24486 -9.99957 -6.20283
-4.62978 -9.99945 7.88239
-3.07867 -9.99987 -3.65685
-3.75771 -8.11233 -2.24912
3.65437 -6.36475 -5.72727
11.7995 3.26986 7.7911
-2.92871 5.13017 -18.9987
-1.09018 -8.00776 -5.25297
11.7989 -2.98918 5.30762
7.09827 4.57669 -13.6336
6.57625 -9.99939 -9.94392
-3.30613 -1.71557 -18.9999
7.17991 7.47228 2.66777
11.7991 -3.13636 -5.1907
11.7998 1.73385 5.83882
8.13663 0.949932 5.93512
-1.04098 5.02558 5.29117
-8.19946 -8.09969 -6.23907
4.81693 8.23998 -9.99955
11.7393 -4.60877 -9.99934
8.7042 0.840768 18.9998
-5.96163 -9.99957 5.9483
4.91062 -6.26861 -17.0964
10.0691 -3.17884 5.09794
-0.775753 6.50886 17.1092
3.68928 2.07578 -5.71079
1.36269 -9.99979 -6.06535
-0.490409 -4.66305 -18.9999
-8.19963 -5.60208 -2.37431
4.0064 6.64053 15.3408
-8.14536 -9.99942 4.77116
-5.00843 1.69873 -11.7953
9.78278 -1.02735 5.91285
11.7994 -8.07083 7.98583
2.67439 -8.32907 -5.93375
7.06848 4.61231 -17.1162
-0.832904 2.49456 -5.46849
-8.1399 -5.63258 2.12319
-4.24356 -3.70783 -10.0002
0.865989 -6.96355 -11.6687
-8.19967 4.88929 -3.63715
9.67563 9.99947 -8.28725
-8.15515 -3.02108 9.99953
6.1999 -4.32645 4.15849
-1.28148 6.29684 -15.3894
-0.193611 6.61447 5.66292
5.56944 -9.99956 -7.69016
3.64765 -9.99963 7.94284
4.44894 -8.05692 -5.41368
7.48392 -9.99966 6.04975
8.03254 6.25699 9.9996
-0.628204 9.96219 9.99942
5.65483 -5.83999 18.9389
8.21316 2.82039 10.0503
7.67586 -3.80832 15.4911
0.245598 -9.91851 -9.99948
11.7995 6.46976 6.75435
2.9654 6.3759 -5.88683
11.7464 -1.2171 -5.87368
8.79845 -0.250793 -15.303
-3.87082 9.99961 6.17513
0.0884657 -6.25401 -5.7465
4.59662 4.935 5.32855
5.81648 9.99956 4.57782
1.67663 -2.86532 19.0001
11.7997 -3.13274 9.93562
-4.17799 5.88657 1.12006
8.79138 1.00231 10
8.26164 -4.27189 4.21696
8.07162 9.99964 -3.83014
-3.98558 -5.80142 -1.68982
0.856152 -0.99793 5.95933
-2.06179 9.99958 7.27829
11.7234 9.91351 -9.99761
-2.36845 -6.21455 4.32566
5.013 9.99946 9.94839
-0.300746 -2.20284 5.64525
2.0893 8.11611 -6.02428
-8.19954 7.8154 -5.89727
0.506126 -6.85105 -18.9991
2.84949 2.81931 18.9999
-4.48235 3.76674 -4.67835
-6.15243 -9.99942 -8.11702
-4.34466 -3.67812 -4.73783
9.76855 -9.99953 1.10514
6.35924 5.31552 -15.4036
3.92105 -8.40021 9.9995
-8.12632 3.16455 5.09707
11.7997 -9.94587 -2.54678
0.168017 4.75613 -19
-1.18395 -6.33736 17.145
-3.0676 -9.94776 -9.99946
-8.19951 4.73042 8.17759
-6.53496 2.44843 9.99974
-3.10032 -7.01061 9.99966
3.65523 -2.79666 19.0001
-2.30893 -2.874 19
0.173086 -2.80959 -19
-2.21173 -3.95772 -4.52478
7.37419 4.24465 10.0427
11.7995 -4.57475 6.36517
-2.14607 -8.11942 4.52742
1.67951 -8.51384 9.99964
-1.03637 0.753555 -5.98547
2.98878 6.90151 13.5878
-8.1995 -5.96471 -6.12596
6.75819 -5.03607 -9.99982
-6.58034 -9.9996 3.86065
6.9079 5.18974 3.14378
-8.19961 5.70024 -2.16404
11.7995 8.21907 1.7332
11.7997 9.9433 -1.19049
8.61548 1.60087 17.2021
4.41807 -0.340935 5.99319
-2.8587 8.39847 3.78306
-8.19946 -7.50516 -8.04457
-8.1995 -1.8362 -9.9401
-2.53117 -4.24557 4.2375
-6.48729 -4.10838 4.37833
5.7871 8.18312 -4.48708
9.32541 5.22897 2.97491
3.15613 -9.99905 -5.94938
-3.91453 -9.9994 9.94235
5.24477 6.19509 -9.99989
-6.48657 9.99955 3.98914
9.46922 9.99958 6.3539
5.4549 -9.99933 4.89971
-8.19952 5.49249 6.1016
9.74472 -8.01443 9.99934
3.52803 -6.79099 11.9127
6.73195 4.97554 13.5719
6.00925 0.869376 5.95383
5.52345 3.36876 -18.9998
-3.9272 4.15204 10.0007
7.52561 -4.04059 -11.8567
-4.66602 -4.34107 4.13951
8.8008 -0.650934 -17.095
11.7425 4.77009 -3.62765
-3.05299 -4.93299 -3.52347
4.77372 1.85818 18.9999
11.7997 -9.95121 -4.42862
7.70307 7.9157 -1.07196
-4.78242 -2.38602 -11.8424
2.1186 5.00216 -19
-1.04739 2.95443 5.28645
0.738282 0.975063 -19
4.93321 -8.21504 -9.9995
-8.1291 -6.73266 -9.99958
8.79252 -0.217073 -11.8498
7.33075 9.99964 6.34132
-1.36257 -9.99948 -9.94113
-2.83598 -2.41454 -5.49282
0.840321 -0.178283 -5.99185
9.65651 9.99952 -2.54999
-0.863439 -4.75326 -5.39287
3.12144 -8.12155 5.85526
-8.19954 2.64984 8.28223
-1.98511 -9.99952 -8.13172
8.79347 0.141329 11.8223
-6.06786 4.59708 9.9996
-8.14994 9.99928 -2.84968
-0.513685 2.54338 -19
11.7346 -4.88106 9.99935
3.55622 0.650251 19
4.93548 -9.99942 -9.92839
-8.1995 3.63737 -4.89409
1.80405 6.59182 6.01185
-5.88841 9.99945 7.93204
-4.27768 -5.99699 -0.0425473
2.61402 -6.95111 10.0509
9.61573 4.23203 9.99956
-4.40499 9.99943 9.95235
-4.90069 -2.02055 -18.9414
-8.12927 -9.9994 -3.32219
9.82621 -9.9995 3.07376
-8.19957 -4.643 6.63551
11.7441 9.99911 -8.29427
11.7994 7.95683 -7.97121
-2.81909 -9.9382 3.8131
7.56313 -3.98775 17.2921
8.76966 0.830792 -13.5927
-0.425374 -9.99954 8.1151
3.78718 8.42949 9.99956
11.7994 -6.39047 7.31969
0.282823 6.91074 10
-4.18152 9.99951 -7.83673
4.78442 6.41277 9.9997
-8.19963 -2.78432 6.97897
7.65075 -0.786032 5.97998
-4.28579 -9.99963 -5.49153
11.7386 -9.99922 6.48883
1.9359 7.0132 15.3278
8.2142 9.99963 -5.7812
6.53847 2.11954 -5.64427
-1.26119 -0.584521 5.99564
11.7414 -5.90492 1.05768
8.14367 2.96657 -17.1354
9.95645 -6.0981 9.9994
7.09557 7.82842 -9.99949
-6.0565 9.99952 -6.16544
-2.99757 -5.11834 13.6308
-6.15597 -5.98957 -0.752911
8.51302 -2.4546 5.46976
-1.07571 -4.4005 18.9999
-1.90424 5.93712 11.9698
0.81058 -6.95004 17.1598
11.7409 9.99916 -2.98566
-2.83118 4.69501 -3.82299
-2.60424 -1.82418 5.73034
4.68305 9.99968 -6.91508
-0.905748 9.99895 5.46012
11.74 -9.99919 4.56339
-0.968588 6.50069 -10.0001
-8.19948 7.98419 9.95031
-4.9103 9.99952 -3.84353
-3.10665 0.384707 5.99485
2.91484 -6.90734 17.1199
-6.37594 -0.934759 -5.93818
-8.19955 3.90086 -7.43507
-3.7173 -4.33012 15.3712
11.7996 -6.63213 9.91856
7.36714 -4.36778 10.0004
11.7996 5.7026 -2.08987
-8.19967 -6.01688 -0.934693
-2.30848 9.99967 -6.59925
-0.320113 6.68474 15.3326
-1.14006 -0.919533 -5.94789
-8.13706 -5.09642 -9.99948
-3.75898 5.64563 -2.26882
5.80878 -2.9744 19
10.0833 -9.99951 -5.32712
1.71174 7.14763 9.99984
-3.97759 3.94969 15.2897
10.0598 -2.83597 -9.99956
-6.15388 9.99944 -8.08023
11.7996 -4.01537 -8.20331
11.7996 5.37226 8.25376
7.03642 -8.29574 -2.92584
7.76831 -9.99973 -1.24997
-2.95453 -0.718995 -5.98865
-4.65191 0.13624 -5.9967
11.7997 4.63015 -9.95538
9.82968 5.88234 1.24741
1.97894 -2.50878 6.0226
-2.40818 9.99949 9.92868
3.44576 -4.76772 -19
11.7993 3.62826 -4.86482
0.665736 6.92548 -15.396
-6.11171 -5.40791 -9.99961
-1.38813 -0.805234 19
-3.27015 6.80312 3.20493
-6.50125 -9.99945 -9.95692
3.81723 -9.99954 -7.92778
0.527135 6.88506 -10.0538
7.88929 3.45633 17.1373
4.7247 1.31743 -19
-4.42405 -6.29903 -9.99971
-8.19951 -0.0601521 -9.93767
-4.69374 -2.7786 10
8.23192 -2.75412 10.0536
-8.19958 -7.91445 1.69603
9.81437 9.99953 1.13238
7.47691 4.12006 11.8717
1.16183 -6.97258 -17.1151
-0.146938 6.72476 11.9105
8.80014 0.290363 -18.9463
-1.30185 6.35974 10.0008
7.76859 -3.65418 11.8893
3.41192 2.93013 -18.9999
3.84072 9.9995 7.95934
7.83077 -3.74384 -10.0001
2.35724 -6.99207 -18.9493
-2.81193 1.04477 -5.91586
8.42532 -2.24131 -10.0535
-8.19943 7.96366 -7.89602
-6.45343 -9.99943 7.94983
3.56384 6.85996 -9.99989
8.46077 -2.20481 -11.8929
-0.215874 4.80383 18.9999
-0.31661 -6.68645 11.8744
-1.66715 1.37651 5.83628
-3.16522 -4.95055 -10.0531
-5.19946 -0.278298 -15.3583
4.99238 0.924397 -5.94689
5.60859 -9.99961 7.43369
-4.79451 9.94834 -9.99936
0.736785 8.28116 5.92668
-6.45668 -2.79879 9.99963
5.47203 -6.0701 -10.0005
0.778005 6.95087 13.6351
-5.2153 0.897769 -9.99949
-1.21827 -6.31117 10.0502
6.57051 -0.1667 -5.99462
-3.88793 8.00744 1.92355
-8.14149 3.91808 9.9996
-2.99866 0.611096 18.9998
8.57354 -1.83863 11.9134
9.62571 7.70848 -9.99945
4.53206 -4.5001 19
-6.11873 9.99959 -2.01191
11.7995 4.63298 6.26376
4.40966 -6.57099 10.0004
2.97003 -4.19401 5.88303
-5.83214 -9.9996 -4.08341
-6.51751 9.99945 -9.95116
-5.10234 -1.14989 -17.1359
-6.14945 -5.90003 1.0787
6.94883 -0.187405 -18.9999
9.82037 9.99954 -0.753078
-6.3861 9.99949 9.94537
-0.503559 -6.63018 -10.0621
6.98735 9.93886 3.00914
10.0746 4.12879 4.35754
1.4201 3.04565 -19
0.925842 -7.10977 -9.99997
-2.41398 -5.59512 -11.8936
11.7258 -6.50328 -9.99931
2.05506 7.1276 -9.99997
6.84607 -2.89831 5.25216
