1.47607 5.6982 0.445136
-3.17677 5.90296 -1.05246
-2.75722 5.36613 -1.36093
0.713106 5.56199 -5.29896
0.668796 7.04386 -4.60008
2.3819 5.02795 -0.92939
-1.29089 6.85961 -2.93937
-2.21385 6.98217 -3.12779
-2.84323 6.29418 -0.923812
-2.56289 4.93664 -2.5733
0.487193 6.6731 -5.22643
-0.0276727 6.17219 -3.42267
-2.8916 5.38511 -2.14265
0.681365 5.01216 -0.257512
-0.500006 6.54096 -5.30796
-2.1922 6.56742 -0.288136
0.691674 6.46136 -2.89227
3.12258 6.42259 -1.78212
-2.98284 6.56661 -2.89636
-1.89648 4.87247 -4.29475
1.49298 5.24469 -1.89025
-2.26506 5.25959 -0.586523
1.15911 6.36394 -2.29662
-0.11393 5.51242 -5.33418
0.0479764 5.94235 -1.03664
1.32542 5.29033 -5.1543
-2.83056 6.69601 -2.49223
0.470011 7.02268 -0.645988
-2.92872 5.46515 -1.72468
-1.26409 7.13509 -0.272207
0.866 5.94561 -2.93287
0.685187 5.78076 0.77766
1.39224 6.43035 -4.91346
2.09276 5.75625 0.0157349
0.294428 6.98346 -5.17745
1.60351 5.09615 -1.53636
1.76448 7.19053 -4.20681
-1.10047 5.14545 -3.34711
-1.54477 6.03802 -4.94262
1.319 4.76925 -3.33987
-0.688018 5.29957 -3.06747
-1.28267 6.52843 -2.63152
-1.42011 6.55075 0.374359
-3.38033 6.15169 -2.17711
-2.75056 6.1207 -0.566973
-1.78248 4.69383 -1.38744
0.243393 6.45071 0.840501
2.39884 6.54421 0.0287077
-2.49614 5.05764 -3.41519
-1.12173 6.82776 0.444342
-0.792306 6.8747 -5.20532
0.0933547 6.43069 -1.05217
1.069 6.52193 -2.75523
-1.44187 6.67056 -2.3066
0.554594 5.0488 0.713924
-0.161568 5.01438 -3.90069
2.18835 4.69824 -2.10631
1.6388 6.99329 -0.625806
0.871493 6.00561 -2.29595
-1.88664 5.07759 -0.579525
2.4663 5.17755 -3.27191
1.5047 7.06702 -3.74592
-0.0610504 5.79198 -3.42486
-0.396991 6.46865 -3.3923
-2.1811 6.17902 -4.53756
1.34551 5.06164 -4.27734
-1.05988 5.45256 -1.39093
-1.24271 7.01634 -3.93471
-2.23497 6.87126 -3.57818
-2.19745 5.0778 -0.962303
-0.140112 6.99282 -4.04465
-2.54711 6.68565 -0.97789
2.37016 5.51372 -4.56132
0.989408 5.05603 -4.47043
1.81368 7.27781 -1.64624
1.3584 6.9565 -0.270979
-0.116229 6.11216 0.856058
2.31446 6.89795 -1.15692
1.51712 5.2563 -2.31064
-1.45898 5.05605 -1.48966
2.67826 6.47552 -0.2648
-1.52056 5.06422 -3.26924
0.744476 5.11195 -0.844687
-1.34375 5.2381 0.394537
-2.04634 4.68222 -1.72617
2.23583 5.14125 -3.59861
0.277723 5.01911 0.353762
1.25534 7.08405 -0.72883
-1.4915 4.71869 -1.14481
-0.824148 5.48368 -2.77493
0.967935 6.63745 -5.06937
0.64764 6.98429 -4.17085
2.60769 5.34852 -1.00484
2.63657 5.58706 -4.2975
-0.500471 6.55069 -1.36648
1.80876 5.79784 -4.87717
-0.727921 5.11562 -3.48483
-2.53806 5.30034 -0.973979
1.0197 6.82428 0.725869
2.9527 6.53811 -1.41526
-1.9443 7.30115 -2.39034
-0.184766 5.17115 0.869734
-1.17344 5.26238 -2.97049
-0.326418 5.77385 -1.05698
-1.64431 5.86364 0.51337
-0.545693 5.24257 0.879776
-2.79094 5.74423 -0.349505
1.00485 6.70516 -3.14979
-0.208863 5.97465 -5.32833
2.00973 7.29494 -1.9656
2.63081 6.74483 -3.19163
3.12523 6.40397 -2.20085
-1.07824 6.12874 -2.51007
2.85902 5.46524 -3.31621
1.37138 7.10399 -4.12321
-3.13971 6.45042 -2.48836
-0.430112 5.16334 -3.31802
1.77502 7.11989 -3.41913
-0.255476 6.25741 -1.12944
-0.938661 5.13936 0.342171
-0.651034 6.87998 -0.704646
-0.843527 5.8865 -1.49709
1.1667 5.30908 -1.52861
-2.43999 6.60367 -4.38125
2.10511 4.69722 -2.48462
-2.73227 6.52385 -4.06264
-2.46948 6.16435 -0.266921
-1.34703 5.13261 0.0307873
0.599159 6.90375 -3.77495
2.01576 5.13863 -3.90663
0.260021 6.98543 -4.27234
1.68277 5.0781 -4.06995
3.16971 6.28262 -1.05491
0.200752 4.98861 -4.05607
-1.39775 7.11424 -3.47582
-3.03737 6.50292 -2.07575
1.93129 7.22992 -3.89337
-0.143857 5.0611 0.431009
-1.35787 4.93915 -4.26509
2.20425 6.9426 -3.85724
2.38257 6.24982 -4.20129
1.74903 4.87671 -0.0893867
-0.201097 6.97037 -3.49456
2.91622 6.39211 -0.578948
1.83164 4.97834 -1.98329
1.65949 7.10527 -0.988341
2.81941 6.6874 -1.88033
2.91227 5.44825 -1.81989
1.39494 6.78127 -2.93649
0.56856 5.15963 -5.29495
0.655686 7.02309 -5.06861
0.514842 5.33415 -3.43636
-1.75211 7.27334 -2.73207
2.45026 7.04822 -2.95422
2.85015 5.63636 -4.01196
0.899146 5.11865 -4.91396
-2.06939 7.3151 -1.98019
-3.0786 6.38044 -1.6794
-1.85608 7.02843 -3.45612
1.45342 5.66161 -5.08415
-2.58971 5.01287 -2.16693
0.610742 6.122 -3.16796
-0.885114 5.68963 -2.47745
0.959137 5.20841 -1.17053
1.65588 6.83491 0.0612307
1.4443 6.0408 -4.99411
1.8313 4.90258 -1.1659
-0.207843 6.75179 -1.14026
0.995849 5.02008 -0.487518
-2.50483 6.9353 -2.5229
2.43199 7.02879 -2.00171
1.57975 5.03053 -2.75153
-1.40916 5.01492 -0.355441
0.657462 5.37821 -1.44548
-0.189408 6.60055 0.800427
-1.1762 6.34313 -2.14888
1.33644 5.16629 -4.74208
-0.54474 4.98539 -4.74214
1.08005 6.45266 -1.50572
2.89869 6.49242 -2.96772
-1.6114 6.87043 -4.5541
2.35306 5.67548 -0.297119
0.187852 6.94411 -3.80075
-1.9721 6.89296 -3.90014
0.67159 6.55003 0.811233
2.70794 5.98679 -4.01743
-1.92376 6.94012 -0.275172
-1.8512 4.88088 -0.990251
-1.72076 6.28276 0.299597
0.589803 6.90669 0.768286
0.699443 6.79805 -3.43318
-0.131395 6.40367 -5.32596
-3.16491 5.72345 -1.87109
1.1964 5.59056 -2.29475
2.19323 5.05759 -0.523027
2.399 5.36622 -0.587236
0.293604 7.01723 -4.73361
1.0342 7.07085 -4.38228
1.09459 5.87013 0.655985
2.05648 6.74417 -0.0633652
0.766561 6.26501 -1.26926
-2.13991 4.87567 -1.34511
-2.89059 5.56696 -1.01724
2.94216 6.55192 -2.53228
1.71741 5.2138 -4.53606
-1.54671 6.95258 -2.61511
-1.61376 7.00221 -3.77521
0.176727 5.11073 0.819343
-2.63102 6.68208 -3.68069
3.02694 5.54839 -2.9454
-2.74227 6.14233 -3.93215
1.81637 5.42997 0.126716
0.316969 5.0112 -0.10119
1.53452 5.24673 0.288997
1.95536 4.87575 -1.59531
2.92528 6.08403 -3.60962
1.05523 6.17251 -5.12571
-2.49313 6.48799 -0.607002
2.8253 5.67745 -1.02892
-0.146377 5.07802 -3.46464
1.41028 5.09468 -1.17093
0.294062 5.97578 0.850887
3.20905 5.80181 -3.34481
1.70568 6.70509 0.488684
-1.23007 7.17401 0.188092
0.927367 5.21511 -3.30653
-2.98087 6.43786 -3.69787
-1.71534 7.0131 -2.20094
1.63121 6.87474 -2.59267
-0.847749 7.00331 -4.16806
-0.536124 5.03225 0.0462456
0.608919 4.99836 -4.27019
0.369889 5.63968 -1.14007
1.06179 5.52789 -3.00545
2.92395 6.03414 -0.803715
0.892159 7.12866 -1.00834
2.05982 5.27894 -0.186139
-0.99459 5.05444 -3.76186
1.71884 5.36187 -4.99109
-0.504323 7.02725 -3.8714
0.354371 5.82897 -3.38916
2.57413 6.83664 -1.57671
-2.77384 6.58356 -1.31976
-2.17638 7.10622 -2.72633
0.308772 5.51803 -5.34159
-0.0299508 6.58257 -3.41825
2.10661 6.19917 0.17869
1.80482 4.93987 -2.39751
-1.94016 4.90646 -3.10954
2.28824 4.71596 -1.67989
-1.40318 6.42956 -5.06233
0.603105 5.05162 -4.67389
-1.51332 4.88374 -0.730158
0.208619 5.01543 -4.50696
1.77258 6.24313 -4.74113
-3.36798 6.16883 -2.53454
2.89442 6.51615 -0.942976
0.234209 4.98771 -3.55431
2.07009 5.442 -4.79254
-1.53391 6.88624 0.145629
0.437266 5.20799 -1.19063
1.7825 7.04138 -2.21469
2.29207 4.93922 -2.8842
0.728752 5.65696 -3.25592
-0.144259 7.01328 0.714526
-0.0264714 6.88972 -5.2804
-2.08062 6.29525 0.020316
-0.487764 6.97062 -4.82889
-1.33656 6.16954 0.554356
1.17149 5.48206 -1.91766
-2.34927 6.75047 -4.00561
0.698032 6.16695 0.794235
0.97607 5.24275 -5.25156
-1.3823 5.0096 -3.72244
-0.704716 5.61949 -1.17812
-2.51977 6.79797 -3.2971
0.109309 6.96826 -0.494766
0.460536 6.56991 -1.0621
0.172635 5.07012 -0.99791
3.16325 5.66132 -2.54479
-1.36699 6.90648 -1.1381
2.47413 4.90695 -2.05038
-0.670026 6.74304 0.664156
1.07999 6.19598 -1.9188
2.29862 6.72471 -0.404872
-1.90879 5.36795 -4.52775
0.696863 4.9793 0.198415
-0.618361 6.1537 -5.28231
0.78895 5.57059 -1.71666
-2.24582 4.77663 -3.57106
1.36431 4.91414 -3.7869
-2.13509 5.21851 -4.21596
-2.99986 5.55524 -2.51505
2.20044 7.29574 -2.75064
1.0845 4.94549 -0.0522816
-2.45638 6.96339 -1.39633
-0.549275 5.11422 0.493059
-1.20636 6.95592 -4.36437
0.0383771 5.60807 0.884346
2.39968 6.1027 -0.108938
-2.31288 4.6956 -2.42648
1.19959 5.38692 0.53358
1.76679 6.31473 0.428256
-3.19941 5.79356 -2.27426
-1.02029 4.98137 -5.01437
0.121332 5.09958 -5.30044
-3.01459 5.81765 -0.702134
-2.94781 6.05156 -3.5477
-1.73609 5.1621 -0.20702
-2.84272 5.69169 -3.37952
-2.21234 6.87615 -0.623619
-2.77972 5.24793 -2.57541
-1.12917 6.1255 -5.14215
-1.04269 7.12812 -3.30154
1.62804 4.73 -3.11673
0.912088 6.01678 -1.60797
-0.98565 6.65091 -1.34316
-2.67076 5.18238 -1.77839
-0.933322 7.06814 -3.71356
1.90976 7.12294 -2.61086
-2.85962 6.61134 -3.29533
2.65673 5.22976 -2.9213
-1.90257 5.88979 -4.68019
-0.245862 6.89582 -0.708142
1.61075 6.98113 -1.83745
3.17468 6.2579 -2.69165
-2.57967 5.41816 -3.64367
-0.401224 6.90238 -5.25924
1.09677 6.88849 -3.56205
2.10526 4.76532 -0.81074
0.616184 5.95176 -5.27581
-1.63142 5.62516 -4.81732
-0.493353 6.99398 -4.36055
2.64752 6.71176 -1.18029
-0.312449 4.95823 -0.393558
0.417676 5.47126 0.828195
0.89544 4.99535 0.567476
-1.16735 4.75407 -0.956633
-0.998589 6.45941 0.612382
-1.6713 4.9038 -3.97244
3.40803 6.05039 -2.24282
-3.08005 5.66856 -1.40397
-3.17356 6.34809 -3.30296
2.73639 6.78149 -2.257
0.864971 5.78614 -2.01693
2.48242 4.98766 -2.49948
-0.830579 4.80681 -0.861812
-0.190472 5.00583 -4.36922
2.27693 6.60232 -4.06357
-1.83112 6.64394 0.0274388
-1.61737 5.23748 -4.74495
2.61121 6.34103 -3.82704
1.38841 6.74392 0.631506
1.42802 4.9166 -0.373121
-0.429398 6.01699 -3.34309
-2.00586 6.8118 -4.31768
-2.4307 5.4527 -0.293496
-0.667617 5.01247 -5.15288
-1.75687 7.03738 -1.77931
-0.864023 7.12084 0.438134
3.07998 6.17416 -3.17207
-0.695923 4.92691 -0.415987
0.975947 7.06487 -4.91847
0.852385 6.93165 0.389337
0.545145 7.02976 -0.970988
-2.31533 7.11898 -2.24275
-0.519871 5.71958 -5.28486
0.995457 4.94689 -3.99502
-2.43324 5.89473 -4.18186
-1.2917 5.3197 -4.97562
0.672357 5.81771 -1.34846
1.89148 4.7056 -2.82133
2.13757 7.30034 -2.31735
-1.03892 6.86295 -0.91693
0.971814 6.96634 -0.0822186
-1.38717 7.06888 -0.675429
-0.198012 6.98342 -0.19228
2.05066 6.6277 0.297203
-1.98601 5.93628 0.28712
-1.05048 5.72474 -1.77469
1.96523 7.094 -1.24574
0.319993 6.3235 -3.3238
-0.976168 6.99355 -0.491736
2.63319 5.70058 -0.659321
0.842494 5.41614 0.69872
-1.56151 6.76852 -4.97854
0.1479 6.9152 -0.995601
-0.975215 4.96154 -4.56744
-1.24684 5.38431 -2.58268
-1.236 6.90672 -4.76249
0.633457 4.90404 -3.54885
1.06806 5.73855 -5.19871
-2.10903 7.31436 -1.58001
1.42469 6.91755 -3.31132
-2.66474 5.77658 -3.79776
1.96592 6.83915 -4.27577
0.506282 6.64826 -3.13941
1.48481 4.88657 0.130491
-1.83217 6.33016 -4.82464
1.53309 7.13965 -4.50192
3.39323 5.96777 -2.58436
-1.16386 6.81933 -5.1328
1.92426 4.80949 -0.407762
1.36584 6.86145 -1.55836
1.35604 6.62258 -2.52767
1.49203 6.72095 -2.16922
-0.349838 5.6189 0.893059
-0.358328 5.5385 -3.33391
-0.0928611 5.01566 -0.00124874
-0.686123 6.70707 -3.32855
-0.561842 6.97704 -0.321605
-1.0557 6.3314 -2.90556
2.22183 7.08011 -1.6057
-1.76656 4.90378 -1.75602
2.64728 5.3953 -3.67147
-3.3674 6.0668 -1.84155
-0.794453 5.20312 -1.05018
-1.97764 4.90811 -2.66164
1.65557 4.91251 -0.768021
-1.22843 5.35629 0.754996
3.04447 5.71633 -3.70254
-1.14264 5.60599 -2.14843
1.42932 6.18073 0.565593
-3.16465 5.86365 -2.73289
-3.05101 6.2561 -1.27904
2.82575 5.32533 -2.57922
2.2381 4.73429 -1.24393
-0.517282 5.3521 -5.2694
1.85069 6.87024 -0.357925
-1.73426 7.07575 -1.38113
-0.637246 6.7465 -1.05993
-2.67195 5.49764 -0.645734
-1.60413 5.14902 -1.96795
-1.45515 6.71166 -1.92299
0.0717368 4.99644 -0.479832
-1.40475 5.35851 -2.20239
-2.0861 5.32647 -0.13535
2.63634 5.11167 -1.71618
-1.88446 6.72276 -4.80139
-2.30833 5.95531 0.034656
-1.402 6.78494 -1.52629
-0.112228 7.0294 0.286433
-3.30713 5.9833 -1.47357
0.326783 5.05291 -4.95013
-2.67715 6.82601 -2.1128
2.09731 7.25237 -3.55612
1.19795 4.94285 0.380655
2.52831 5.0495 -1.34666
0.100482 5.42158 -3.45199
2.98533 5.48272 -2.23008
-1.82391 4.90666 -3.55348
-0.935482 6.46892 -5.2264
-1.60803 6.92736 -4.16724
0.417671 6.11003 -1.10592
-1.9639 5.51804 0.424711
-1.67151 4.90432 -4.548
1.28806 5.10967 -3.07602
2.72159 5.1905 -2.16249
2.0784 5.28134 -4.32474
-1.10745 6.48295 -1.74022
1.3099 6.55344 -1.86656
2.78487 6.42422 -3.40995
1.08993 6.37044 0.714553
-2.38255 5.5096 -4.04081
-0.681222 5.74997 -3.13277
2.05832 6.39137 -4.44516
2.07433 6.90505 -0.784927
3.38417 6.11656 -1.85091
1.32099 5.39251 -2.69083
0.90586 7.04186 -0.527288
-0.691525 6.35526 -1.61199
0.211178 6.93965 0.782217
0.188023 5.93094 -5.32935
1.55887 7.24494 -1.38596
2.48987 6.67924 -3.64618
-0.883188 5.92419 -2.16789
-2.38666 4.90898 -1.74852
-2.33504 4.74343 -3.19967
1.75547 4.92666 -3.57227
2.82254 5.45474 -1.4056
0.313703 6.99233 0.41207
3.12965 5.78775 -1.63126
3.3028 6.20097 -1.44333
2.41722 5.91847 -4.37745
-1.31495 5.38503 -1.74396
-0.819577 5.65337 0.839341
-3.08372 5.9433 -3.1352
2.40566 5.34836 -4.02743
-0.0837809 6.99257 -4.9253
2.04322 4.91503 -3.23662
-1.56714 7.21152 -0.122702
0.0100937 5.46103 -1.00836
0.225313 6.8336 -3.37465
-2.59926 6.8182 -2.89976
1.05518 5.78429 -2.61969
-1.36441 4.93928 -4.79621
1.22642 5.05103 -0.807414
-1.84166 7.14743 -3.08935
-1.77382 7.25926 -0.465586
-0.967399 5.02783 -0.104843
2.11025 5.93406 -4.62737
-0.818902 6.13501 -1.88866
-0.886375 7.08847 -0.0449232
2.17232 7.28066 -3.15944
-0.551826 5.04199 -3.85008
-0.273228 5.05041 -5.2503
-2.0942 4.81883 -3.94849
-0.549244 6.35886 0.770247
-1.6534 5.14314 -2.44243
2.66196 6.04872 -0.425661
-0.395521 5.32587 -0.975498
-0.486774 4.87574 -0.835186
0.588363 6.97412 0.120472
1.34194 6.7902 -4.83502
3.06504 5.8941 -1.24339
0.436343 5.0481 -0.619048
1.70854 6.69105 -4.60565
-1.59574 5.12354 -2.84466
1.78304 7.05133 -3.00291
1.27384 6.88473 0.238007
-2.28913 7.02439 -1.01009
-2.23141 4.68661 -2.07537
-1.75349 5.29823 0.183926
-2.61978 5.07413 -2.96599
-0.489701 7.07018 0.602763
-2.55995 5.68598 -0.0662735
-1.92162 4.91015 -2.19793
1.78762 5.89592 0.303434
1.11167 6.85329 -1.2941
3.32902 5.88997 -2.95859
-1.97188 7.27138 -0.781115
-0.851864 6.95601 -4.68079
0.68655 6.33303 -5.2156
0.988116 4.82011 -3.50216
-2.49502 6.25294 -4.27503
-2.17251 6.63997 -4.62156
-1.16415 5.07772 -1.20615
-1.0918 4.89332 -0.541841
0.81974 6.23316 -2.5918
-0.9264 6.06562 0.733282
2.46181 7.06283 -2.46542
0.184787 6.99079 -0.034715
-1.26593 5.72067 -5.04251
0.5836 4.93433 -3.88773
-1.61497 5.44046 0.6123
-2.45814 5.10625 -1.36705
-2.34561 5.12332 -3.83241
3.20471 5.75869 -2.06132
-0.591213 5.00329 -4.28899
-2.70997 5.34718 -3.23529
-0.516125 5.96844 0.836956
2.53163 6.68771 -0.736766
-0.570121 6.07239 -1.2795
0.810886 6.68284 -1.1633
-0.112726 5.0121 -4.84379
1.25709 7.19988 -1.15988
0.545605 6.99727 -0.270531
-0.507881 7.05844 0.140205
-3.29798 6.27079 -2.91386
-0.986205 5.00029 -4.12864
-1.67856 7.13571 -0.963361
-2.15235 5.69156 -4.39979
1.25247 7.11367 -4.71767
-0.146853 4.96423 -0.882624
1.02207 6.98004 -3.93619
-1.01019 6.67751 -3.13123
-0.108154 6.99317 -4.51169
-2.41978 7.05767 -1.81357
-2.35619 4.71733 -2.83917
2.68684 6.80459 -2.7274
-0.617446 7.04957 -3.45162
-0.912915 5.9308 -2.86023
-0.88833 5.82119 -5.19905
-0.761653 6.246 -3.19324
-1.25455 5.75989 0.705738
2.37396 6.99726 -3.41181
-1.4439 7.21958 -3.06497
-0.919032 5.40177 -5.15574
0.251379 6.36728 -5.29983
-2.26399 5.56715 0.198019
-2.06824 7.30467 -1.1996
-2.9058 5.53332 -2.93268
-2.75269 6.71796 -1.7161
-0.891548 5.27238 0.816168
