-0.843456 -0.0837044 -0.456915
-0.109195 -0.472192 0.0461496
-0.871734 -0.351079 -0.0270385
0.664306 -0.490201 -0.640103
0.685931 -0.368534 -0.877454
-0.538758 -0.145712 0.610276
0.628576 -0.546584 -0.455724
-0.914959 -0.0847362 -0.20933
-0.447688 0.0962122 0.183349
-0.344493 -0.341751 0.178134
-0.0208972 0.497514 -0.468898
-0.560813 -0.503505 -0.806579
-0.760383 -0.540517 -0.221997
-0.494253 -0.205752 0.60014
0.752346 -0.0560256 -0.929863
-0.102818 -0.546051 -0.62951
0.326767 0.422473 -0.407141
-0.707196 -0.377437 -0.544659
-0.90046 -0.24088 0.00439558
-0.553447 -0.0164559 -0.641016
0.638485 -0.00544824 0.063188
-0.248198 -0.614131 -0.90247
-0.692063 -0.117512 -0.84871
-0.957439 -0.471492 0.0994583
0.0895783 0.337613 -0.870937
0.272357 0.259786 -0.991799
0.598273 0.158378 -0.0341702
0.619038 -0.337558 0.0747318
-0.323005 0.0804562 0.206798
0.467752 -0.621016 -0.636072
0.750192 0.100531 -0.409692
-0.271686 -0.02106 0.232547
-0.917306 -0.291092 -0.069654
-0.129153 0.389015 -0.68183
-0.599811 0.683263 0.878545
-0.446036 -0.6182 -0.313992
0.798969 -0.0183162 -0.318072
0.571224 -0.57371 -0.482557
-0.504179 0.0685737 -0.669016
0.116499 -0.61941 -0.835068
0.434796 0.370953 -0.448162
-0.806072 0.412053 0.760957
-0.77368 0.0528181 -0.467343
-0.00365197 0.453026 -0.670339
-0.897335 -0.277467 0.572416
-0.92885 -0.50232 0.300656
0.629782 -0.194921 0.0925557
-0.589789 0.431967 0.623289
0.802539 -0.38909 -0.790339
-0.209809 0.309205 -0.261692
-0.285348 -0.538279 -0.676663
-0.651361 0.653053 0.918922
-0.0791242 -0.057113 0.204983
0.736959 0.0152242 -0.100486
-0.171341 0.372204 -0.885252
0.703884 -0.261027 -0.0148822
-0.73593 -0.729103 0.171455
-0.754527 0.0394973 0.377011
-0.542695 -0.41985 -0.80719
-0.47264 -0.0601279 -0.985706
0.564998 -0.55525 -0.544202
-0.0575847 0.153216 0.806527
0.0481635 0.239305 0.0183494
-0.397397 -0.183109 0.378531
0.723633 -0.0406483 -0.0483621
0.61935 -0.340267 -0.920777
-0.764765 0.204584 0.715141
-0.206065 0.374679 -0.499431
-0.696172 0.0762829 0.169131
0.508201 0.339487 -0.437289
0.881682 -0.192094 -0.858559
-0.723175 0.439534 0.599594
0.348979 -0.70599 -0.591271
0.0144791 -0.510521 0.0542366
-0.21036 -0.0654889 0.218608
0.0955002 0.116323 -0.926665
-0.364784 -0.588035 -0.227179
0.0538074 0.487317 -0.46528
-0.391853 -0.0752665 0.303963
0.672375 0.184763 -0.601686
0.0510993 -0.628548 -0.825115
-0.397826 -0.439146 -0.977982
-0.843687 0.0191084 -0.0546369
-0.75897 0.235246 0.542441
-0.453404 0.106965 -0.831338
0.117432 0.180781 0.111606
-0.608064 0.74176 0.91528
-0.217738 -0.524666 -0.633662
-0.823286 0.062513 -0.103567
-0.529804 -0.434307 -0.977198
-0.329597 -0.107496 0.678389
-0.465312 -0.350898 0.565406
-0.894291 -0.43172 0.052214
0.63567 0.20522 -0.665509
-0.0676628 0.297741 -0.103093
0.717699 0.161186 -0.273527
0.499865 -0.481295 0.00299074
-0.351046 0.244864 -0.359194
0.204906 -0.655303 -0.810699
-0.351205 0.135237 -0.795411
0.250697 -0.0667738 0.264015
-0.483755 -0.540621 0.199465
0.318898 -0.0735097 0.261684
-0.692414 0.321197 0.796585
0.179751 -0.0367064 -0.93948
-0.901515 -0.186043 -0.378107
0.349289 -0.721942 -0.33741
-0.137495 -0.24734 0.193025
0.541316 0.228829 -0.820602
-0.70539 -0.14999 0.610491
-0.0171961 -0.0947769 0.225615
0.0264169 0.0979586 0.677655
0.313793 0.103602 0.186528
-0.300865 -0.0997018 0.552094
-0.0050427 0.282733 0.821201
-0.227796 -0.360534 -0.981194
-0.587135 0.661317 0.749458
0.349414 0.384424 -0.733859
-0.859564 -0.564605 0.0209387
-0.143142 -0.0168791 0.187649
0.693569 0.135793 -0.14748
0.247783 0.358622 -0.17311
-0.0485631 -0.371864 -0.935081
-0.144467 0.45534 -0.288614
0.208689 -0.701762 -0.191243
-0.298723 -0.0535834 0.50727
0.323346 0.392389 -0.66015
-0.661472 -0.585298 -0.330081
0.23563 0.432799 -0.54218
-0.113343 0.0522243 0.167879
-0.94669 -0.161194 0.0676522
0.564246 0.27145 -0.228173
-0.227482 -0.413507 0.121958
0.414162 -0.679718 -0.322039
-0.974993 -0.231087 0.270809
-0.685067 -0.528671 -0.429371
-0.689103 0.0225885 -0.547871
0.47606 -0.580728 -0.774073
-0.746814 0.194872 0.583587
-0.0622912 -0.60343 -0.61897
-0.80544 0.00417148 0.420871
0.362595 0.401448 -0.460522
-0.315473 0.18342 -0.537378
-0.846721 -0.48719 0.0184218
0.272231 -0.525642 -0.9956
0.370146 -0.293927 0.242776
-0.444698 0.163258 -0.518316
-0.943055 -0.283835 0.391896
-0.300311 -0.571618 -0.21443
-0.145286 -0.510482 -0.586875
-0.0693175 -0.666454 -0.488897
-0.433933 -0.0469633 0.382056
-0.049422 0.486083 -0.533802
-0.071718 0.00589814 0.64222
-0.918389 -0.269335 -0.297042
0.0293623 -0.690824 -0.652918
-0.545367 -0.588387 -0.14684
0.381213 -0.698397 -0.393655
-0.888483 -0.123307 0.0134679
-0.0143435 0.192713 0.851538
-0.0141142 -0.221935 -0.9377
-0.813867 -0.670066 0.364968
-0.200218 -0.283921 0.197451
-0.245559 0.205134 -0.938654
-0.486098 0.210156 -0.437412
-0.470346 -0.405407 -0.626037
0.139071 0.422854 -0.706252
0.214342 -0.496119 0.118048
-0.0917871 -0.424358 0.111833
-0.320294 0.367779 -0.935305
-0.883926 -0.0679497 -0.345881
0.095712 0.132335 0.155148
0.143887 0.301323 -0.129822
0.00131065 0.25361 -0.00857337
-0.660792 0.174698 -0.117287
-0.525844 -0.412389 0.583177
0.401009 -0.628582 -0.18408
0.278973 -0.233184 -0.997259
-0.242367 0.380311 -0.895609
0.234484 -0.597101 -0.864006
-0.406468 -0.107575 0.371339
0.163718 -0.749766 -0.395562
-0.962086 -0.370478 0.292568
0.0131356 0.201713 -0.929774
-0.862018 -0.664587 0.315898
-0.670267 -0.650094 0.398528
0.207633 0.413012 -0.199726
0.00668325 -0.69867 -0.211129
-0.741148 0.396995 0.534068
0.428534 0.165911 0.0980468
0.272583 -0.687982 -0.768101
-0.290657 -0.567005 -0.473521
-0.897129 -0.185067 0.00825814
-0.231412 0.00568534 -0.932914
0.00143109 0.392027 -0.799663
0.21807 -0.424979 -0.932283
0.0617339 -0.656625 -0.165507
-0.506395 0.108184 -0.87513
-0.390988 0.260778 -0.179465
-0.843345 -0.159792 0.581023
-0.639807 0.0679288 0.417811
0.918554 -0.23498 -0.816083
-0.0406247 0.068345 -0.929696
-0.744174 -0.227202 0.613222
0.566975 0.302364 -0.440244
0.809818 -0.240709 -0.455512
-0.612245 0.0117834 -0.98281
0.551017 0.095086 0.077759
-0.867498 -0.0699755 0.0359494
0.646058 0.0964962 -0.852958
-0.889757 -0.355126 0.56211
0.72527 -0.313421 -0.0732729
-0.43935 -0.193801 -0.972892
-0.683524 0.0450117 -0.972895
-0.0649209 -0.704444 -0.880018
0.266133 -0.20034 0.27032
-0.227792 0.116359 0.133312
-0.681793 -0.0281419 0.623428
-0.356136 -0.567972 -0.49551
0.402011 0.291592 -0.116596
-0.614665 -0.534542 -0.471305
-0.0986543 0.490702 -0.477763
0.124686 -0.314141 -0.9377
-0.897529 -0.0213119 -0.174038
0.550288 0.148872 0.0191635
-0.604581 -0.113381 -0.645065
-0.692576 -0.538281 -0.0860415
0.807476 -0.339179 -0.844204
0.649425 0.107455 -0.769052
-0.263972 -0.25127 0.223222
-0.627478 0.556212 0.827119
-0.252081 0.147763 -0.640399
-0.446208 0.112492 -0.678674
0.78969 -0.306538 -0.461132
-0.936874 -0.376467 0.499413
0.0476332 0.322811 0.972575
-0.667746 0.00848792 -0.860751
0.987487 -0.21755 -0.601004
0.310655 -0.335394 0.240296
-0.45195 -0.230824 -0.712309
0.506116 -0.517527 -0.802825
-0.476217 -0.412458 0.545468
0.269089 0.424192 -0.599768
0.216753 -0.729728 -0.646606
0.100089 -0.184075 0.255008
-0.881539 -0.396607 -0.277935
0.46766 0.333034 -0.766743
-0.572896 0.0977012 -0.909177
0.574555 -0.505471 -0.750328
-0.417954 -0.00494183 0.487165
-0.0812455 0.459816 -0.587947
0.276686 0.197444 -0.986614
-0.178211 0.218904 -0.927646
0.0267046 0.0569354 -0.928698
0.523654 0.291481 -0.718432
-0.959464 -0.227539 0.0625284
0.136077 0.378927 -0.83122
0.428748 -0.564211 -0.901031
-0.570141 0.100912 -0.973614
-0.480315 -0.46967 0.325552
0.9606 -0.285427 -0.626743
-0.76904 0.372285 0.799644
0.693127 -0.37738 -0.0857591
-0.606976 0.00540819 -0.827121
-0.0746266 0.496286 -0.406345
-0.472561 -0.256593 -0.82907
-0.511255 -0.0853091 0.641409
-0.209255 0.416952 -0.428217
-0.172 -0.337207 -0.941552
-0.321031 0.197201 -0.980102
0.482702 -0.00138699 0.183249
0.824035 -0.130128 -0.498818
-0.163544 0.388843 -0.242722
-0.450336 -0.426902 -0.694686
-0.304603 0.211115 -0.46493
-0.655818 -0.461101 -0.958655
0.756868 0.101975 -0.275056
-0.49227 -0.342456 -0.808917
-0.175116 -0.490711 0.0149799
-0.699392 0.244601 0.76623
-0.733372 0.349397 0.59378
0.152524 -0.736335 -0.542584
-0.748262 0.03968 0.458665
-0.079013 0.347887 -0.967987
-0.882621 -0.144818 0.527534
0.458414 0.360052 -0.383994
0.0491232 -0.28987 -0.937703
-0.644536 -0.601474 -0.265238
-0.802081 -0.688685 0.159906
-0.193783 -0.406991 -0.940185
-0.424528 0.191977 -0.461439
-0.807604 0.475677 0.796558
0.670114 -0.150801 0.0443296
0.840458 0.0895791 -0.720352
-0.790748 -0.729901 0.22841
0.16402 -0.461107 -0.935067
-0.522536 0.174117 -0.495811
-0.91269 -0.15619 -0.0521553
-0.147138 0.196392 0.0507304
-0.712428 0.273262 0.498338
-0.157616 -0.385733 0.127208
-0.840762 -0.0918835 0.546543
-0.909167 -0.134304 -0.327523
0.146864 0.404374 -0.771632
-0.677831 0.10293 0.0440689
-0.728036 0.627739 0.861716
0.133555 0.457435 -0.24643
-0.0107638 -0.0813596 -0.934503
-0.108238 0.104506 0.842812
0.3334 0.356836 -0.813616
0.45383 0.0611644 0.165811
-0.576823 -0.626902 0.12722
-0.658592 0.120589 -0.4931
-0.666803 -0.57333 -0.145461
-0.385618 0.263456 -0.88121
-0.315523 -0.406335 0.12642
0.0578386 -0.56796 -0.983083
0.304459 0.414115 -0.54506
-0.826448 0.0695283 -0.342921
0.412318 -0.238494 0.238811
0.41327 -0.641573 -0.670729
0.208461 -0.0839834 -0.987721
-0.586671 0.365899 0.587844
-0.721469 -0.0372132 -0.888872
-0.124127 0.361519 -0.746073
-0.211521 0.220082 0.0108031
0.666355 -0.299335 0.035911
0.154577 0.0401028 -0.929487
0.346596 -0.566656 -0.984477
-0.661262 -0.494443 0.561988
-0.598688 0.716986 0.70814
-0.525631 -0.12939 -0.733424
0.649939 0.250444 -0.35249
-0.595196 0.0397357 0.567885
-0.216701 -0.59665 -0.244206
-0.604528 0.454582 0.759933
0.285162 -0.742715 -0.347551
-0.543811 0.163713 0.0673207
0.433016 -0.162332 0.232968
-0.857964 -0.155643 -0.441473
0.861632 -0.335887 -0.793528
0.203333 -0.73671 -0.583895
0.0419466 0.172945 0.110746
0.80859 -0.208758 -0.384177
-0.784974 0.109878 -0.125726
-0.675934 -0.496621 -0.484784
0.801256 -0.27649 -0.388817
0.429029 -0.445891 0.117009
-0.775193 0.0242436 0.0697065
-0.215911 -0.598618 -0.836131
-0.110925 0.222257 -0.932969
-0.502405 0.129905 0.130898
-0.170138 0.440962 -0.48624
0.398005 -0.410254 0.174432
-0.925245 -0.0834696 -0.283001
0.46855 0.367444 -0.565155
-0.574995 0.376077 0.659466
-0.584036 -0.543281 0.39375
-0.64879 0.0842452 0.105745
-0.815865 -0.137254 -0.498922
0.443537 0.338292 -0.260124
-0.126487 -0.13597 -0.936775
-0.901165 -0.263621 -0.369623
0.410196 -0.605444 -0.117244
-0.785217 -0.504664 -0.155793
0.483415 -0.522486 -0.939754
0.0389222 -0.0179089 -0.932591
0.158156 -0.700078 -0.703294
-0.912831 -0.403404 0.371241
0.439406 -0.269406 -0.9948
-0.933062 -0.15015 -0.114624
-0.827538 -0.205228 -0.495386
-0.369111 -0.377529 -0.984689
-0.141419 -0.530406 -0.957707
0.177617 -0.604814 -0.857626
0.537038 0.168498 -0.847609
-0.779963 0.0891638 -0.397391
-0.888253 -0.333246 -0.32586
0.531586 0.200001 -0.0427526
-0.648228 0.555943 0.574519
-0.536315 -0.574517 0.171708
-0.700172 0.58909 0.591777
-0.106707 -0.6569 -0.286021
-0.856931 -0.409899 -0.0740847
0.42029 0.119363 0.144131
-0.543333 -0.26856 0.607359
-0.50511 -0.181516 -0.7923
-0.739771 0.266667 0.612139
-0.748861 0.0562113 0.3047
-0.384079 0.171442 -0.565315
0.529488 -0.368353 0.136428
-0.473115 -0.278369 0.582248
0.12667 -0.753106 -0.470395
0.0585274 -0.750241 -0.337136
-0.672469 -0.522961 -0.00833713
-0.599527 -0.580075 -0.898118
-0.237929 0.34332 -0.441352
-0.499686 0.0951151 -0.601175
-0.108789 -0.600866 -0.220088
0.135335 0.48012 -0.380519
0.410646 -0.547377 -0.0589774
0.915596 -0.296653 -0.773413
-0.175611 -0.018048 0.581719
-0.457768 -0.354687 0.490926
0.173778 0.144061 0.146203
-0.768197 0.0537272 0.142933
0.635106 -0.459369 -0.749161
0.808936 -0.0858375 -0.340197
0.605975 0.114843 -0.799857
0.617492 -0.506498 -0.692107
-0.20869 -0.663384 -0.892504
-0.807659 -0.364449 0.590524
-0.196416 0.292773 -0.636051
0.4108 -0.328941 -0.994685
-0.569795 -0.0821048 0.593622
-0.32232 0.152068 -0.605675
0.652299 -0.438908 -0.0962386
0.715293 -0.184799 -0.948525
0.224138 0.169904 -0.935484
-0.432882 0.208511 0.0250324
0.309799 0.246953 0.036733
0.625371 0.256639 -0.429766
-0.446866 -0.483523 0.243362
0.0686123 -0.0878119 -0.93511
0.366531 0.0360833 -0.996793
-0.208722 -0.351194 0.166548
-0.629636 0.368156 0.528942
0.132669 -0.492827 0.118546
-0.0827727 -0.0722197 -0.933899
0.345771 0.283282 -0.976577
-0.804881 -0.623888 0.0261065
-0.960027 -0.163336 0.281777
-0.824797 0.0904575 -0.184731
0.757201 -0.376702 -0.45655
-0.753231 0.312642 0.540064
-0.951654 -0.582889 0.21646
-0.860305 -0.51623 0.487581
0.492896 0.353087 -0.503216
0.673225 -0.222656 0.037751
-0.0258258 0.234136 0.749561
-0.687331 -0.686764 0.333656
0.418836 0.31142 -0.195287
-0.351711 -0.567089 -0.852582
0.506031 -0.0694307 0.187371
-0.113323 -0.526224 -0.695357
0.0146982 0.191358 0.788062
0.0824149 0.300362 0.891424
0.629475 0.160647 -0.727822
-0.0277033 -0.168078 0.227535
-0.618234 -0.520481 -0.864114
0.341362 0.406869 -0.333345
0.907849 -0.341726 -0.64205
0.549381 0.0496939 -0.944392
0.0960037 -0.718217 -0.660544
0.731001 -0.262791 -0.925827
0.150514 -0.624836 -0.908608
0.656776 -0.0764235 0.0567766
-0.442653 -0.456344 -0.609451
0.637681 -0.372983 0.0256419
-0.500822 -0.547981 -0.804251
-0.900284 -0.021858 -0.244306
-0.478005 -6.71946e-05 0.367226
0.752085 -0.287949 -0.132943
-0.621344 0.197561 -0.153082
-0.576637 0.0404017 0.497105
-0.777529 0.149772 0.609847
-0.174318 -0.591818 -0.98167
-0.442734 -0.303431 0.436314
-0.380519 0.225865 -0.0188441
-0.474473 -0.0349296 0.667369
0.759776 -0.0538889 -0.113092
-0.128066 0.0564652 0.899195
0.410693 0.0217806 0.208267
0.426611 0.386905 -0.512637
0.533777 0.235526 -0.103966
-0.307278 0.116562 0.69392
-0.503882 0.0681004 -0.805692
0.703159 -0.10445 -0.957671
-0.576681 -0.172084 -0.827043
0.608747 0.110335 0.0183773
-0.753003 -0.508646 -0.0884173
-0.50033 0.127334 -0.546122
0.683192 -0.0269465 0.00913857
0.803513 -0.228405 -0.319042
-0.494712 -0.243389 -0.983488
-0.0662668 0.249531 0.820736
-0.06497 0.386233 -0.776204
-0.605803 0.165916 0.659269
0.497405 0.152426 0.0698599
-0.249061 -0.501603 -0.00604873
-0.295391 0.0266364 -0.953949
-0.249205 -0.586087 -0.352584
-0.368755 -0.213625 0.306174
-0.770422 0.143166 -0.189221
0.274576 -0.423155 -0.93727
-0.944835 -0.283861 -0.219163
-0.73047 -0.647193 0.428356
-0.883483 -0.021704 -0.0971611
-0.190716 -0.532466 -0.050209
-0.214822 0.197708 -0.7628
-0.748307 0.0695383 0.024712
0.770284 -0.34134 -0.518684
-0.64637 0.300982 0.499912
-0.627646 0.0654342 -0.881882
-0.53577 -0.512235 0.495085
-0.13883 0.233345 0.00669508
0.544812 -0.025425 0.147827
0.820197 -0.0684144 -0.510818
0.14748 -0.734107 -0.235335
-0.836261 -0.57744 0.452201
0.177592 0.27558 -0.989285
0.0806981 0.191027 -0.930569
0.206135 -0.705391 -0.758507
-0.615617 -0.146927 0.604892
-0.915347 -0.504611 0.0448496
0.315795 0.360206 -0.196703
0.891252 -0.0809118 -0.513275
-0.576673 -0.620822 -0.266394
-0.137678 0.20802 0.821737
0.0265167 0.103487 0.148861
-0.34006 0.022641 0.790765
0.388658 -0.0976196 0.24751
-0.467732 -0.357273 -0.726471
-0.44877 -0.511093 0.0132572
0.584311 -0.242234 0.133663
0.699572 -0.102039 -0.00171217
0.238702 -0.746202 -0.404267
-0.121876 0.348657 -0.818904
-0.751694 0.522084 0.880182
0.276326 -0.556613 -0.0804843
0.449647 -0.679749 -0.400657
0.273405 0.37939 -0.783332
-0.275328 -0.374931 0.164323
-0.558227 -0.353602 -0.844989
-0.836839 -0.406041 -0.396007
-0.895262 -0.0202652 -0.308808
-0.247486 -0.528615 -0.809415
0.265293 -0.658972 -0.165498
-0.345602 0.255721 -0.129385
0.76745 0.00022027 -0.165636
-0.793083 -0.540735 0.512373
0.23977 -0.328867 0.245065
-0.342555 0.212258 -0.81718
-0.218965 0.177277 0.0794293
-0.637177 0.73636 0.801883
0.555632 -0.483231 -0.0290796
-0.272814 0.204008 0.049253
-0.457757 -0.469568 -0.9767
-0.0472093 0.277632 -0.0348244
0.558479 0.257964 -0.759031
-0.228379 0.376217 -0.369838
0.69221 -0.459297 -0.207758
0.114513 -0.634037 -0.97461
0.526438 -0.580455 -0.589601
-0.673885 0.200981 -0.297537
-0.421679 -0.323266 0.363424
0.175648 -0.314465 0.248758
-0.863734 -0.67876 0.19599
-0.417287 -0.533399 -0.512023
-0.257192 0.213969 -0.514417
0.335236 -0.626665 -0.163171
0.258929 0.446491 -0.421269
-0.600161 -0.605009 -0.337798
-0.408152 -0.60176 -0.171168
-0.732381 -0.252617 -0.584373
-0.160456 0.027681 0.868017
0.536311 -0.442098 0.0448849
-0.765866 -0.596149 0.477847
0.0669902 0.384794 -0.824291
0.037838 0.338151 -0.92015
0.0978006 -0.758502 -0.394974
0.446139 0.209201 -0.923165
-0.774983 0.44384 0.828041
0.253872 0.261449 -0.0142633
0.781049 -0.251616 -0.192624
0.050876 -0.497925 -0.933192
-0.533284 -0.144901 -0.674504
-0.614939 -0.0434998 -0.628663
-0.288034 0.160049 0.103888
-0.140117 -0.461164 -0.930051
-0.0759459 0.270627 -0.988585
-0.440308 -0.0962917 0.685642
-0.0256008 -0.400608 0.153357
-0.64428 -0.462528 -0.894619
0.0122497 0.42507 -0.73566
0.80388 -0.0382205 -0.392989
-0.198987 0.0893576 0.584792
0.607066 0.0587562 0.0598659
-0.41404 0.00025076 -0.984355
-0.438874 -0.490288 0.158712
0.0019659 -0.545583 -0.00710546
-0.296936 0.0665571 0.818377
-0.415247 0.254794 -0.328529
-0.60781 -0.696557 0.134784
0.873854 -0.111199 -0.863726
-0.612234 0.0807596 0.159991
-0.659893 -0.15696 -0.631731
0.433961 0.0624648 -0.983926
0.250257 0.085147 -0.933835
0.370877 -0.670323 -0.723929
0.57966 -0.557888 -0.200655
-0.741841 0.169756 -0.320436
-0.739256 -0.60041 0.00726206
-0.045527 -0.710905 -0.270335
-0.95617 -0.548413 0.0925962
0.276159 -0.707196 -0.221479
-0.577834 0.162236 0.59134
0.79825 -0.130544 -0.223187
-0.767767 -0.187821 -0.548448
-0.928941 -0.0700693 0.152285
-0.614297 -0.566411 -0.962018
0.959051 -0.247356 -0.746346
-0.62478 -0.570083 -0.403481
-0.533792 0.0461387 0.33892
0.597107 -0.483918 -0.0956108
-0.637824 0.204594 0.719342
-0.631931 0.178442 0.470067
-0.512853 -0.500961 -0.9767
-0.280294 0.150169 -0.929392
-0.0183192 0.180066 0.676919
-0.675165 -0.697406 0.0629049
-0.670356 -0.338573 0.613965
-0.303597 0.0944401 -0.936833
0.797306 -0.0133935 -0.546179
-0.537672 -0.627027 -0.902703
-0.134911 0.111157 0.612163
0.655883 0.0459958 0.0116965
0.139355 -0.746523 -0.314006
-0.372181 0.0690684 0.689338
-0.304942 0.230026 -0.00290492
0.0010024 0.495344 -0.401717
-0.951515 -0.292801 0.46347
0.706187 0.0702231 -0.878142
-0.465166 0.0257901 0.304377
-0.098473 -0.316512 -0.93764
-0.430044 0.147906 0.136049
-0.405668 0.252686 -0.0883279
0.484251 0.0842327 -0.937319
0.481071 0.348328 -0.699669
-0.864535 -0.640573 0.0564675
-0.263718 -0.586075 -0.277768
-0.508986 -0.603206 -0.84624
-0.643355 0.399204 0.794621
-0.0431531 0.0839794 0.163411
0.171494 0.329012 -0.869288
0.868153 0.0559938 -0.771196
-0.604659 0.098881 0.618269
0.950878 -0.254462 -0.554564
0.332779 -0.190896 -0.99146
0.696503 0.0847809 -0.0933018
0.620798 -0.380751 -0.862693
-0.598919 -0.577348 0.314391
-0.404281 -0.0722926 -0.987699
-0.544912 -0.29123 -0.981971
-0.621395 -0.484202 -0.525843
0.313766 -0.141538 0.268588
-0.679762 0.152824 -0.0635107
-0.598031 0.113335 0.464156
-0.671648 -0.0132257 -0.593824
0.195204 0.429534 -0.665602
-0.215283 0.185011 -0.694741
0.307101 -0.472375 -0.987996
-0.825343 -0.477155 0.538668
-0.651433 -0.397343 -0.94605
-0.131022 -0.0318134 0.638966
0.686814 -0.392211 -0.752593
-0.647553 0.20431 -0.227995
-0.206062 0.264295 -0.980971
-0.00550758 -0.618941 -0.793541
-0.699165 0.349236 0.507146
0.458542 -0.617138 -0.219592
0.256436 0.343895 -0.84388
0.0303938 0.495846 -0.317352
0.194712 -0.145841 -0.983399
-0.210444 0.152861 -0.923641
-0.384864 -0.489801 0.036798
-0.9965 -0.314417 0.180666
-0.385621 -0.609369 -0.284818
0.435 -0.504804 0.00312374
0.112039 0.35246 0.828227
0.806069 -0.151717 -0.299777
-0.485393 -0.179856 -0.708124
-0.575289 -0.454835 -0.56843
-0.606662 -0.628663 0.264835
-0.222966 0.25764 -0.569496
0.525986 -0.603239 -0.219533
0.713165 0.103772 -0.81453
-0.00277519 -0.0261953 0.215106
-0.0107202 0.285484 0.948745
-0.273679 0.0780255 0.570606
0.523137 0.273011 -0.163156
-0.155373 0.169711 0.877144
-0.525721 -0.336882 0.596818
-0.249502 -0.0219796 0.688762
-0.84059 -0.0581231 0.429082
-0.927143 -0.337788 -0.167284
0.603353 -0.558955 -0.333117
0.812915 -0.168294 -0.44225
0.366545 -0.440294 -0.994129
-0.526215 0.248369 -0.167989
-0.695217 -0.605233 0.475984
0.654295 -0.156311 -0.976989
0.679647 0.14796 -0.668979
-0.122167 -0.523822 -0.0203376
0.273148 -0.387142 0.211464
-0.685443 0.532999 0.864829
-0.925311 -0.0922187 0.276407
-0.401875 0.17859 0.0802317
-0.00922262 -0.511918 -0.930824
-0.197202 0.375635 -0.966709
0.111649 0.333803 -0.926351
0.27814 0.431494 -0.288774
-0.589519 -0.516498 0.536843
-0.554942 -0.566654 0.248877
0.281241 -0.00423504 0.249176
-0.657336 -0.689772 0.264641
0.207348 0.442117 -0.262775
-0.582977 0.750841 0.775008
-0.206822 0.0213626 0.738474
0.381759 0.355898 -0.230185
-0.721475 0.188779 0.485824
-0.287466 -0.558719 -0.128854
-0.578743 0.182133 0.00151526
0.0456099 0.308255 -0.980878
-0.265242 -0.529903 -0.0687311
0.0807848 -0.649647 -0.89536
0.96229 -0.0247184 -0.68446
-0.641653 0.0278852 0.624108
-0.594892 -0.185565 -0.65822
0.237911 0.240086 0.0636458
0.52786 0.324751 -0.365899
-0.86734 -0.677258 0.123965
0.510994 -0.389774 -0.961772
0.674681 -0.500029 -0.449331
0.666386 0.0440091 -0.924549
-0.150024 -0.492588 -0.658642
-0.859415 -0.109782 0.470125
0.0404705 0.274983 0.762534
0.493718 0.189059 0.0130855
0.879518 0.0686972 -0.670462
-0.459666 -0.557618 -0.978003
-0.581386 0.694012 0.812667
0.354576 -0.576392 -0.921546
0.367202 0.412745 -0.530205
0.837381 -0.349202 -0.613957
-0.142518 -0.316456 0.159773
0.231228 0.112999 0.177343
0.688805 -0.474854 -0.514121
-0.578974 0.235822 0.569111
0.713029 0.123488 -0.61246
-0.628429 0.337324 0.762764
-0.613916 0.136667 0.0559944
-0.790247 -0.516982 -0.28778
-0.0629445 -0.641376 -0.984341
0.782688 0.0238226 -0.381088
0.444627 0.290659 -0.827682
-0.694925 0.686361 0.89132
-0.529879 -0.411108 -0.605496
-0.674167 0.129162 0.451602
-0.131437 -0.702245 -0.886996
0.512567 0.318822 -0.583035
-0.139897 0.262239 -0.981268
0.0251763 0.479745 -0.538782
-0.708575 0.0775503 0.247226
-0.914166 -0.0444163 0.230066
-0.672439 -0.638873 0.0300077
-0.78144 0.000824115 0.500491
0.409951 0.386007 -0.590735
-0.316926 0.128848 -0.677451
0.117323 -0.115883 0.25504
-0.582391 0.0471455 0.431513
-0.400868 -0.176718 0.514792
-0.15801 0.0606556 0.798663
0.791514 -0.276554 -0.25978
-0.446346 -0.404716 0.352699
0.222734 -0.581412 -0.123468
-0.0166914 0.329786 -0.971057
0.277419 -0.726487 -0.2851
0.546255 -0.00831144 -0.979949
-0.717026 0.464815 0.848852
0.748608 -0.171667 -0.0852988
-0.0764889 -0.214783 0.209992
-0.838608 -0.459947 -0.292674
-0.656399 -0.234896 -0.633242
-0.825924 -0.272817 -0.479426
-0.673649 -0.728503 0.117987
-0.211229 -0.539003 -0.56598
-0.938661 -0.276253 -0.138959
-0.490445 -0.53006 0.120366
0.69409 -0.419959 -0.148868
0.0736825 -0.722274 -0.526037
-0.586557 0.172536 0.518938
-0.634492 0.07488 -0.543149
0.811078 -0.0937191 -0.433976
-0.609063 -0.0747603 -0.982089
0.678105 -0.308374 -0.92853
0.68734 -0.336668 -0.0196224
0.605953 0.264753 -0.499833
-0.662619 -0.205044 0.614782
-0.487626 0.00205872 -0.984394
-0.469527 -0.0189925 0.448208
-0.496044 0.0599939 -0.736189
-0.57256 0.298795 0.626204
-0.433719 -0.241994 0.478407
-0.291273 0.120755 0.166108
-0.0350851 0.352891 -0.907698
0.677759 -0.447354 -0.696418
-0.599624 -0.417317 -0.976042
-0.157586 0.196704 0.750276
-0.637073 0.273113 0.748423
-0.118629 -0.391264 -0.934667
-0.855251 -0.412728 0.558641
-0.424799 0.227349 -0.395429
0.414691 -0.671689 -0.597467
-0.177675 0.264371 -0.0421459
-0.9181 -0.0836995 -0.140025
0.740438 0.0949925 -0.558924
-0.674416 -0.0860326 -0.611939
-0.0675196 0.0749145 0.610346
-0.250219 0.11112 0.834318
-0.161229 -0.656056 -0.838679
-0.707504 -0.443144 0.585142
0.0684575 0.00644134 0.224295
0.787874 -0.0705168 -0.185259
-0.0615125 0.0127845 0.191811
-0.571592 0.0746878 0.223101
0.485511 0.106755 0.116779
0.338509 0.0393162 0.222962
-0.885701 -0.404229 -0.146864
-0.732405 0.114283 0.477591
0.45372 0.222117 -0.0349893
-0.929414 -0.436152 0.321093
0.570206 0.2748 -0.5738
-0.29314 -0.579411 -0.407767
0.914838 -0.30919 -0.578691
-0.465866 -0.394228 -0.978
-0.560785 -0.525613 0.325552
0.644241 0.226593 -0.549016
-0.714864 0.516524 0.707394
0.995342 -0.159583 -0.651418
-0.72854 0.468034 0.540498
0.0874713 -0.528657 0.0518757
0.7653 -0.32068 -0.198906
0.801228 0.0874416 -0.79318
-0.178806 -0.55506 -0.381468
-0.935838 -0.348104 0.425875
-0.939564 -0.149338 -0.258183
-0.63318 -0.600276 0.447142
-0.782173 0.141174 -0.254794
-0.279073 0.271963 -0.332443
-0.713034 -0.725224 0.236443
-0.184447 0.00378953 0.674255
-0.211022 0.0325425 0.552671
-0.507834 0.108537 -0.982375
-0.454614 -0.502353 -0.552494
-0.897891 -0.0691747 0.334432
-0.676263 0.677465 0.827984
-0.731292 -0.373038 0.604337
-0.392543 -0.12793 -0.965171
-0.313944 -0.155451 -0.964828
0.283196 -0.594841 -0.137088
-0.990936 -0.248079 0.195051
-0.693437 0.176592 -0.1824
0.173597 0.358465 -0.158306
0.117296 -0.509265 -0.957741
-0.850371 -0.698035 0.255337
0.630792 -0.267994 0.0884135
0.575043 0.263875 -0.657616
-0.176629 0.454571 -0.368963
-0.0311363 -0.689926 -0.542865
-0.554813 -0.586801 -0.388323
-0.211904 -0.504402 -0.766948
0.173458 -0.452664 0.166435
-0.587531 -0.252812 -0.65188
-0.661048 0.075401 0.299148
-0.696198 -0.439935 -0.518383
-0.395948 -0.507511 -0.591593
0.314733 0.326231 -0.880653
0.694052 -0.483989 -0.269582
0.0136238 0.343354 -0.858817
-0.346104 -0.051157 0.251766
-0.420818 -0.0312664 0.720849
-0.460236 -0.294689 -0.765719
0.178439 -0.257058 -0.941821
0.607511 -0.280531 -0.96142
0.405628 -0.203747 -0.984428
-0.762074 0.140976 0.528353
0.312632 -0.721286 -0.407822
-0.236082 -0.0411564 0.548905
-0.361631 -0.0528776 0.469523
0.371357 -0.511928 -0.0031769
0.234387 -0.736357 -0.527245
0.0768826 0.428889 -0.196199
-0.646093 -0.557059 0.514546
0.479648 0.151881 -0.890246
-0.0486305 0.41278 -0.19533
0.332424 0.271566 -0.100373
0.437934 0.280098 -0.891951
-0.970219 -0.517302 0.159435
0.590513 -0.576572 -0.405021
-0.0846837 0.099139 0.936471
0.313421 -0.00862346 -0.996861
-0.248549 0.24605 -0.0447615
0.272715 0.0392203 -0.984292
0.20847 -0.541541 0.0475892
0.217014 0.0269025 -0.937736
0.081858 0.227213 0.779012
0.769294 0.0635552 -0.853981
0.980474 -0.234521 -0.675381
-0.480759 -0.350322 -0.652477
-0.168127 0.317216 -0.211256
0.551861 0.315536 -0.51291
0.151309 -0.52474 0.0671018
0.552398 -0.3275 -0.957671
0.501622 -0.426149 0.107991
0.263021 0.280439 -0.0835477
-0.520876 0.0517843 0.269229
-0.42328 -0.61447 -0.957351
-0.278361 0.0191282 0.522891
0.358554 -0.266905 -0.992908
-0.524626 -0.223897 -0.677045
0.175937 0.32604 -0.948729
-0.351969 -0.526128 -0.717895
-0.305333 -0.369416 -0.983698
0.722381 -0.440362 -0.327992
-0.280189 -0.555611 -0.610201
-0.530506 -0.292469 -0.660943
-0.200879 -0.475019 -0.961143
-0.438264 -0.585553 -0.844586
-0.100081 0.169573 0.935398
0.154702 0.226321 0.051601
-0.168918 -0.0278315 -0.931306
-0.411994 0.261128 -0.255313
0.639026 -0.0772087 -0.977419
-0.0874101 -0.666458 -0.816128
0.337945 -0.224519 0.262654
0.592229 -0.524861 -0.146914
0.698037 -0.470026 -0.392575
-0.668198 -0.578231 0.0153225
0.734021 0.0104027 -0.911316
0.359014 -0.369865 0.214354
-0.405846 0.229471 -0.981451
-0.864498 -0.612246 0.388746
0.0905436 0.0429036 -0.92999
0.0964368 -0.446719 -0.9313
-0.741734 -0.667277 0.0418417
-0.403244 -0.126439 0.442233
0.720452 0.162659 -0.393455
-0.981516 -0.204147 0.131318
0.0799325 0.354326 0.941257
0.918101 -0.0689823 -0.817233
-0.74654 -0.00248411 -0.50978
-0.216109 -0.506954 -0.698906
0.368121 0.205092 0.0785773
-0.132313 -0.614002 -0.791028
-0.668552 -0.0531218 -0.831935
-0.636827 -0.176665 -0.977967
-0.439126 -0.224869 0.548519
-0.732492 -0.11416 -0.896601
-0.40412 -0.522763 -0.978022
-0.503576 -0.497995 0.0537361
-0.136422 0.365807 -0.961104
0.562826 -0.478831 -0.809304
0.432578 -0.485111 -0.991426
-0.325396 0.280911 -0.830642
-0.574411 -0.0508783 -0.796982
0.442357 0.136204 -0.95624
-0.74422 -0.715941 0.101785
-0.956157 -0.509465 0.230199
-0.33266 -0.110109 0.60899
0.842477 -0.375568 -0.667924
0.474889 -0.568615 -0.0969983
-0.802706 -0.713123 0.305103
0.704937 0.165322 -0.537519
-0.491208 -0.43998 0.404816
-0.914346 -0.580571 0.0523216
0.113591 0.303631 -0.980579
0.0952738 0.486129 -0.323232
-0.553515 -0.556309 0.101152
-0.0817479 0.181731 0.0777283
-0.538533 -0.558444 -0.976709
0.706662 -0.447976 -0.579681
0.433382 -0.0803989 -0.982577
-0.574063 -0.622118 0.20023
-0.278126 -0.523095 -0.741649
0.43392 0.201356 0.0377593
-0.72025 -0.563473 -0.287206
-0.143932 -0.172966 0.203957
-0.507434 0.202723 0.0147312
0.488574 -0.0509736 -0.9974
-0.767458 0.0812361 0.623146
0.468034 0.347547 -0.323993
0.211811 -0.212185 -0.987196
0.204826 0.217408 -0.985208
-0.135073 -0.197611 -0.940758
-0.685778 0.188774 -0.368627
-0.738106 -0.722968 0.296424
-0.662275 0.694143 0.683343
0.394943 0.375311 -0.661308
-0.824936 -0.0466604 0.493433
0.379171 -0.384716 -0.992186
0.324286 -0.395622 -0.949285
0.218533 0.451828 -0.341466
-0.285366 0.17245 -0.789314
0.301378 0.204673 0.0984966
-0.23916 0.0413274 0.853694
-0.922735 -0.627858 0.101464
-0.0958505 0.222773 0.765744
0.151104 0.180944 -0.930259
-0.11126 0.484989 -0.346516
-0.981871 -0.377666 0.221833
0.0519432 0.326061 0.824648
0.191381 0.259975 0.00480598
-0.599394 -0.326971 0.611723
-0.229466 -0.460408 0.0494946
-0.238945 0.326064 -0.986953
-0.845204 -0.399289 0.0106637
-0.0864382 -0.360498 0.154287
0.295757 0.30969 -0.955024
-0.81217 -0.486946 -0.222764
0.586279 0.276653 -0.372888
0.531114 -0.495037 -0.87497
0.0394738 0.259261 0.931466
-0.0711037 -0.631164 -0.549264
-0.982276 -0.372312 0.149687
-0.0267589 -0.294748 -0.9377
-0.870166 -0.0190729 0.295755
-0.653115 0.472778 0.819632
-0.0175106 -0.667707 -0.832374
-0.364386 -0.333795 0.250404
0.681906 0.0974283 -0.72436
0.685102 -0.0260086 -0.95296
0.032326 0.22179 0.708032
0.798537 -0.00548342 -0.887188
-0.576683 -0.206748 0.610241
-0.152382 -0.267969 -0.944259
-0.747412 -0.688812 0.36824
-0.43065 0.1349 -0.90311
0.0683526 -0.557184 -0.00802781
-0.0832671 -0.502359 -0.930074
0.863323 -0.0199765 -0.543411
-0.856929 -0.0367241 -0.407834
0.991422 -0.147336 -0.580317
-0.75502 0.396523 0.704893
-0.394752 0.12762 -0.832956
-0.172989 0.102667 -0.927376
-0.31858 -0.533836 -0.796568
0.481145 -0.223451 -0.986572
0.615435 0.00666482 -0.959969
0.23327 0.30923 -0.975116
0.733704 -0.411963 -0.518381
0.0152013 -0.721313 -0.51142
0.268231 -0.52167 0.0702302
0.682171 -0.499156 -0.336075
-0.388211 -0.140062 0.646283
-0.943763 -0.407993 0.0988772
0.294623 0.439109 -0.479535
-0.322931 -0.573361 -0.292076
0.472383 -0.601724 -0.157055
-0.281781 -0.0100221 0.811727
0.19408 -0.576396 -0.0561733
-0.824345 0.0835138 -0.2599
-0.904572 -0.383387 -0.211936
-0.69565 -0.577969 -0.215252
-0.508725 0.133225 -0.938104
-0.695339 -0.185999 -0.958878
-0.109515 -0.593348 -0.981157
0.462594 -0.148968 -0.980492
0.756308 -0.354912 -0.643299
-0.576038 0.114412 0.111168
-0.915006 -0.551167 0.353576
-0.56254 0.0812058 -0.565013
-0.150995 -0.590385 -0.269718
0.656536 0.100888 -0.035654
-0.449442 0.262156 -0.146703
-0.45935 -0.551335 -0.0470729
0.291613 -0.584858 -0.97543
-0.584111 -0.142503 -0.982067
0.00514919 -0.669911 -0.974144
0.230981 -0.480293 -0.967976
-0.890013 -0.0968088 0.399383
-0.606304 0.517348 0.77889
-0.206452 0.334964 -0.56857
-0.238729 0.313171 -0.325347
0.0577801 -0.0654235 0.238864
0.353896 0.307278 -0.168838
-0.60419 -0.284963 -0.965658
-0.346896 0.0085161 0.499303
0.0122918 0.0421976 0.191758
0.837981 0.0320888 -0.834821
-0.347108 -0.546621 -0.562177
-0.00845259 -0.754322 -0.336869
-0.550689 -0.347029 -0.62846
0.385327 0.322073 -0.852454
0.80389 -0.265003 -0.532445
0.137248 0.0322529 0.2291
-0.746401 0.570008 0.825574
-0.274037 0.129478 0.766645
0.0799627 0.417293 -0.758274
-0.345631 -0.11078 0.26249
-0.621889 -0.264234 0.614723
0.537451 -0.516274 -0.0893934
-0.286063 -0.061398 0.650906
-0.102879 0.110225 0.764705
0.53241 -0.553469 -0.727697
0.341524 0.399424 -0.258487
-0.591788 0.304345 0.548515
0.648844 -0.532295 -0.384239
-0.0485937 0.319919 -0.162483
-0.464267 -0.129552 -0.981352
-0.961015 -0.589401 0.14873
-0.327765 0.0179448 0.233258
0.695219 0.0291565 -0.0432197
-0.166182 -0.440755 0.0800165
-0.00806735 0.202539 0.92191
0.362297 -0.0525934 -0.986546
-0.737131 -0.464801 -0.467364
-0.482988 -0.320108 -0.98366
0.656582 0.202371 -0.48349
0.294263 -0.721589 -0.649592
-0.208422 -0.137985 0.223785
-0.356849 -0.590858 -0.958033
0.921841 -0.14798 -0.824779
-0.309157 -0.235839 -0.96542
0.202122 -0.0136358 0.250363
-0.660569 0.715924 0.943145
0.274053 -0.646068 -0.82825
0.191116 0.462598 -0.406524
-0.176211 0.362136 -0.632043
-0.353034 -0.29771 -0.971923
-0.530951 0.255261 -0.245178
-0.801079 -0.669062 0.0884894
-0.496817 -0.61962 -0.962473
0.323921 -0.118504 -0.990877
-0.602958 0.0626996 0.359215
-0.900801 -0.637436 0.251515
-0.231659 -0.560723 -0.426617
-0.759124 -0.522607 -0.343822
-0.259574 -0.0945782 0.612376
-0.156137 0.101465 0.141624
-0.897865 -0.0900832 -0.0640571
-0.220701 0.219383 -0.63351
-0.777011 -0.485093 -0.0219545
-0.780715 -0.429918 0.5783
0.2377 0.178127 0.120351
-0.56703 -0.512747 0.0466571
0.721732 0.113642 -0.210758
0.674029 0.169877 -0.213519
-0.606621 -0.453735 -0.831257
-0.8114 -0.0123927 -0.466417
0.394778 -0.481999 0.0620927
0.0654494 -0.661431 -0.777806
-0.0854169 -0.131925 0.21217
-0.0579171 -0.155672 -0.936452
-0.791414 0.121821 -0.32316
-0.697927 0.572896 0.664469
0.94477 -0.0418515 -0.752383
-0.478592 -0.596308 -0.181152
0.568913 -0.388041 0.0803869
-0.0546532 0.225743 0.951382
0.323379 0.258804 -0.0339776
-0.128788 0.156479 -0.925163
-0.889551 -0.159482 0.446878
-0.144194 -0.611991 -0.339484
-0.33856 0.268565 -0.984392
-0.426885 0.0225814 0.676207
-0.917178 -0.204828 -0.309923
-0.0559367 -0.559196 -0.961835
-0.324561 0.245376 -0.0669821
-0.985982 -0.306791 0.254427
0.46336 0.352532 -0.635634
0.173762 0.108963 -0.927304
-0.744855 0.119678 -0.0723765
-0.0591505 0.147049 0.886782
-0.515421 -0.472644 0.546015
0.0754869 0.311979 -0.133095
0.8359 -0.228295 -0.884654
-0.598264 0.219628 -0.275086
-0.584508 0.135836 -0.524491
-0.204394 -0.0132843 0.819108
0.396459 -0.604387 -0.795102
0.132799 -0.690436 -0.177159
0.0935383 0.369508 -0.159112
-0.890477 -0.0122299 0.166412
-0.269186 -0.316324 0.197918
-0.272676 0.257433 -0.983186
0.742982 -0.333317 -0.888738
-0.357484 0.320312 -0.897353
-0.157809 -0.0855863 -0.933934
-0.422552 -0.266991 -0.974933
-0.335452 -0.0993555 -0.987248
-0.24121 0.0772927 -0.926039
-0.54213 0.0101355 -0.782629
0.660869 -0.390071 -0.806979
-0.468854 -0.143401 0.637049
0.900996 -0.000290608 -0.797851
-0.566564 -0.61101 -0.955571
0.436482 -0.549084 -0.827906
0.46938 0.252264 -0.0914349
-0.861802 0.034158 -0.288907
-0.651591 0.599727 0.878843
0.204924 0.0527581 0.220608
-0.387641 0.0596602 0.223204
-0.448914 -0.371683 0.414189
0.0869771 -0.686095 -0.716645
0.954128 -0.186742 -0.780706
-0.0770767 0.473637 -0.277951
-0.871997 0.0394458 -0.21846
0.568849 0.289543 -0.306804
-0.892445 -0.441153 0.509312
-0.598313 0.613762 0.692074
-0.711545 0.511048 0.628356
-0.617828 -0.590012 -0.191932
0.337965 -0.619835 -0.834904
-0.255387 0.308589 -0.810396
-0.618737 -0.661873 0.0740757
0.701589 0.156233 -0.456529
0.62495 -0.519872 -0.519051
-0.389025 -0.59515 -0.896168
0.286986 0.298362 -0.149806
-0.487418 -0.611712 -0.36754
-0.419216 -0.431573 0.285071
-0.656606 -0.726423 0.186366
-0.762449 -0.301381 0.609673
-0.761282 0.0739602 0.530615
-0.642042 0.621619 0.610325
-0.739673 -0.0692606 -0.961609
0.864615 -0.27933 -0.842393
-0.0197344 0.0472769 0.655933
-0.0244831 -0.71837 -0.455371
-0.376073 -0.389102 0.147797
-0.105408 0.435236 -0.22914
-0.376361 -0.59663 -0.350084
-0.1452 0.115186 0.913941
-0.750119 0.459924 0.741968
0.617416 0.245569 -0.609789
-0.394555 -0.537942 -0.0257646
0.589921 -0.570837 -0.263987
0.605051 -0.533586 -0.60108
-0.617232 -0.22374 -0.885535
0.469589 -0.625101 -0.280158
-0.574981 -0.550784 -0.0420285
0.462802 0.2947 -0.145988
-0.272777 0.267617 -0.119698
-0.00742736 0.208235 0.995111
-0.247909 -0.249469 -0.9849
-0.859344 -0.436847 -0.219301
-0.0127433 0.474372 -0.601484
0.761858 -0.218399 -0.132036
0.641241 -0.520477 -0.220526
0.349224 -0.70373 -0.274577
-0.184771 0.288563 -0.151666
0.575718 -0.439616 -0.868345
-0.124768 0.457079 -0.537525
0.79052 -0.306891 -0.325133
0.109029 -0.24169 -0.938993
-0.5765 -0.280644 -0.905472
0.127881 0.227783 -0.982935
-0.243688 0.124462 -0.702769
-0.189352 0.4219 -0.316594
0.416314 -0.552296 -0.971231
-0.766594 0.0603367 0.218923
-0.347368 -0.57917 -0.153782
0.013585 -0.586964 -0.14655
0.476081 -0.202617 0.211129
0.339596 -0.670986 -0.21105
0.974918 -0.0820741 -0.571369
0.0677461 0.487633 -0.393769
0.331789 -0.504956 0.0675585
0.664954 -0.236406 -0.958674
-0.201262 0.266265 -0.774741
-0.730525 -0.0547797 -0.562633
-0.344119 -0.0204333 -0.986435
-0.787643 -0.432016 -0.431169
-0.710591 0.111728 -0.0143587
-0.0536668 -0.585405 -0.110135
-0.716649 0.0628283 0.0926361
-0.976979 -0.176105 0.20395
-0.282423 -0.550391 -0.862368
-0.785445 0.216911 0.642693
-0.351967 0.158096 0.127702
-0.625438 0.200036 -0.41343
-0.603851 -0.592319 0.0568408
-0.647676 -0.238824 -0.956719
0.154471 -0.185508 -0.942772
0.797817 -0.0181087 -0.464002
-0.859276 -0.227425 -0.427025
-0.0610216 0.415068 -0.716241
-0.400458 -0.00841227 0.257303
0.765942 -0.348588 -0.264516
-0.491823 0.245217 -0.100824
-0.669638 0.670163 0.758114
-0.549353 -0.0771107 -0.667215
-0.15415 0.169679 0.679906
0.0307484 -0.702692 -0.588656
-0.0911062 -0.679893 -0.431528
-0.912901 -0.175111 0.386955
0.0917646 0.466955 -0.521573
-0.486672 -0.479103 -0.787628
-0.194526 -0.142752 -0.968266
0.744948 -0.411902 -0.392125
-0.359906 0.22363 -0.425037
0.295844 -0.5844 -0.880063
-0.701563 0.0619424 0.423769
0.578779 0.01937 0.104651
0.403459 0.183808 -0.984263
-0.740813 -0.139522 -0.950576
-0.398516 -0.434517 0.10797
-0.654504 0.0797495 0.664658
-0.867047 0.00587513 0.234401
-0.264242 -0.116456 -0.988526
0.979629 -0.173236 -0.718154
0.332056 0.153624 -0.991142
-0.252708 -0.425064 -0.981405
0.0602883 0.238623 -0.98379
-0.00758867 0.114552 0.637266
-0.770423 0.029412 0.570132
-0.200395 0.0985379 0.880488
-0.10713 0.273459 -0.0370671
-0.404107 0.279384 -0.961716
0.949788 -0.11794 -0.523828
-0.454784 0.0611554 -0.985027
-0.267838 -0.493644 -0.983138
-0.749538 -0.495721 -0.405972
-0.717383 0.668967 0.942248
0.603051 0.071057 -0.90575
-0.69391 -0.274966 0.616105
-0.929199 -0.420539 0.440242
-0.475623 -0.41193 -0.771941
0.275124 -0.728568 -0.588341
-0.367539 -0.287301 0.294522
0.771455 -0.123313 -0.134905
-0.10558 0.370848 -0.194695
0.116386 -0.353088 0.226274
0.843689 -0.377771 -0.739765
0.113009 -0.0294768 -0.9326
-0.449776 0.0334204 0.239246
-0.861386 -0.340625 -0.384495
0.269593 0.0592644 0.218131
-0.593378 0.390948 0.729041
0.137306 -0.673691 -0.779908
-0.573806 -0.219938 -0.982025
-0.280889 -0.559823 -0.541246
0.584336 0.183193 -0.784066
-0.440061 0.13599 -0.597393
-0.376656 0.117433 0.178303
-0.619369 -0.342433 -0.970272
-0.555152 -0.564861 -0.459027
-0.809523 -0.440139 -0.0133492
-0.200322 -0.0654122 0.633823
0.650977 -0.398964 -0.0346183
0.015406 -0.354924 -0.935926
-0.419033 0.207359 -0.922466
0.187031 -0.530821 -0.988523
0.358032 -0.679396 -0.654257
-0.7858 -0.0636701 -0.504021
-0.904974 -0.483499 0.449197
0.269065 -0.349524 -0.93785
0.483 -0.53368 -0.87088
-0.322899 -0.527665 -0.0133685
0.477085 -0.632329 -0.572964
-0.944109 -0.249725 0.522205
-0.563711 -0.020916 0.54015
-0.347435 0.275299 -0.22907
-0.767084 0.632489 0.916024
0.891798 -0.149344 -0.501597
0.0575276 -0.490603 0.107445
0.0186195 -0.563905 -0.0741216
-0.76021 0.311927 0.777721
-0.786099 -0.326433 -0.502917
-0.297683 -0.563021 -0.917241
-0.591345 -0.548454 0.467978
0.588874 -0.136578 -0.994314
0.115944 0.452986 -0.57599
-0.559266 0.228325 -0.380796
0.879306 -0.261316 -0.526542
0.235742 -0.704689 -0.697792
-0.489343 -0.61469 -0.254604
-0.304005 0.276076 -0.185803
-0.483406 -0.00634005 0.528155
-0.253185 0.296019 -0.392359
-0.542398 0.0424097 -0.984435
-0.114388 -0.672211 -0.366152
-0.734848 -0.317307 -0.548588
-0.684916 -0.295321 -0.603421
-0.839619 -0.456514 -0.150749
-0.00244322 -0.59254 -0.984611
-0.0268346 0.145677 0.114073
0.177322 -0.613586 -0.976871
-0.17136 0.31629 -0.789584
-0.0137784 -0.261398 0.219526
-0.58792 0.319531 0.699553
0.521421 0.0467219 0.134743
-0.864256 -0.0416695 -0.0235566
0.124448 -0.63248 -0.141968
-0.515063 -0.174973 -0.985692
-0.534948 -0.00444938 0.471738
-0.744466 -0.00684617 0.614246
-0.520961 -0.53105 -0.00927253
0.5101 -0.64655 -0.398814
-0.161528 -0.546033 -0.449096
-0.91994 -0.0992904 0.0838463
0.108663 -0.294311 0.244252
-0.748086 0.515933 0.78075
0.238268 0.317306 -0.900025
-0.210329 -0.65693 -0.964395
0.809967 -0.142153 -0.373441
-0.964289 -0.441459 0.175859
-0.195057 0.139079 0.636994
-0.895111 -0.61128 0.324797
-0.614415 -0.30966 -0.626138
-0.0844846 0.191924 0.705533
0.211453 -0.7469 -0.334885
-0.707076 0.396071 0.823349
0.596212 -0.426239 0.0199235
-0.359173 0.0535871 -0.980019
0.721047 -0.382226 -0.697736
-0.37935 -0.522124 -0.782984
-0.456886 0.145726 -0.974795
0.621181 -0.125481 0.10166
-0.593998 0.250847 0.688762
-0.278082 -0.311293 -0.972022
-0.0552972 -0.599949 -0.181794
0.0806142 0.0761102 0.19764
-0.851967 -0.295827 -0.423734
-0.150116 0.0642036 0.730987
-0.103215 -0.571036 -0.55981
-0.0623992 0.0860316 0.702323
-0.139668 -0.660917 -0.981778
-0.395758 -0.257168 0.34977
0.740537 0.1125 -0.762246
-0.956438 -0.440701 0.253704
0.348469 -0.588335 -0.103691
0.708278 0.0824906 -0.681221
0.77835 -0.343407 -0.393465
-0.00527321 -0.644518 -0.180035
-0.686349 0.622506 0.710088
-0.726543 0.152344 -0.129192
-0.283235 -0.0454378 -0.975247
0.0120664 -0.676436 -0.894497
-0.947072 -0.217787 -0.229081
0.767057 0.04053 -0.515889
-0.554334 0.208373 -0.440434
-0.34181 -0.512512 -0.979868
-0.748546 0.327641 0.659983
0.445381 -0.662436 -0.522105
-0.716532 0.529621 0.562355
-0.546552 -0.616662 -0.209324
-0.647501 -0.521778 -0.950749
-0.310887 0.342807 -0.984116
0.484051 -0.326881 -0.988372
-0.619926 0.217504 -0.34351
-0.147825 -0.0944222 0.201251
0.0247535 0.325716 0.892442
-0.281804 0.290413 -0.262279
-0.53474 0.210425 -0.0545088
-0.0823676 0.145549 0.646141
0.484528 0.0183444 -0.980274
0.520907 -0.619308 -0.520105
0.154549 -0.577654 -0.116101
-0.279214 -0.44493 0.0862077
-0.0174167 -0.337365 0.18621
0.336936 -0.538472 -0.0587477
-0.204011 0.366326 -0.293612
-0.155593 0.155154 0.102772
-0.179127 -0.561641 -0.781803
-0.307594 -0.486961 0.0347038
-0.375563 -0.0871984 0.721516
-0.213413 -0.537953 -0.981725
-0.213165 0.273014 -0.0960843
-0.0368026 0.499344 -0.335505
-0.546619 -0.0577093 -0.734803
-0.796035 0.582862 0.884697
0.0989551 -0.450173 0.158666
-0.371337 0.206254 -0.498036
0.918175 0.0243714 -0.649141
-0.465031 0.257005 -0.209867
0.0502952 -0.214236 -0.938984
-0.81542 -0.358317 -0.448758
0.533718 -0.288396 0.168388
-0.89702 -0.207402 0.564505
-0.152728 0.320543 -0.988735
0.194583 0.284577 -0.0674475
0.532803 -0.263865 -0.98807
0.303686 -0.541036 0.00214002
-0.425944 -0.478967 -0.74733
0.11669 0.270948 0.00966792
0.12854 -0.0395042 0.247836
0.132134 0.471515 -0.457029
-0.622854 0.435499 0.565994
-0.806854 -0.461875 -0.0872783
-0.377018 0.124675 -0.721479
-0.202329 -0.212389 0.219192
-0.0181396 0.47243 -0.25396
-0.658578 -0.354646 -0.587284
0.576027 -0.0629026 -0.989826
0.53871 -0.614722 -0.292255
-0.822844 0.0240409 0.183384
-0.6188 0.67474 0.658151
-0.607059 0.172314 -0.475029
-0.421386 0.179696 -0.98101
0.0435358 -0.135064 0.242165
0.789749 -0.014603 -0.236022
0.104696 0.264593 0.733085
-0.551308 -0.0307317 -0.984555
-0.0415877 0.147571 0.970385
0.279229 -0.0734194 -0.990199
-0.747611 -0.494653 0.555896
0.0239293 -0.202541 0.238217
-0.371652 -0.208942 -0.965342
-0.606132 0.241428 0.506179
-0.700342 -0.551024 -0.368336
-0.260386 0.387544 -0.961507
0.160602 0.472878 -0.313863
0.7779 0.0479471 -0.447297
-0.562647 0.0617572 -0.843297
-0.467544 -0.290359 -0.691399
-0.523274 0.0270671 0.406175
-0.334351 0.0925445 0.626088
0.71543 -0.420532 -0.638506
0.213809 0.457526 -0.475895
0.482131 -0.662667 -0.468136
0.213676 0.301438 -0.138911
-0.799173 0.341963 0.721205
-0.0110568 -0.459429 0.1153
0.182082 0.194245 0.0954994
0.712304 -0.179221 -0.0184098
-0.549813 -0.514263 -0.522339
0.0648683 -0.249045 0.24363
-0.222365 -0.0701115 -0.954584
-0.502205 -0.520601 0.275358
-0.0631296 -0.592385 -0.775283
-0.67788 -0.176444 -0.898552
-0.580384 0.104636 0.539939
-0.928479 -0.222573 -0.0700301
0.851933 -0.310737 -0.563074
-0.10508 0.367736 -0.893159
-0.147823 -0.53032 -0.517129
-0.457272 0.224627 -0.0409588
-0.961243 -0.342226 0.090755
0.90476 0.0121915 -0.585573
0.79036 -0.393006 -0.705962
0.146867 -0.238499 0.25824
-0.00918873 0.251172 -0.984515
-0.728687 -0.527878 -0.0168133
0.128718 0.289551 -0.0589318
0.199689 -0.33623 -0.936061
-0.723903 0.456348 0.674438
0.288128 -0.472213 0.125545
-0.764949 0.143797 0.681566
-0.295369 -0.560904 -0.972129
0.980856 -0.100072 -0.707663
0.742077 -0.3916 -0.836711
0.253784 0.405892 -0.661269
-0.428317 -0.597062 -0.390118
0.0786766 -0.373316 -0.935745
0.018745 -0.749693 -0.404177
-0.609025 -0.678062 0.207023
0.15348 -0.729443 -0.632566
0.058417 -0.743477 -0.459794
-0.556859 -0.118371 -0.792352
0.0963176 -0.723252 -0.592111
0.231329 -0.282592 -0.966341
-0.49811 0.0604104 0.20351
0.0593189 0.468472 -0.255559
0.479932 0.228094 -0.858601
0.796198 -0.282577 -0.88827
0.206737 0.385279 -0.812415
-0.663264 0.493695 0.548392
0.611277 -0.454826 -0.0393314
0.446969 -0.402292 -0.991605
-0.612332 0.0270858 -0.596642
0.335167 -0.338697 -0.988615
0.595222 -0.21205 -0.983968
-0.237214 0.129749 -0.758735
-0.921221 -0.48126 0.380417
-0.11255 0.310597 -0.169822
-0.402702 0.105682 -0.984397
0.164628 0.449757 -0.527609
-0.864996 -0.406802 -0.340454
0.739625 -0.110032 -0.0621967
0.531858 -0.567988 -0.147058
-0.268073 -0.178046 0.238582
-0.699572 0.617746 0.792588
-0.491239 -0.581708 -0.432731
0.233944 -0.588621 -0.984123
0.312795 0.0880929 -0.988833
-0.34305 0.135429 -0.979097
0.0539523 0.460869 -0.609736
0.150784 -0.104577 -0.939728
-0.45922 0.00876642 0.607205
-0.38458 0.14148 -0.643443
-0.586127 -0.493152 -0.975407
0.523714 -0.587406 -0.658476
0.343679 -0.724067 -0.465668
0.288279 -0.300652 -0.987403
0.785503 0.0381278 -0.285225
-0.678468 0.42205 0.52322
-0.959933 -0.136357 0.134758
-0.773095 -0.11579 -0.54548
0.772498 0.072324 -0.344232
-0.208623 -0.293669 -0.982576
0.20856 -0.73339 -0.261629
-0.433823 0.0981786 -0.759049
