-4.23133 -3.95406 4.51911
-8.07982 -6.14512 -0.465704
10.1212 2.91363 -10.0071
-6.58339 -5.10852 -3.13213
-4.18588 -10.0116 7.95431
4.92292 -6.26347 15.4997
-6.12878 -10.0126 2.84437
7.16634 -4.51976 -17.1452
11.6685 9.83888 1.81339
-3.28739 -0.614479 -19.0052
-6.21865 10.0066 0.589637
9.34406 3.15445 5.09808
-6.27101 -10.0078 -0.925993
8.26336 -9.91638 -9.73512
8.33123 1.91815 18.9097
9.90765 -10.0112 -6.16377
-8.21133 -1.67291 7.94773
-1.80887 -5.9899 -11.8693
-4.74855 -10.0154 -4.37399
-7.99699 1.4251 -9.95386
11.7517 3.04346 -9.7771
1.01789 6.95925 -14.7158
11.6962 9.81088 -4.88058
7.59156 3.53735 18.8783
6.37819 8.27438 -3.86626
4.04051 6.37248 5.56424
11.6654 4.14016 -4.6177
5.38443 5.89895 -4.82642
8.16668 10.0058 7.79039
-8.20821 -7.99658 0.970708
3.77366 -6.72987 17.2141
-4.09435 9.83705 -9.89435
-6.69866 -0.41372 10.0105
-4.48002 -3.12406 17.037
-2.91731 -9.81133 -3.95269
5.06047 -3.78051 19.0049
7.72905 -8.10089 0.750284
7.66398 10.0034 -5.9251
-8.06235 1.21578 6.02072
-6.14118 0.442304 5.99077
-1.56091 -3.19931 5.11024
-6.77069 -9.9037 -9.87655
-1.56885 1.72905 -5.74329
7.70987 5.90505 1.70516
-6.11459 -5.57871 2.18551
-5.72577 -10.008 6.39624
-8.20648 -5.89426 -8.02852
5.90836 -6.16661 -4.36118
11.7264 0.954093 6.11929
11.6126 -9.94448 2.11009
-8.10182 -5.45883 2.91827
11.6507 5.16843 -3.29194
10.0839 3.01213 10.007
-8.21201 7.98627 3.57395
8.6067 0.475427 -18.878
7.65596 -3.84277 -15.4297
-8.12645 3.68085 -5.04051
-1.68886 -9.87453 5.05334
-6.3229 4.36018 -4.12623
5.75082 -5.77255 11.8897
4.9696 -6.23423 -12.1085
7.26876 4.3739 -15.4446
-8.21444 7.89302 1.73767
11.7401 -5.92578 1.83354
-8.20679 -8.26832 -5.6311
-8.08861 4.82071 -3.91424
6.9139 7.98138 -10.0116
-8.20764 -7.84904 6.4278
-4.75743 -2.45982 -13.5737
-4.78673 -10.0103 4.28702
-8.21245 8.2188 5.68079
-5.16334 0.798383 -17.0363
-2.12204 2.69278 19.0058
7.70528 -5.98411 -1.72659
11.7156 -7.74286 9.8104
-4.54181 4.02789 -4.43987
-1.07143 -6.54245 -10.1066
-4.77319 -5.04366 -3.22594
-3.15463 -4.94754 -15.3225
11.8079 7.97006 -1.46343
4.02849 -10.0095 7.60961
-1.73636 -6.05618 17.1085
9.75673 -10.0099 1.07109
-2.41687 9.91743 4.50409
2.59481 -6.78955 18.9109
11.3191 9.79689 9.88899
8.10714 3.03551 -15.0188
-3.6515 -5.40771 2.90334
3.14051 6.88001 15.3625
4.75624 -6.34414 13.6559
7.48044 9.88531 9.81453
-2.31841 -7.79337 -4.36061
0.886227 3.54226 5.93912
-8.08223 9.85998 -1.28799
-1.4203 9.86829 9.84761
2.03809 -10.0122 8.06708
-8.20912 -6.66385 -4.1725
-8.13404 -4.33943 9.79171
-8.11931 2.37857 -5.74501
11.8091 2.11633 7.87012
-5.52313 -9.89356 9.84979
1.97431 7.00014 11.8323
-1.31674 0.571295 19.0029
-0.011112 7.61888 5.71418
11.6776 9.83595 -6.7076
-5.00951 -1.66656 -15.236
11.6593 9.85106 6.76622
0.448506 9.93386 -6.11257
2.53977 6.96172 -13.5354
-1.84412 -10.0163 -8.57919
9.89911 4.21049 -4.26165
4.60099 6.4165 -15.4639
7.03475 4.7277 -10.1576
11.5888 -5.07907 3.32501
-2.59739 -4.43064 4.17533
11.5562 4.77991 -9.93145
-8.20826 -7.44488 8.1455
9.54063 -5.4727 2.44239
-8.21205 -7.73315 2.81654
7.74599 3.68432 -11.8122
11.7348 9.7844 -3.08646
11.6223 9.93061 0.137671
-4.77621 -2.75793 -10.1117
-2.78021 4.55905 -4.02201
10.0341 10.0125 8.06285
3.60391 6.39429 -5.72456
5.93112 -9.8592 4.5719
0.0953415 -6.70128 -18.8876
-8.20935 8.16713 -8.15244
11.7089 -3.88176 -4.85191
-2.47956 5.54229 14.9694
-3.16169 8.09726 -10.0116
11.6372 -9.85774 -1.92181
4.47681 -6.73878 -5.38024
-6.31161 2.91539 -5.25736
7.61949 9.84689 -9.85972
-4.44232 2.70878 18.9427
8.25959 -2.68448 12.1759
-4.70511 2.63677 -17.3196
5.38933 1.21093 -5.90336
-3.54078 -10.0111 -5.98294
5.33418 9.91419 5.13524
-3.67908 4.16714 -18.7687
-1.85118 -10.0084 -6.93684
11.8071 7.88841 5.97785
-6.54322 -10.0111 -4.966
-8.20521 5.43478 -6.07776
-0.454124 -3.99754 19.0046
-8.21177 -5.76061 5.61295
1.64467 4.82513 -19.0031
-4.84523 -2.20805 15.3215
-8.20541 4.56823 6.43899
0.919115 6.9593 -12.3277
2.52942 0.78454 5.97764
9.47386 9.90964 -9.84663
-8.0689 9.8251 0.44353
-6.31701 9.84417 -9.90154
-6.52511 -1.5774 5.78022
-3.65197 -10.0052 5.93782
-8.04617 4.91356 9.90179
9.82534 -10.0078 -1.13467
10.1162 10.0198 -7.96532
0.00360882 -6.76058 11.4381
5.80809 9.93277 9.78245
-2.64553 -5.70324 -10.0863
11.6154 6.42557 9.91681
7.08708 -4.31578 -18.9228
-8.2068 7.84712 -2.22899
11.812 -7.9845 -8.18031
4.64238 -6.23525 -18.8984
-8.20483 6.5641 -4.5211
-6.18413 -5.99166 0.394971
7.67447 -3.79415 -11.9284
-5.14315 0.915849 13.713
-0.633532 4.2162 19.0053
7.35728 8.05188 10.0125
11.8041 -6.83664 3.92012
8.17532 -6.06746 10.0029
-8.10057 -3.38547 -9.82194
3.95063 9.79689 9.92781
-8.07943 3.23995 -9.79039
-1.69293 -1.14715 5.89
7.10454 2.82417 5.293
-8.05705 -8.09664 9.84194
11.7181 -2.33357 -5.78259
5.88365 -8.12728 -4.37646
-3.94396 -10.0111 -7.98963
6.01294 -10.0118 8.23819
-2.76538 4.53015 4.088
-8.21783 8.00763 7.93208
-3.54875 9.87458 -3.07084
10.1968 1.84653 5.70328
9.94659 -9.74752 -9.9342
8.26486 -10.0065 -7.44636
4.31169 0.961734 5.93715
3.39389 4.53347 19.0055
-8.06133 -9.87151 6.0524
0.928473 7.02798 10.181
-8.21182 -8.46487 -3.6011
6.12678 5.91468 10.0476
11.8064 -7.81851 -6.30751
6.04543 5.56985 -13.8573
4.61096 10.0088 -7.93478
11.5643 1.13429 9.94844
9.46069 -4.59058 3.85373
10.0649 6.58287 -10.0094
-4.35508 3.33645 -13.9492
-3.11194 5.0196 -16.9231
11.808 7.96503 -5.75457
-1.85102 -10.0095 6.8247
5.26533 3.67314 19.0066
11.7622 -9.73077 -3.70045
-2.41198 9.79167 -4.4157
-2.93378 7.54453 -3.69279
-8.05233 9.9057 2.13527
8.69653 -1.19987 -13.6138
-6.21616 -10.0073 1.02776
11.745 2.90424 9.76212
-4.67818 2.64657 -11.9507
-8.20638 -3.58809 7.59988
-0.126822 -4.42751 -5.67481
8.43709 -10.0035 -4.90004
-8.21864 0.369017 8.01654
-7.96255 8.28093 -9.98174
-8.10609 5.80366 2.23918
11.8079 4.4746 -8.26293
-0.193929 0.65167 -5.98516
-6.16742 3.98078 10.0065
-4.5366 2.96865 13.6718
-8.20757 8.02367 -0.266476
-1.76696 6.03467 16.7843
9.1581 0.198387 -10.0593
-1.67173 -9.82995 -5.02848
1.76407 -6.7583 -18.8926
-8.15749 -2.33286 -5.81832
11.805 -4.00783 -7.38141
3.46021 -6.29522 5.78179
-6.12402 7.72911 10.0132
7.09696 -4.28841 18.9504
-0.959728 -9.8559 9.8897
11.8077 -8.16162 2.92614
8.00543 -10.0067 7.70634
10.2135 -10.0097 -3.93888
11.8103 0.187919 8.07514
-8.21392 -8.25126 -0.795298
-5.45316 4.78266 3.62984
0.139381 2.2843 19.0031
-3.07565 0.827773 -5.95543
7.76346 -3.67262 15.548
9.97551 -10.012 -8.1776
-3.1058 2.90354 -5.2562
2.6451 -7.93428 -5.93951
11.685 5.85425 -1.87938
7.22155 -5.28328 3.03951
-6.33757 10.0119 -5.6232
11.6654 5.1844 3.22076
-4.81005 -2.2717 11.911
6.3024 -5.363 -15.5858
7.41095 9.86901 -2.55584
3.81159 9.83942 -9.77598
0.785344 10.0076 -8.0479
-8.21377 4.06129 8.16386
9.38398 4.81914 -10.0017
10.0448 4.44525 4.01687
1.87143 5.42241 -6.01581
11.8022 -5.99275 -7.81347
-3.55239 -4.17595 -4.29183
11.7341 -9.81997 -5.46607
-2.52086 5.26261 18.787
-4.09237 3.78948 -16.1439
7.39571 4.19783 11.8718
4.3239 -8.48929 -5.42723
-0.145956 -9.89357 -5.84344
4.76718 -6.52028 10.135
-4.87947 -9.8424 -9.88569
-3.79955 -9.88761 -2.54847
-8.20875 -7.57065 4.56216
-6.70785 10.0178 -7.79786
3.83682 4.46794 -5.64865
-4.84721 9.8733 9.83796
8.26262 -2.72661 -17.1307
8.2121 -8.21697 -10.0083
1.78948 6.85789 18.9038
11.6417 9.9213 -1.47383
-7.84318 -9.89648 9.79693
9.27365 9.78353 9.86572
-6.20713 -4.02363 10.0055
0.134919 -10.0164 -7.90196
-8.05774 9.88717 -9.5443
1.90652 -4.55839 -6.02311
-6.38285 -2.58097 -5.41025
2.88187 10.0122 7.97165
4.00279 6.66385 11.8573
9.94308 -6.51966 10.0069
7.06485 -4.6182 -13.7647
-1.44421 3.56531 -5.0521
-0.898324 6.47359 -11.9695
5.90221 5.68689 16.973
0.55854 3.00761 -19.0041
11.6985 -0.728843 6.11888
7.44767 0.882004 -5.94296
5.21376 8.16279 10.0088
3.22138 -6.67103 -18.9547
-1.0141 9.88097 5.45895
8.48327 -2.11661 -15.4075
-4.75352 -1.99307 -18.853
11.5721 -0.680635 9.89994
5.85601 -2.76225 5.31926
-8.05237 -9.8857 -8.34009
-4.71448 -6.1029 -10.005
3.74028 4.70873 -19.008
6.75012 4.95078 15.2767
-5.03546 -0.358904 -18.8039
-3.83909 -3.91881 18.8547
3.1193 7.07593 10.0834
-4.93285 1.24981 -18.8935
1.55354 -6.18414 6.00025
-3.34542 4.7435 13.4578
-8.21422 -7.47247 -2.23662
2.47183 -6.97144 -15.3324
10.128 10.0073 -3.9096
-5.87507 -4.04086 -4.43874
-8.16588 -6.14327 9.77925
4.69413 10.0135 7.85316
9.89113 0.149419 6.00019
8.49142 -2.07796 -11.8559
-4.10106 6.6241 -10.0016
-3.31912 4.77345 -14.6557
2.75552 10.0162 -7.93726
8.93626 -1.43221 -10.0702
4.40825 -6.24906 18.8784
-5.19559 -0.122924 15.3988
-8.21264 2.1676 -7.93099
8.94035 -10.0044 -2.89122
-4.25753 6.10713 -1.03409
5.73862 6.09634 4.52514
-8.21173 5.97715 8.16127
-3.84912 7.85232 -2.00637
5.97276 -2.41709 -19.006
-7.91853 -1.82366 -9.94015
9.72828 -3.23409 5.04204
-3.31986 -4.79734 17.0894
-1.54039 7.91892 -4.98845
6.46537 -5.21171 -11.9714
-5.08254 10.0208 -8.49387
2.68361 -6.13114 -5.93615
-0.344704 8.30998 10.0052
-8.17592 4.92791 -9.68174
8.44935 -2.21453 14.5727
4.24277 -0.00695344 19.003
6.54755 -2.43041 -5.48231
-6.05801 -5.80664 -1.48948
3.89835 9.92087 5.85069
-1.96566 -5.89898 11.9953
-8.20572 -5.47657 7.59431
-2.16095 -10.014 8.48782
7.76829 -3.90094 4.57305
-1.64035 -8.19581 -10.0091
6.96829 -10.0044 -6.04935
0.733215 -6.7809 18.8145
-5.80243 10.0045 4.39788
-3.06064 -9.84541 3.74485
11.5368 -0.3684 -9.89021
0.0390845 4.55135 -5.72821
-0.135094 -6.73631 -11.8667
8.10051 3.07626 -16.9927
-8.05787 -0.452389 6.15414
11.7241 -0.659734 -6.14077
0.176059 -6.8106 13.1566
-1.35698 6.02048 5.10249
-6.41995 3.77735 4.66979
-4.40292 -3.24846 13.543
-0.577921 6.58943 -14.0031
7.73274 -9.88409 9.85238
-1.16882 10.0114 7.91578
11.6776 -6.67749 -9.85428
-4.11811 3.73435 11.8941
-3.517 5.59392 -2.82295
4.49848 6.30068 -18.8836
11.8082 0.192876 -8.0062
4.36959 6.51532 -13.6227
6.09659 -7.92215 10.0126
5.9938 -0.618741 -5.98976
3.24458 -4.42307 19.0065
3.91065 9.94249 -5.84707
5.90175 5.6585 11.7434
-0.28985 9.93433 -9.79787
7.98502 -2.90383 18.8748
-6.31864 -8.08781 10.0199
9.61212 10.0078 -2.05244
6.59304 9.84242 3.88234
0.893881 6.74422 -18.8334
8.82634 1.50512 10.0931
-1.80043 5.88893 -4.80561
9.81635 -1.62301 5.78025
4.59828 -0.829305 -19.0044
-6.5005 9.78641 9.91894
1.80182 9.93833 -9.80445
6.19432 1.75756 19.0031
2.87914 8.41216 -9.99812
-5.19753 0.265081 -15.2037
8.27255 -2.6874 17.0588
10.0743 -2.83326 -5.28444
-5.50483 -10.0032 -6.42114
0.424781 5.50482 5.8465
-8.06749 6.61222 -9.83491
-8.02134 -4.61058 4.06295
-8.13582 0.868933 -6.1375
11.8069 7.53271 2.5347
-4.18212 8.01402 0.0291299
5.19016 -10.0041 -6.87875
6.69862 2.6544 -5.38764
-6.10898 -10.0203 -8.07117
6.51119 -5.17727 15.3225
11.803 -4.42438 6.49086
-3.91095 -4.05119 15.282
11.8081 -1.7651 7.82828
-5.0891 -1.23642 13.6475
-8.20466 6.48637 6.42079
-3.22884 -2.30231 5.54502
8.84664 1.67467 -10.0912
11.6977 9.79689 -8.52376
11.8064 6.41719 4.51299
-6.58134 -6.06646 10.0134
-8.20823 4.03605 -7.5152
8.46338 10.005 -4.14381
2.95247 6.9173 -11.8076
7.4046 7.93005 -2.11362
11.8063 7.71144 7.86971
-3.30869 4.80569 16.9409
-8.11158 6.15534 0.653128
6.64878 -0.486479 -19.0041
7.27062 -4.34749 11.9084
-8.20557 7.78562 -6.17731
7.9466 -6.17783 -0.0905688
6.05905 5.31939 -18.9447
-0.0566408 6.42855 -5.70537
11.8082 -5.82173 8.0828
-8.16529 -3.56113 5.2401
1.97443 3.44431 -6.01083
11.5986 -9.91666 4.04193
8.39818 2.34822 12.0354
0.258462 8.29405 -5.80348
6.4041 -10.0119 -8.19967
4.29675 -9.85307 5.66625
0.722802 8.4994 -10.0035
-3.82181 -4.17214 -13.6137
8.11784 -3.01675 -13.6327
11.5969 -4.10769 9.90085
-6.35369 -10.0146 8.14208
6.09761 5.52895 -15.7257
-2.91161 -5.70385 -3.6944
8.09941 4.28641 4.19235
-8.08541 -9.85694 2.08179
3.99258 -10.0098 -8.18691
11.8089 -8.03303 -0.893544
-8.20432 -4.61852 -6.26335
-4.26853 1.62989 5.78046
9.8319 10.0094 0.0112489
-4.7415 2.78566 10.1647
0.275088 6.60397 18.8661
-2.38951 -8.19003 4.29542
-5.05328 -1.4511 -11.7854
-0.596535 -9.77704 -9.87168
-4.19866 -6.00414 1.41543
7.55922 7.92516 1.64136
-8.0925 -5.05861 -9.80746
11.6796 4.04236 4.74481
-2.29757 -6.39707 4.37945
4.1875 -9.9361 9.68937
-7.97251 9.9563 5.56282
4.49461 -4.33239 5.36641
2.90648 2.76085 5.89284
-2.80573 1.29019 -19.0052
-8.07685 -9.88074 -2.08933
7.42521 -4.45146 10.1499
-6.07069 5.76683 10.0081
-5.12192 -1.05539 -16.974
-2.63023 -1.1602 19.0034
5.97562 4.13905 4.4278
-8.20453 -6.40277 -6.06218
7.78176 8.02042 -0.300538
-5.20068 -0.17613 12.0231
8.80274 0.514899 17.3911
-0.443141 4.60166 -19.0043
5.00529 8.10505 -10.0008
-4.42078 3.59983 4.79802
11.808 -8.27704 5.27256
4.808 -0.86962 5.94209
-6.54416 1.98988 10.0018
0.0542693 -6.79864 16.9428
-8.20783 6.34677 4.53714
11.6696 -9.88467 -9.5301
3.58788 8.1732 5.72266
3.37081 1.05812 -19.002
6.74293 -9.88615 -3.71735
9.97473e-05 6.78098 16.9708
-4.87042 -6.14858 10.0029
6.05324 -4.40918 4.26803
2.69994 6.81514 -18.8722
8.69937 1.19442 15.7149
-8.20393 6.16318 -7.85062
11.8063 -5.62604 5.17452
-0.924926 6.56231 10.2113
-8.05096 -3.65916 -4.88784
-8.08659 9.82992 9.52146
9.68954 10.0058 2.10934
11.8055 -7.98578 1.10697
-8.20735 8.22593 -4.08972
5.05856 6.2007 15.2274
9.79298 5.94363 0.846719
-5.91548 10.0069 -3.4867
-3.99792 -3.67254 -18.806
-3.63607 -4.44673 -17.145
9.73578 10.0042 -5.94768
7.95874 6.38148 -10.0014
-1.01404 9.88841 -5.49322
1.28298 4.78264 19.0061
7.88066 -6.37483 -10.0013
6.99164 4.72866 -17.3117
5.29508 -9.85962 -5.04925
5.65237 9.87311 -9.87134
-0.475141 -6.6505 -17.1681
3.91584 -2.12395 19.0027
-1.39476 -0.528023 -19.0035
-8.05664 -5.72218 -2.27011
8.24508 -3.05436 10.1492
-3.23523 0.842524 19.0045
-2.26585 5.70298 -13.4687
8.05724 -10.0034 5.36229
-8.1092 4.16144 4.60776
4.06226 2.11873 19.0028
4.97073 7.84138 -5.08003
6.22429 -5.6995 10.1029
11.8053 6.24367 -7.30283
-0.325836 -1.7848 19.0054
11.6106 1.31724 -9.91045
6.54166 4.96605 18.7457
-3.97199 3.96387 15.2768
0.683009 -4.70011 -19.0035
2.08277 2.96253 19.0022
-8.09553 1.11727 9.86463
-2.39162 5.30644 -18.8293
9.87941 -4.24797 -4.22614
0.78124 -9.79697 9.91997
5.69311 6.05601 -10.109
-4.32531 -6.13281 -0.392394
7.65942 -3.83245 13.7289
-8.16183 5.76108 -2.61251
1.66089 -2.97156 19.0032
4.30184 -1.43264 -5.82569
3.72259 0.320469 -5.999
-8.03804 9.88118 3.87344
6.77669 7.59768 3.33471
6.59176 9.90705 -3.98008
8.02446 -9.91026 -0.214433
11.8078 7.9694 -7.89795
11.7673 -3.53374 -9.74387
4.33917 4.50383 5.44141
2.81965 6.92654 -15.3525
2.75101 -6.93469 13.6044
-3.36973 -9.85676 9.87113
-2.40417 -5.59681 -13.6589
0.467719 0.122713 19.0025
-8.06805 9.88205 7.42137
-7.95508 4.97993 3.40921
-2.75889 5.30868 11.6668
-4.29007 -3.46249 -15.3593
3.11708 -8.14466 5.84298
11.6954 -2.44539 5.7225
-8.05457 6.6397 9.91824
-6.45878 1.05509 -5.90255
11.6799 -9.83085 -7.41662
-8.21452 -1.79673 -7.96629
8.73633 1.15707 -17.1372
-2.50722 5.51118 -11.7162
5.94952 -5.4436 18.8535
11.63 -5.83956 9.87098
9.34108 5.256 -2.89802
8.39051 10.0089 -7.81712
11.803 3.95678 7.44132
4.13774 6.61086 17.0721
8.22241 3.15332 10.1235
-3.94437 -5.85035 -2.03097
-4.99138 1.23961 18.8579
-1.44004 -6.00983 -18.8642
-8.09332 6.05564 -0.979692
8.48867 2.09463 14.1438
-2.41116 7.91394 10.0095
0.427872 -0.942157 -5.9445
-1.87962 5.95991 -15.4474
-6.41989 -5.7227 -10.0114
3.54522 6.80601 -17.1496
-4.3369 6.09137 0.849682
5.93167 -9.84591 9.91883
2.80204 2.96346 -19.0028
7.79632 -5.94252 1.47621
1.82779 -2.65654 6.0072
-4.35505 -9.84613 0.454271
-3.7122 -4.30671 11.8626
4.57793 -6.4279 -15.6286
7.73287 -9.87038 1.66185
-5.0624 5.2796 -2.85302
9.78141 5.88551 -1.12668
2.47706 -0.778965 -19.0027
-2.69662 -5.56035 10.1885
-5.43235 -1.29261 -10.0108
5.96265 -4.2153 -4.45068
-4.37143 -3.29166 -11.879
11.6682 -9.85556 0.111699
3.02421 6.89632 13.5723
-1.65082 6.09308 12.9324
11.585 -8.36111 -9.92062
-4.51332 3.04583 17.082
-1.88248 -8.40833 10.0064
1.67302 -7.26691 10.0381
-8.04768 -9.89133 0.0498452
1.65513 8.29744 6.01183
-5.18588 -0.506031 -13.4523
3.38023 -9.90073 -6.00139
-1.63021 8.04089 4.92578
7.29664 -7.53536 2.38529
9.18392 10.004 4.03932
7.53507 -9.8392 -2.06089
11.6376 5.89409 1.70175
-4.80237 0.442915 -5.99951
-2.21471 -5.75946 -17.0397
5.12468 5.93296 18.8413
-8.08386 -8.80261 -9.83693
8.52688 0.320434 18.9628
-0.783923 -6.50886 -13.6848
7.89379 -2.30731 5.55061
7.33495 4.63798 10.1235
-1.58932 -6.12679 13.7442
6.25501 -10.0053 6.43523
-6.09572 2.2479 5.5607
0.387945 -6.86099 -15.3985
-4.4027 10.0082 -4.8358
-2.97808 8.31703 3.60742
5.47799 -5.97428 -17.2307
-8.1533 8.28501 9.81484
-2.17349 9.87353 -9.79693
4.06219 -6.62879 -13.9519
2.08463 -1.06338 19.0032
-0.642852 -6.56688 15.2543
-2.77308 6.54863 3.88097
-8.20645 2.33422 7.7198
-1.85921 6.17033 -10.0928
-8.20672 0.202158 -8.09721
5.39199 6.02673 -17.2827
7.34758 4.29442 17.0793
1.20228 -6.97575 14.7982
3.88716 -2.5791 5.64872
3.53829 -2.53964 -19.0027
-3.50556 -7.66121 2.79785
4.69675 6.5123 10.1316
7.18595 -4.50618 17.1818
0.633167 -6.26435 -5.89966
5.6765 -5.84284 17.1391
2.12578 9.93385 9.77578
9.42455 5.3931 2.64684
9.58815 -9.9723 9.72566
7.95507 6.1394 -0.00591498
-0.677576 1.35629 -19.005
4.95266 -9.88261 -9.84653
4.93318 2.69458 5.37859
-0.826458 -8.18278 5.41319
7.58666 10.0025 5.64298
-8.10439 -4.80484 -3.9539
0.887007 10.0098 7.95309
-8.08473 -7.0208 -9.85619
10.175 2.64186 -5.38849
6.40262 -5.27555 13.5543
1.10237 -2.77068 -5.96335
7.89606 9.8954 -0.935305
8.35383 2.51267 17.1768
-3.17723 -7.20428 10.0016
11.6579 1.01776 -6.05705
11.7621 2.63272 -5.63743
-0.154373 6.74055 -16.3799
6.35214 -0.229276 19.0042
8.57307 1.7924 -11.7793
-2.55098 -5.24311 18.916
-3.88227 4.40418 10.094
11.6738 4.5831 9.83044
2.6223 -6.95221 -13.3154
8.73489 -1.07283 16.4927
-4.33974 2.79263 -18.943
11.7749 -5.26004 -3.45691
8.79327 -0.372401 14.6771
-4.86977 2.14272 -15.4239
9.59971 0.774661 -5.96156
9.44358 -10.0034 3.23727
-5.75603 -4.78319 3.62779
-4.99426 -2.54986 5.4342
-1.35596 -6.00564 -5.10741
-4.1354 9.85545 -1.80625
1.93896 -6.99765 11.971
-1.29977 8.13966 -10.0084
7.41027 3.90214 -18.8609
0.0259865 6.83313 -10.181
6.15914 -2.07483 19.0081
11.81 -8.05027 7.79911
2.07851 8.41079 10.0007
-4.12846 10.0047 5.45651
11.8041 -3.6322 8.03394
-0.287465 -2.41873 -19.0032
5.10619 1.16951 -19.0046
1.09822 -8.07715 5.97647
3.17055 -6.87175 15.3738
2.08735 -10.0143 -7.98078
3.43276 6.62841 18.8812
-5.1886 0.590732 -11.7805
0.116391 -7.34206 10.0056
-1.16789 10.0087 -7.73219
9.80627 -10.01 7.38904
6.61246 10.0096 -8.20282
4.89015 6.27815 13.46
11.8038 -5.68617 -5.72647
6.67471 -9.812 -9.88215
6.34196 10.0053 7.36231
-8.07091 9.87764 -5.02957
11.693 8.15499 9.85175
8.63653 1.51534 -15.361
1.73846 0.998294 -6.00344
11.5258 -9.7318 9.84798
-4.70274 2.24732 -5.56757
-0.124259 -2.28889 5.69718
-3.9794 -1.1123 -5.89703
11.7815 9.75716 8.38123
11.2341 9.76241 -10.0063
2.21465 9.92772 6.13775
7.86767 -4.02779 -4.44582
-3.72874 4.29664 -12.3142
4.83075 -3.05814 -5.28552
11.8056 -7.46676 -4.48923
7.68604 -8.02475 -1.15195
5.1026 3.22746 -19.0034
-0.942167 -6.24629 18.8894
-3.31296 4.89772 -10.1654
0.977986 -6.9561 -13.6469
0.573808 -0.590372 -19.0033
8.77813 0.69646 -13.5443
6.30688 -6.6244 3.97043
0.884321 -8.11897 -5.92543
-5.02283 -0.530917 18.8992
-5.04261 1.50113 -13.529
-2.78696 10.0059 -6.27592
-1.87667 3.11739 -19.0038
6.53747 -8.40795 3.65201
11.7915 6.4249 -9.68751
2.861 -9.82647 -9.90335
-8.20998 -7.92856 -7.76285
-8.20967 -3.70872 -7.85381
0.367939 9.90406 9.8534
-4.23801 6.35125 9.99931
-3.81763 5.55094 2.64831
-5.93964 -7.89068 -10.0164
-4.61379 -2.24108 18.9235
8.74234 -5.19192 -2.9964
-3.69385 4.13088 18.8654
9.6894 5.15871 10.0052
-2.64371 2.85665 5.26842
-6.6905 4.78791 -10.0139
-3.70339 -7.83168 -10.0092
6.15351 -7.85067 -10.0064
-8.13587 -2.13661 5.87816
8.50505 2.46973 -5.46998
11.8029 5.68709 6.25085
-6.43082 -3.51465 4.86063
3.82167 6.81545 -10.1071
11.8067 6.11136 -5.16362
11.7034 2.7204 5.64429
-8.10282 -9.76711 7.91894
-5.5145 0.325411 -10.0044
-2.99594 -9.80413 -9.88647
6.0094 -5.3811 -18.8005
-1.30643 -6.46876 10.1532
11.6741 -6.17238 0.0357868
7.91963 9.87001 0.802955
-2.16293 1.09741 5.90475
1.59776 -2.80489 -19.0031
-4.08091 -7.97623 -1.06076
9.66025 -4.49865 10.0051
-1.08528 4.06592 5.26451
6.43518 5.24422 -11.9764
9.79818 -8.33791 10.0139
-4.90788 2.01243 15.4055
2.8681 -4.67389 -19.0033
-5.21473 -0.621006 10.2095
-6.00759 5.56426 2.24153
3.48082 -6.81895 -17.1338
-3.16301 -4.94026 13.5557
9.85111 -5.95256 0.782692
5.34692 9.80866 -4.98482
-1.77479 -0.665095 -5.98204
11.8082 7.94843 0.624019
-0.665049 2.29215 5.60023
7.38123 4.22478 -13.5312
1.85796 -7.01488 16.8774
7.25577 -4.55453 -10.1235
2.6471 -4.43394 5.94061
11.6697 -5.10186 -9.83369
8.51694 -1.32501 18.8493
11.6729 -9.85491 6.27777
-6.57309 -10.0092 4.78702
-3.79785 7.737 2.06064
-4.26704 8.18529 10.013
6.29592 1.0043 5.92164
-8.05087 -9.91586 -4.22676
9.89632 -1.06508 -5.90718
4.20621 -4.85152 -5.49518
-8.02868 9.89572 -3.07393
11.8067 2.33832 -7.79991
-1.25643 -4.06603 -19.0066
-5.35859 8.31161 -10.0133
7.69381 5.89368 -1.77709
8.38768 -2.5897 -5.41661
6.47443 5.21122 13.5036
3.98791 -8.31753 -10.0039
-3.8587 -4.53672 10.0968
11.605 8.10862 -9.92083
8.70353 -1.16554 12.769
11.8065 7.60695 -3.55522
8.04284 4.04938 -4.42782
-6.2428 10.023 8.20882
-7.96254 -2.54913 9.96406
-0.465528 0.228467 6.00044
11.6027 9.90125 5.08206
-0.125478 6.73517 12.0834
2.94393 -0.970091 5.95456
-2.18583 -3.04728 19.008
2.31918 -1.08889 -5.99855
2.14058 7.02191 17.1538
9.9672 -10.0117 5.23877
-2.39471 -2.42907 -19.0042
0.439863 9.86175 6.02631
-8.00167 -0.247622 -9.95435
-8.12693 -9.79697 4.00102
7.04646 5.30208 3.14488
-3.66879 9.90328 3.07599
9.64385 10.0053 6.04342
0.581054 -4.31166 5.8827
11.5512 9.90536 3.41386
11.5804 -3.88623 4.63599
-4.33987 -9.92122 -1.14988
8.49713 -1.39249 -18.9478
11.8069 -1.97368 -7.9195
11.8117 8.29687 4.09025
-1.89606 -4.00725 -4.76765
7.97057 3.32164 15.4927
9.15733 8.18452 -10.0208
9.84895 -7.29608 -10.0078
9.69874 7.66938 10.0125
8.11525 -0.393597 5.99786
-3.98816 -4.30108 -10.116
-0.383263 -6.47508 5.59509
8.23351 -3.19875 -10.1311
2.46268 -9.77717 9.91666
-4.37041 9.90836 -0.21824
1.16116 -9.75237 -9.92043
5.8747 4.11541 -4.478
7.72802 3.7248 13.624
-3.25718 -4.83558 -11.9401
6.95703 5.06178 -3.33427
-5.97798 10.007 6.3782
2.2478 1.00825 19.0019
1.59159 -7.0041 -11.7445
8.78266 -0.190561 -11.8085
5.41324 8.03304 4.78917
5.67548 -5.83019 -13.8558
-6.17627 10.014 -1.48773
1.42575 1.24653 -19.0031
11.6605 -9.8852 8.17422
-6.0977 -10.0082 -2.8911
-5.14108 0.933825 17.0844
-6.39151 2.79176 -10.0081
1.77712 7.43154 -6.01427
1.00849 1.54762 5.95646
-3.0467 9.93439 9.74084
3.13629 -6.96297 10.1755
-4.58294 -2.81551 -5.30449
-8.09276 -0.834799 9.74592
5.01668 -8.0247 5.05464
-1.63067 6.12792 -17.3113
4.42247 -6.65385 -10.1355
-6.71034 5.40065 -2.59617
11.8029 -6.78058 6.43632
1.59382 -9.89064 -6.15782
-6.37917 5.97215 0.587555
-8.0522 -6.02831 1.30904
1.0036 6.9595 13.6448
9.68799 -5.90686 -1.05185
-1.08491 -4.91475 5.27329
2.47926 4.73729 5.96861
11.7434 -2.39006 9.78599
-0.705128 6.54354 14.754
-2.50179 -5.52755 15.4031
7.15832 -9.95848 3.27546
-4.49886 -8.27373 10.0133
8.80103 -0.279135 -15.3466
-3.3492 -0.15423 6.00328
4.80516 -3.97229 -19.0072
8.31081 2.28591 -18.7948
11.6948 6.14011 -0.108743
4.00712 -8.37561 10.0072
-3.46082 -7.80071 -2.87952
-5.19766 1.00187 10.1942
8.30253 1.48828 5.80902
-8.1682 9.78737 -6.99375
-4.01235 -9.87742 2.14933
8.74282 -1.48614 10.2693
-3.14932 10.0131 -8.12765
0.173439 -9.89294 5.93502
8.20215 6.37932 10.0026
7.02398 -7.64643 -2.94589
-2.38434 5.80787 10.1074
-2.70597 -2.45731 -5.47103
6.67024 6.69179 -3.51586
3.33085 2.14244 -5.77616
5.93779 -5.76729 -10.1588
-8.08644 2.77553 5.54142
-6.00446 10.0063 2.57066
-6.23024 -3.67325 -10.01
7.01774 -5.33542 -3.1908
10.1597 -2.39374 10.006
0.00884474 -10.0094 7.94506
11.5969 -1.85766 -9.8846
-2.89193 -4.94456 -18.823
2.24796 -9.86963 6.17223
10.3393 -5.3443 -2.68398
-4.19463 10.007 7.83008
8.19382 3.31538 -10.0951
9.23486 -0.0452917 10.0165
11.8073 5.74966 8.18482
-6.25718 6.81598 -10.0156
9.55296 -5.13674 -10.0027
1.16167 6.97429 15.4619
8.77244 0.733876 13.2122
0.57931 -7.22184 -10.0243
-5.09787 1.82425 -10.1432
-0.805783 -7.91097 -5.4071
1.48691 -7.00735 -17.0948
-5.15909 5.08751 -9.99954
3.05145 -3.05925 -5.87031
8.77833 0.242466 11.5346
8.01295 -0.85159 -5.94832
3.27124 8.33849 -5.80478
-4.11768 -7.97439 0.929366
10.0601 -3.15133 -10.0065
-4.18885 9.84135 1.46579
-2.63213 10.0047 6.83628
1.60779 7.01148 -16.9759
7.45954 9.87111 2.52306
-8.07666 3.00604 9.82654
-8.1084 -0.708869 -6.14397
-5.10495 -1.18202 17.116
-6.03098 5.90491 -1.07211
4.84283 6.29616 -11.8656
0.285158 2.51708 -5.80433
4.80475 2.92598 -5.25967
8.33613 2.50378 -13.3829
1.0539 -0.734915 5.98374
5.93588 10.0045 -6.56155
11.8047 4.35807 -6.47915
3.91027 -6.68109 11.9339
-4.53772 -3.29627 10.1742
1.83667 7.08725 -10.1727
-4.62627 -2.80019 -17.0874
-4.74467 10.0063 -6.73205
-6.14012 -0.931079 -5.93008
-4.9485 1.88703 11.9846
-0.769156 -2.4811 -5.52632
1.24252 -5.0139 19.0048
6.73523 1.72431 -19.0113
2.34344 -7.22237 -10.0377
-0.646829 6.42958 -18.7666
-1.20816 6.20331 18.8099
2.06023 9.88327 -6.07424
11.8055 -7.7003 -2.73418
-5.28572 -2.00841 10.0392
-1.513 -6.17281 -15.4269
7.95799 -2.96626 -18.8838
-7.98098 -9.91334 -6.45593
2.05759 6.582 6.01609
11.6963 -5.95479 -1.71957
3.42819 -6.8219 -11.6554
6.48473 -0.956299 5.93799
-4.80624 -0.769531 5.96831
5.03888 -6.09737 5.05249
-4.4197 3.47112 -10.1032
8.7781 -0.809075 -17.1555
7.90113 -7.87169 10.0074
