4.60827 5.55333 -5.32906
3.96456 6.63568 -18.9998
-4.66889 1.99821 -5.68876
-4.78691 -9.99963 4.12553
1.06359 9.96141 -5.9597
5.54413 5.91917 -13.6435
11.7994 5.73361 -5.7282
-2.325 5.66783 17.2174
6.47739 -9.99947 9.9489
-8.19955 -1.23894 8.05183
-6.36686 6.09176 -9.9994
-5.45737 8.24083 9.99944
2.53164 4.98646 5.95421
-4.19664 7.97547 0.108812
7.70592 3.76138 -11.851
11.7994 1.98903 -7.86845
-8.14665 -9.99942 -5.46229
-2.81447 6.51871 -3.83857
-5.06335 -1.38197 17.1605
2.67396 -4.90539 19
11.7995 -6.37276 -4.51403
-6.41025 0.935749 -5.93523
5.80316 6.34824 -4.46642
1.77547 -9.91446 -9.99951
6.27095 9.99954 -4.09372
-8.19929 -6.56771 9.96114
4.67872 -9.99956 -5.34619
11.7996 6.04565 -0.494977
-8.19939 -3.49983 4.96092
1.91003 -6.77445 -6.02063
-0.363547 6.67367 -17.1702
-8.1995 7.79691 2.11727
7.59607 4.06184 -10.0005
8.42601 -9.99934 -9.96049
7.09403 2.6266 5.39334
11.7995 6.35107 4.83272
1.4708 1.0128 19
-4.75949 -8.2735 9.99948
9.97835 6.01455 9.99944
7.23922 4.40313 18.9596
-2.3835 9.99925 4.41697
-4.04314 -7.98845 1.37535
4.17888 -6.58486 15.3398
8.37605 2.40539 15.3375
4.88703 -3.15066 5.15627
11.7995 0.0912742 6.0638
5.50528 5.90933 -18.9999
3.86098 -6.75201 -10
2.99373 -6.17665 5.8791
-8.1995 3.26991 -9.93984
7.66731 -3.81927 -17.087
-8.19954 -7.85947 -2.32261
9.78732 -9.99956 -0.959065
2.15121 6.98029 18.999
7.78286 3.58629 -18.9999
-1.30895 8.20631 5.13674
6.47222 -5.21009 -17.1329
-6.45379 -7.43711 9.99938
0.697164 2.88632 19.0001
-8.19916 9.95453 -6.47867
11.7994 7.80413 -5.999
2.61611 0.712672 -5.98251
1.19751 -7.82346 5.96886
-8.19952 -0.919014 -6.00367
11.7377 -9.93177 -9.99863
-3.47883 -7.97462 -9.99951
4.02293 -6.63583 -15.3219
11.7995 -1.26265 9.9481
-3.11916 8.26638 -3.43727
-8.19951 5.93487 -7.84253
-0.190202 -6.71631 -15.0939
9.87136 -2.16411 -5.60504
7.63691 5.77504 -1.67419
7.62867 5.7604 1.67847
11.7995 -7.84116 3.83862
11.6811 9.99958 9.93846
-4.20335 -9.99963 -0.887047
2.70327 6.93889 -11.8592
7.08127 -4.59745 13.7676
-6.56557 9.99954 -4.10667
4.60718 9.9666 -9.99943
-8.19954 -8.09761 5.62863
6.87109 5.03808 -3.27346
-4.33263 3.40246 11.9758
-4.98724 -1.63809 18.9992
4.98727 6.22935 17.1259
-4.22263 -9.99943 0.703153
-8.19954 -9.9646 2.52913
-6.45999 4.33151 4.15418
-8.19951 -2.52345 -7.94047
11.7995 6.952 2.91681
-8.19998 5.9765 1.04925
-8.19956 -8.53494 3.65662
-3.50369 2.47498 5.47142
-2.24905 -5.72912 -15.4848
11.7994 -6.0209 -0.736051
0.517787 -9.99947 9.95425
-1.16555 -6.34746 -18.9568
8.61784 -1.45101 -18.9998
3.94972 -2.37003 -19.0001
-4.76927 -2.4295 15.3967
-2.12526 3.83018 4.62099
-0.15723 -9.99958 -7.78512
4.01288 6.63787 18.9614
4.04721 6.63356 11.8737
9.95943 -3.90899 -4.57442
-8.19949 -5.75186 8.31778
11.7998 0.924528 -9.96471
-4.64375 2.74245 17.1027
-4.427 -3.20102 18.9615
-6.52408 6.68756 9.99946
-4.1773 3.65145 18.9551
-6.09309 -9.99963 -2.15649
11.7506 -4.56591 -3.91641
9.52486 -5.57933 2.2566
-6.07882 4.19909 -9.99956
11.7995 0.0413125 -7.94315
-5.02411 1.59083 11.931
-1.92082 9.95654 -4.70309
-3.37152 -4.70645 18.9588
4.14043 7.90285 -5.52114
-0.518865 9.99897 -5.61577
9.96045 9.99955 -4.41279
-4.42114 6.17302 -9.99953
-1.65935 7.94989 -4.90694
-4.88833 0.883185 5.94869
10.1337 -2.31445 9.9996
0.709036 6.92744 -11.8911
6.33594 8.27617 3.95722
-3.80493 -9.999 2.33514
0.593385 4.55545 5.91241
6.24442 -8.19141 4.05289
6.26297 -6.31772 4.02536
-8.1351 9.99968 -9.92813
1.85831 -7.01284 18.9612
1.74147 7.00466 -13.6347
8.17924 -9.9997 -4.43807
-4.02412 9.99949 -5.71043
11.7994 -8.07891 -7.92127
-6.33122 2.84244 -5.29429
6.74068 4.96734 -18.9575
8.50264 1.97296 -18.9995
-4.48923 4.18297 4.3026
-8.19948 -3.53137 -9.93941
11.7995 -2.69674 7.73363
8.80255 0.507201 15.3992
-1.22264 5.83572 -5.17475
-4.94697 1.87546 15.3928
8.4686 -9.99957 -6.39786
-8.19949 7.74361 5.97702
-8.19953 8.07161 0.065412
-8.19952 8.38704 3.99856
11.768 2.75934 -9.99944
0.146283 -0.828067 -19.0001
4.73821 -6.82287 5.24105
8.20585 -2.82543 13.7361
1.74519 9.9995 7.99744
-8.19944 8.34854 7.87326
-5.06024 -1.4091 13.6557
4.8362 8.17188 5.17786
1.97749 -7.02282 -15.2719
9.80381 -5.73962 -1.813
1.71105 -7.00166 11.9133
8.05914 -3.13587 -18.961
-4.00332 -5.85922 1.59161
5.89065 -5.68151 -15.3284
11.7998 5.94839 1.17644
-4.31198 -3.44103 17.1287
-3.4455 -5.272 2.96658
9.32116 9.99962 2.9133
-1.19927 -6.3301 13.6388
9.93411 3.98433 -4.49749
-8.19971 5.47467 2.60456
-6.23743 9.9996 0.0712087
3.75154 1.50366 5.81923
-2.76206 2.22118 -18.9998
11.7995 -0.685994 8.01661
-1.59893 -9.99942 9.95308
-0.574802 -8.29817 9.99956
-1.23717 -8.22066 -9.99952
-0.275103 9.99961 -7.86177
0.782373 -4.82228 19
11.7995 -1.79112 -8.17112
0.696521 -3.85537 5.93218
10.3132 -0.109405 9.99965
-1.90528 -5.94459 18.9532
2.2825 6.96728 -18.9995
-8.15592 9.99929 -0.968149
2.50939 -1.12749 -5.97199
-0.866757 -4.96634 5.39036
-3.80484 -9.9994 -2.37353
-4.22484 3.58678 -15.3583
0.852501 -6.95595 13.6601
8.28066 4.69119 -3.772
-2.96861 -5.14541 17.1197
9.78265 5.31945 -2.80043
1.67118 9.99965 -7.94868
-4.90893 1.91161 18.9998
8.54885 1.90332 -15.3079
-2.76996 -5.26243 -18.9997
-8.15502 -4.77318 9.99955
4.51494 -0.749853 -5.98396
1.00875 9.96081 -9.99945
8.83755 0.891722 -10.0002
6.6009 -9.99968 3.70314
11.7564 -9.99933 -8.29765
-8.19955 -8.08994 -0.323847
-5.86531 5.3566 2.71897
-0.55831 -6.5992 -16.929
11.7997 -4.32839 4.25127
0.299043 6.81522 18.9994
-3.6502 4.40909 17.083
8.32958 2.69918 -9.99986
-8.16548 1.47778 -9.9996
6.58238 -9.99966 -6.09761
9.77701 5.95245 -0.80754
-6.03908 -2.59248 5.40413
-5.93921 -5.29141 2.85753
-1.29451 0.730016 -19
-8.19948 -5.22367 -8.18329
7.39289 -4.21879 -15.3203
0.99929 -5.72493 5.95451
-1.48542 -6.19305 -13.7514
11.7994 -8.34681 9.96056
-3.69278 -9.99964 5.96936
6.38777 -5.28884 16.9621
8.03384 -3.22121 -13.6374
11.7614 8.37058 9.99926
-1.91042 -6.03143 -10.0002
11.7184 -0.825597 -9.99948
11.7576 -1.53699 5.79499
-5.19114 -0.11808 -18.9608
5.38318 -5.92873 -4.80884
2.00911 1.27655 6.01428
8.36096 -9.99964 4.19543
4.72927 9.94983 -5.22673
11.7995 4.44971 4.13856
8.69585 -1.20426 -13.5983
-6.02184 -9.9996 1.96318
1.95297 4.80121 -6.02507
7.53873 -9.99948 8.09605
3.85782 6.56616 5.63389
-6.03052 5.91868 -1.07521
-1.55282 6.14741 18.9622
-0.471424 -9.99854 -5.639
7.66246 9.9991 1.5343
1.86237 -9.9994 -8.04153
11.7701 0.817861 9.99949
-1.58238 -9.99972 5.03038
11.7996 9.94685 -6.72777
5.18921 -3.9035 -18.9999
-2.40876 5.59957 15.3763
2.14027 -9.99996 6.05737
-6.69588 -0.623208 -9.99971
11.7995 8.02803 -0.136227
8.70293 -1.01477 18.9997
11.7995 6.56506 9.95481
-0.736472 -6.52246 -12.1255
-0.998703 9.96043 -9.99929
1.0914 9.99951 9.96692
-5.20399 -0.445536 11.8803
5.77493 5.75564 18.9602
9.87787 2.12209 -5.6253
7.76482 -8.00761 0.698687
11.7575 0.52671 -5.97468
11.7995 -7.77133 2.04893
3.5146 9.9996 -8.21964
11.7525 -8.23683 -9.99967
11.7995 8.22339 -9.96171
5.21 -6.12039 13.4977
5.77835 9.99958 -8.30466
3.76851 -4.4316 -5.68471
11.7997 -9.95004 2.74139
-4.83902 5.00953 -3.3045
-8.19955 9.93094 -4.69602
-2.05076 6.46858 4.59628
-4.75263 -2.46835 11.8657
1.51972 -9.99962 8.01754
8.88586 -0.654398 -10.0001
3.55923 4.83613 18.9999
0.497395 -1.76472 -5.87167
-8.19957 5.65949 -5.68937
-2.96509 5.14793 -11.811
10.0869 -9.95134 -9.99917
-5.70877 2.90671 5.26677
11.7998 2.10159 -5.6974
-8.19949 9.95994 4.90836
-8.16451 -0.223087 5.99927
-6.39003 4.25761 -4.22471
11.7994 -5.53248 -2.52337
-4.23876 3.56757 -11.8106
7.8595 -9.99938 0.415939
-6.30589 -2.89459 -5.26487
0.177684 8.43113 -9.99958
-8.15665 -9.99944 -1.35889
11.7995 -6.7224 -6.48173
1.38563 -5.0237 -19
-2.08607 -5.83087 -17.3252
2.55655 -0.440948 5.99099
-3.61562 4.44802 -17.1504
-0.677059 -6.77038 5.47621
1.93595 -1.16031 -19
-1.43285 -3.20727 5.09832
-6.66359 -0.143694 9.99961
5.45779 -3.74936 -4.75157
-3.02787 9.9995 -3.67227
-5.95603 -7.82525 -9.99943
-3.01068 9.95522 -9.99925
7.77557 9.99954 -7.93019
7.09363 -4.57554 -18.9602
7.13745 9.9994 9.96462
6.06219 7.9441 9.99945
11.7994 5.96201 -7.83513
-4.82583 -6.11841 9.99966
-5.20869 -0.776934 -9.99971
-3.22916 -6.65008 -3.27324
-5.19714 -0.327541 15.4085
9.95038 9.99946 -6.43088
-2.17571 -5.77385 11.8731
7.88781 -3.44382 -4.90643
5.11926 -6.1658 -13.6052
9.39311 9.99935 9.96525
5.83885 6.41984 4.43573
-8.19952 0.256908 9.94305
3.85497 -6.66544 18.9997
5.85532 -1.2964 5.85567
-3.81612 -4.1931 -11.8967
-8.19951 -6.65518 6.76591
6.12435 -5.51891 15.2021
-4.64172 2.75293 -17.1664
-8.19954 -6.5749 -4.26159
-3.26192 4.83469 13.6067
-4.49268 -3.06328 -17.1687
-3.00848 5.02711 18.9998
5.99238 4.1339 -4.37396
8.79325 -0.48476 17.1153
9.64849 -9.99961 -3.02501
-6.28692 -5.50981 -2.37638
-0.767319 8.3344 9.99953
-1.60159 -1.28815 -19
3.86774 -9.99943 5.71837
-6.3432 -0.718085 5.98171
-6.22211 -4.87595 9.99951
10.116 2.60559 -9.99961
8.0888 -3.00529 19
-8.19928 6.74071 -9.94945
-6.39661 -3.22436 -9.99971
-5.17816 0.782913 10.041
6.64044 1.66736 -19
-4.90899 -2.19728 -10.0003
-1.27861 6.30247 -11.8624
5.93962 -7.85644 9.99939
7.00703 6.97279 -2.99255
2.95672 8.25645 5.88898
-5.16924 0.72789 17.1398
10.0968 9.99947 8.19291
-4.78606 -9.99951 -9.95684
5.96095 4.22344 4.32147
11.7998 5.38018 2.79736
-4.68504 2.66819 -13.5654
6.1352 -5.51405 -11.8631
11.7997 -9.93891 9.93245
8.36266 6.18935 -9.99957
-8.1993 -8.41868 -9.95293
4.09423 -2.43416 -5.54696
-4.20965 -9.99948 -7.74187
2.38763 9.99978 6.04711
8.01173 3.25722 13.5658
7.00256 -4.68814 18.9643
5.91997 5.66189 11.8377
11.7996 9.9607 4.65742
9.89624 -0.0963916 -5.99712
0.00978684 8.02724 -5.72852
-8.1998 -3.77172 -4.75729
6.67056 -4.80932 -3.62862
3.54067 -0.357432 -19.0001
-8.19944 1.61717 5.867
-8.19946 -8.02892 7.9622
-5.16317 0.81903 -17.1639
6.3318 -2.27414 -19
-1.40278 6.24146 13.7261
7.24486 -7.6898 2.52342
-8.19952 1.88539 -7.94384
7.52059 -5.67205 -1.99473
0.689029 -6.90293 10.0475
4.63167 6.41137 -11.8511
6.07101 9.99952 8.30153
-2.36758 5.62761 -10.0333
-5.19517 -0.394263 -11.8517
5.10656 3.7591 18.9998
7.41809 -9.95712 2.13353
9.61096 -7.73383 -9.99945
-8.19966 -6.03947 0.594469
8.56967 1.85824 -11.8181
11.7995 9.94399 8.17798
-8.19943 0.667086 -6.03805
10.0158 0.823494 5.96234
-4.12734 9.95974 0.989189
6.59915 2.39353 18.9999
-3.79157 9.99952 8.174
8.21727 0.944811 -5.93604
6.54492 -5.14354 12.036
7.58356 -9.99947 -8.13664
-3.95981 -4.10617 10.0004
6.46465 5.21602 -10.0289
-3.79402 4.30489 -9.99997
-8.19964 -2.34712 -5.59351
8.43927 -2.25875 -17.2231
8.0335 8.23767 9.99952
-1.79375 3.72103 -4.80508
7.49234 9.96747 -1.89389
11.7995 -6.19157 4.99869
4.7466 -5.05331 5.2587
11.7995 -4.71044 8.31306
11.7994 8.39229 -4.02316
4.73848 -9.99946 9.93982
2.00764 -7.01622 15.3953
8.10285 4.08109 4.41366
8.19553 2.85329 -13.5617
-3.7236 -4.31841 11.8859
-2.82625 -5.25415 10.0447
3.17997 -6.87645 -13.6018
3.51035 4.10423 -5.78331
1.69378 4.84155 19
7.23965 -9.9995 -2.70513
4.09141 9.99921 5.6113
6.7344 -6.58077 -3.4047
6.13919 -9.95708 -4.17211
7.7392 8.02614 0.887173
-6.32968 -4.36825 -4.11856
-5.93285 9.99953 2.12009
6.78885 -4.92421 -13.6063
-4.71676 2.58875 10.0404
9.79634 -9.99934 -7.82087
-1.97097 -3.31187 -18.9999
-8.19952 -0.34057 -8.01554
-3.42987 -4.65121 -17.1609
-4.5355 6.253 9.99951
5.24008 -0.631505 -19.0001
7.8684 9.9993 -0.205011
2.01016 -5.04241 -6.02446
-8.15481 9.99929 1.01826
-3.94304 7.79167 -1.81241
-2.0753 8.0006 -9.99945
-3.6797 5.41431 2.61945
-8.19952 0.748168 7.87201
-1.93423 -9.9619 -4.72705
-3.6519 4.4111 -13.5889
4.89152 3.14086 -5.14236
11.7995 -7.98091 -3.51565
6.46816 9.99968 -6.24772
1.93677 2.81388 -6.0227
8.26609 2.65967 18.9997
11.7995 7.85946 -2.07035
11.759 -9.99922 -0.780637
-8.19949 5.85162 9.95984
9.02141 -4.9284 -3.424
2.44542 -7.08827 -10.0001
11.7994 -4.88822 -6.16767
1.93425 7.01819 11.8706
-8.1559 -9.99945 0.683586
-8.19952 -6.84012 3.60022
-4.19696 -7.94109 -0.515849
4.43543 -6.49986 -11.8371
8.41532 -2.31601 17.2384
4.99306 6.22769 13.606
9.93211 7.99045 9.9994
-2.61383 -8.18018 -4.0615
-2.13086 -5.80299 15.3766
-4.94892 1.88153 -18.9628
11.7997 4.57143 9.95942
9.99477 -4.69065 3.75262
11.7994 3.10808 5.20668
-8.19951 3.60585 6.69397
8.01536 3.155 -5.12232
-3.62201 9.99915 2.71421
3.09378 6.88389 17.1262
-6.25773 -9.99964 -0.112131
-8.1549 -9.99958 6.56053
-2.19567 9.99955 -8.39186
7.67589 -7.87277 -1.23489
2.58744 -6.95366 -11.8844
9.77323 -5.11982 -9.99943
2.92977 9.99959 -5.95826
-8.16046 -4.71942 -3.72352
-8.19957 6.53773 4.15371
-0.101323 -6.71414 18.9996
3.67742 6.74735 -13.6247
9.45984 2.60873 5.40269
8.29726 9.93837 -9.99964
-5.17937 0.678818 -13.5898
0.261559 0.556937 5.99518
-3.83424 -4.16241 -15.3943
-4.67484 -1.9112 -5.71342
11.7994 7.81997 8.11504
-2.97286 2.74279 -5.33208
11.7537 -9.99913 -6.50682
8.42467 -2.28672 -15.3683
-4.32181 -3.41122 13.6354
-2.76474 2.42855 18.9998
3.29734 -9.92729 -9.99945
-2.753 -9.9995 8.2708
11.7995 -9.96476 8.24479
-3.30408 -1.21156 18.9998
3.73031 -2.0352 5.69818
8.14927 -6.24111 -9.9995
11.7997 -2.72488 -9.95548
-3.98099 8.02437 -9.99936
2.74767 9.91776 -9.99949
11.7995 -5.94969 -8.20025
0.664853 9.9994 5.97601
4.62461 6.41103 -15.412
-4.19016 6.02957 -0.61084
-4.23288 9.99947 -0.634566
-0.489953 -8.50334 5.56687
11.7996 6.46246 -9.9595
11.7995 -8.00433 0.167569
0.638269 -8.22072 -5.91756
-8.19927 -9.955 8.3047
11.7994 6.63689 -3.93731
-0.786692 1.24575 19
4.94394 2.93255 5.23098
3.59666 6.77452 -17.1587
-0.254937 -2.62103 19.0001
-8.19957 7.40254 -3.93509
11.7995 -2.93788 -6.82638
-6.06461 8.01871 -9.99933
5.16462 -6.14134 11.6045
6.49092 0.490537 19
-4.62096 9.99955 4.29616
-6.06824 9.99957 5.99022
6.6398 5.05813 17.1262
1.81767 3.1481 6.01449
0.574777 -0.751661 19.0001
-2.42445 -9.99963 -6.49634
6.4997 9.94667 -9.9994
11.7995 1.3537 7.99852
-2.89363 4.76115 3.76427
7.19421 -5.34905 2.76552
-2.67428 5.47967 10.0003
-3.14692 -4.96104 -13.7098
9.58923 -4.26004 9.99954
11.7991 -5.41023 2.76175
6.22389 5.50229 9.99994
-4.38265 -3.29104 -13.639
2.86284 9.99951 9.95611
4.82129 -6.31298 17.1154
-2.15912 5.78671 -13.6017
10.1296 -9.99939 9.94718
6.86257 -1.32149 18.9999
-2.54563 -8.53847 9.99941
-8.19952 -4.03387 -6.72435
2.11424 -3.16579 -19.0001
4.04798 4.69819 -18.9998
-2.15273 5.79126 -17.1844
8.58091 -1.74522 15.4425
8.43038 -9.99941 9.95165
7.7697 -8.20414 9.9995
2.21138 -3.02848 -6.0114
11.7996 -8.30854 -5.58696
-5.17271 0.74016 13.6953
-3.26958 0.26285 -18.9998
5.51085 5.94276 -17.173
1.64651 7.00404 -17.1531
8.69146 1.22643 13.5467
-8.15072 9.99971 6.61594
11.7995 8.30792 3.98367
0.206833 2.11618 5.78704
11.7995 8.20787 6.02596
9.59816 -9.99944 7.69719
-8.132 9.90948 9.99982
0.608139 -3.90637 -5.90604
-8.10004 -9.99961 9.94012
5.66453 -5.81208 -18.9993
2.54813 1.19552 -19
4.07166 -6.61934 -18.9573
11.7432 9.99915 2.68853
8.78279 -0.958232 10.0002
10.1498 2.17918 9.99958
-8.19962 2.23418 -5.64631
0.200785 4.16618 -5.78816
-4.81085 -2.30155 -15.3827
5.87545 5.69154 15.3406
-8.19955 -5.85354 5.15261
-8.19945 -8.37237 9.95978
7.85907 -6.00866 -0.358605
7.1931 -7.95767 -9.99937
-2.94744 5.15847 -15.371
7.72163 -5.85834 1.29449
-3.38091 -7.67897 3.02336
-4.71087 2.7068 -10.0001
-1.72484 -9.99962 6.7398
-8.15512 -4.77568 3.6426
6.04317 -5.6527 9.99981
-8.15666 -1.4522 9.99939
10.1304 9.99952 4.56209
11.7576 9.9992 0.670831
-1.87361 -6.24077 -4.74042
3.20774 6.87632 10.0456
8.46911 2.18606 11.8199
8.14096 9.99949 8.17543
4.81241 -0.902099 19.0001
5.82349 -7.98851 -4.45393
-4.99327 1.73362 -15.3648
2.67855 -9.99948 9.9477
-6.09545 -9.99938 9.96051
-0.957201 -2.66942 -5.36548
3.1188 -6.88641 -17.0786
4.75751 -8.45782 5.22679
-3.28201 4.81261 11.7287
0.916304 -6.95982 -13.5102
-8.19865 -9.94719 -7.70502
-8.15922 9.99963 -8.2154
-5.06778 -1.35748 -13.6095
2.66503 6.94253 -15.3845
8.78466 -0.761028 13.7128
3.09773 -6.88595 13.7304
-6.46609 5.36151 -2.68163
7.37918 4.23512 15.3164
9.79008 -9.99954 5.57117
9.8316 -5.99274 0.335638
8.1554 -1.36461 -5.83782
-5.17726 0.0957386 18.9997
-8.199 8.38951 -9.95711
-8.19952 1.89802 9.95795
6.25343 -2.15538 -5.62936
8.73196 1.07193 -17.0594
-3.88076 9.99901 -2.16052
-8.1394 -9.99783 -9.88406
11.7451 9.99935 6.46388
-4.57106 2.89933 13.7232
-8.15665 9.99939 2.80409
-4.80228 -5.00096 -3.32218
0.483169 6.8877 -18.9615
-8.19947 4.4979 4.08381
1.04174 6.96872 17.0887
11.7995 -7.83136 -1.73438
6.36429 5.31178 -11.8576
9.85026 4.95206 -9.99949
-8.19961 7.95924 -2.01779
-8.19946 4.9394 -9.94246
-8.19963 6.04449 -0.586885
-0.310899 9.99953 7.99009
7.71351 3.7452 -15.3472
3.45323 3.34197 5.80197
-1.34465 6.22051 -19
8.08583 9.99965 4.62226
-4.47606 -1.10727 5.90264
11.7996 9.95881 -5.05063
-6.26124 5.95934 0.802627
-0.314416 6.69266 -13.6399
0.329906 -9.99981 5.89783
-6.61507 1.385 5.83364
11.7995 3.97027 -6.68871
-8.19955 -3.60798 8.40202
-3.0839 7.90549 9.99936
5.46118 9.99962 6.62376
7.02213 8.68543 -2.97844
-8.1412 9.99962 8.35369
0.598373 1.54234 -5.8928
2.58178 -1.02494 19.0001
-8.1995 6.59896 8.02256
11.7994 -8.08279 5.88444
10.0742 9.94336 -9.99967
-0.209139 -6.71379 15.3888
11.7997 -9.95459 0.992455
-6.55345 2.04694 -9.99963
11.7673 2.79683 9.99943
-8.16738 -1.82464 5.73392
-1.70387 3.96452 -18.9999
-8.1995 -8.38807 -4.2888
-4.05361 -3.81236 -18.9995
-3.97682 -3.02964 5.20134
0.68141 6.25193 -5.9343
-1.38354 3.49679 18.9999
8.00165 -6.27084 9.99953
-5.16099 -1.1409 10.0006
11.7995 3.93453 -8.39566
7.87081 6.00326 0.0595064
-4.13358 3.70468 -18.9614
-6.18802 -9.99957 -6.22282
-4.65353 -9.99945 7.87822
-3.1011 -9.99981 -3.59555
-3.74966 -8.10368 -2.26942
3.64636 -6.35899 -5.73059
11.7995 3.28747 7.78618
-2.92647 5.14489 -18.9987
-1.09161 -8.01376 -5.25216
11.7988 -2.95335 5.3137
7.0908 4.58587 -13.6268
6.59214 -9.99939 -9.9567
-3.31548 -1.77215 -18.9999
7.18145 7.49811 2.66389
11.799 -3.12203 -5.19189
11.7998 1.76571 5.81561
8.12401 0.944261 5.93644
-1.00433 5.01539 5.31327
-8.19946 -8.09554 -6.25282
4.66211 8.2792 -9.99956
11.752 -4.59531 -9.99934
8.72286 0.832886 18.9998
-5.97849 -9.99957 5.93854
4.91219 -6.26783 -17.0975
10.0568 -3.1472 5.11988
-0.77079 6.51094 17.1223
3.70035 2.05563 -5.70628
1.28599 -9.99982 -6.04849
-0.52172 -4.65465 -18.9999
-8.19963 -5.58488 -2.38654
3.98826 6.64641 15.3497
-8.15714 -9.99942 4.78163
-5.01219 1.68166 -11.8008
9.78716 -1.00179 5.9185
11.7994 -8.06964 8.00043
2.64321 -8.32289 -5.93834
7.09501 4.58024 -17.1306
-0.795076 2.48727 -5.47276
-8.15234 -5.63844 2.11048
-4.20805 -3.74218 -10.0002
0.859835 -6.9633 -11.6746
-8.19967 4.88076 -3.62227
9.69016 9.99946 -8.23666
-8.16198 -3.06212 9.99953
6.17973 -4.3146 4.17187
-1.29183 6.29255 -15.3906
-0.181871 6.59925 5.66644
5.57786 -9.99955 -7.78788
3.60756 -9.99963 7.94829
4.43702 -8.07027 -5.42089
7.46371 -9.99967 6.05731
8.03416 6.26501 9.9996
-0.684458 9.97084 9.99941
5.62444 -5.85978 18.9519
8.25769 2.83137 9.99982
7.71106 -3.75018 15.5245
0.286639 -9.93541 -9.99947
11.7995 6.46704 6.73739
2.94712 6.37074 -5.88984
11.7579 -1.21521 -5.87376
8.79879 -0.272921 -15.2985
-3.85248 9.99961 6.16132
0.102882 -6.24377 -5.75087
4.61221 4.95151 5.32216
5.80449 9.99956 4.57264
1.69173 -2.88753 19.0001
11.7997 -3.14402 9.94882
-4.16424 5.88071 1.14888
8.78225 1.00049 10
8.25116 -4.24439 4.24595
8.07185 9.99964 -3.83154
-3.96948 -5.82159 -1.74723
0.848431 -0.953598 5.95619
-2.05439 9.99958 7.29085
11.7335 9.93039 -9.99756
-2.39796 -6.22524 4.30143
5.0093 9.99946 9.95922
-0.28191 -2.15328 5.65393
2.06206 8.11038 -6.02261
-8.19954 7.83035 -5.89932
0.503085 -6.86359 -18.9991
2.87042 2.80727 18.9999
-4.47632 3.75519 -4.68675
-6.20438 -9.99942 -8.16636
-4.35729 -3.67614 -4.73933
9.74779 -9.99953 1.15393
6.36556 5.30968 -15.4115
3.88852 -8.39945 9.9995
-8.14049 3.16462 5.09683
11.7997 -9.9576 -2.54584
0.146239 4.75662 -19
-1.19758 -6.33172 17.1511
-3.07439 -9.95703 -9.99946
-8.19951 4.72541 8.18114
-6.53088 2.40931 9.99974
-3.13379 -7.01407 9.99965
3.68242 -2.78151 19.0001
-2.31831 -2.87009 19
0.155695 -2.80252 -19
-2.19934 -3.95141 -4.52958
7.39732 4.21737 10.0327
11.7995 -4.55411 6.37058
-2.16682 -8.12934 4.51141
1.63787 -8.50981 9.99964
-1.06915 0.757291 -5.9847
2.97851 6.90285 13.5825
-8.1995 -5.95224 -6.13354
6.77859 -4.99751 -9.99981
-6.61059 -9.9996 3.87006
6.91578 5.18679 3.13044
-8.1996 5.68759 -2.15511
11.7995 8.22193 1.72373
11.7997 9.95454 -1.24609
8.61496 1.60306 17.1954
4.40724 -0.341586 5.99317
-2.86657 8.39166 3.77413
-8.19946 -7.51054 -8.0543
-8.1995 -1.81783 -9.95252
-2.51198 -4.23661 4.24686
-6.48772 -4.10894 4.37776
5.75413 8.19139 -4.51804
9.3704 5.24631 2.93866
3.08682 -9.99908 -5.94684
-3.95529 -9.9994 9.95418
5.23954 6.18228 -9.9999
-6.49755 9.99955 3.98347
9.47713 9.99958 6.36689
5.41894 -9.99933 4.90499
-8.19952 5.57945 6.06582
9.74479 -7.98085 9.99934
3.51767 -6.79418 11.9288
6.71849 4.98769 13.5654
5.98341 0.876074 5.9524
5.54465 3.36556 -18.9998
-3.9289 4.13483 10.0007
7.515 -4.05784 -11.8605
-4.66759 -4.34769 4.13268
8.80019 -0.665891 -17.1023
11.7542 4.75784 -3.64385
-3.04003 -4.90953 -3.5428
4.80557 1.76168 18.9999
11.7997 -9.96106 -4.3834
7.69593 7.90884 -1.11473
-4.77782 -2.40012 -11.8456
2.1208 5.01686 -19
-1.04969 2.92185 5.28492
0.759517 0.96342 -19
4.95643 -8.20185 -9.99949
-8.14302 -6.72544 -9.99958
8.79226 -0.241035 -11.844
7.32463 9.99964 6.35511
-1.33785 -9.99948 -9.95381
-2.83233 -2.41282 -5.49369
0.824526 -0.178615 -5.99192
9.64197 9.99951 -2.46416
-0.833353 -4.7474 -5.40963
3.09783 -8.11785 5.85928
-8.19954 2.60555 8.20016
-2.08948 -9.99952 -8.22254
8.79355 0.134334 11.8223
-6.08944 4.5825 9.99959
-8.16291 9.99928 -2.86085
-0.510828 2.56919 -19
11.7478 -4.90257 9.99934
3.45753 0.669274 19
4.93715 -9.99942 -9.9449
-8.19949 3.64299 -4.8707
1.82305 6.59415 6.01326
-5.89904 9.99945 7.94054
-4.26653 -5.99698 -0.0452782
2.59808 -6.95295 10.0413
9.63781 4.2069 9.99955
-4.42566 9.99943 9.96169
-4.90053 -2.02076 -18.9533
-8.14434 -9.9994 -3.33383
9.82932 -9.9995 3.12917
-8.19957 -4.65039 6.63757
11.7562 9.99913 -8.3542
11.7994 7.95707 -7.98581
-2.82515 -9.95107 3.80485
7.55281 -4.0051 17.3457
8.77216 0.818557 -13.5887
-0.468035 -9.99954 8.12106
3.78023 8.42973 9.99956
11.7994 -6.38233 7.33951
0.311669 6.90617 10
-4.20574 9.99951 -7.84867
4.81062 6.38985 9.99974
-8.19963 -2.79933 6.96599
7.64364 -0.767029 5.98463
-4.21976 -9.99964 -5.41863
11.7511 -9.99922 6.49659
1.93788 7.0133 15.3296
8.21677 9.99963 -5.79665
6.52376 2.09989 -5.65397
-1.28797 -0.622833 5.99567
11.7539 -5.90099 1.08061
8.15544 2.93794 -17.137
9.94707 -6.05768 9.9994
7.00049 7.80304 -9.99949
-6.04667 9.99952 -6.06946
-2.99219 -5.12273 13.6354
-6.15862 -5.9916 -0.728872
8.49408 -2.41651 5.48884
-1.0654 -4.41776 18.9999
-1.92586 5.92394 11.9586
0.799128 -6.94909 17.1624
11.7527 9.99915 -3.0533
-2.80739 4.66914 -3.84941
-2.62212 -1.85636 5.72276
4.64768 9.99968 -6.926
-0.917922 9.99892 5.43891
11.7534 -9.99919 4.57459
-0.93542 6.50577 -10.0001
-8.19948 8.00056 9.96048
-4.87557 9.99952 -3.91459
-3.12662 0.385135 5.99486
2.91496 -6.90732 17.1202
-6.37699 -0.922445 -5.94106
-8.19955 3.91123 -7.43446
-3.7211 -4.32455 15.3706
11.7996 -6.65796 9.93642
7.36403 -4.35492 10.0005
11.7996 5.69146 -2.08681
-8.19967 -6.00176 -0.933948
-2.26642 9.99967 -6.62454
-0.336102 6.68081 15.3308
-1.1715 -0.897293 -5.95311
-8.15001 -5.08504 -9.99948
-3.76127 5.63044 -2.26307
5.82212 -2.92937 19
10.076 -9.99951 -5.32357
1.72045 7.12002 9.99984
-3.98156 3.94381 15.2978
10.0701 -2.78745 -9.99956
-6.1858 9.99944 -8.01855
11.7996 -4.00632 -8.20976
11.7996 5.40117 8.25318
7.01858 -8.25215 -2.96255
7.74454 -9.99972 -1.2127
-2.993 -0.734168 -5.98499
-4.66168 0.140701 -5.99676
11.7997 4.65559 -9.96432
9.83775 5.89744 1.17546
1.99376 -2.49225 6.02364
-2.43805 9.99949 9.94397
3.42939 -4.77558 -19
11.7993 3.61551 -4.86016
0.658647 6.92375 -15.399
-6.12308 -5.39313 -9.99961
-1.40155 -0.801827 19
-3.2775 6.80906 3.19283
-6.50572 -9.99943 -9.96725
3.80361 -9.99954 -7.87439
0.571882 6.89456 -10.042
7.89162 3.45255 17.1448
4.71678 1.37238 -18.9999
-4.42816 -6.29885 -9.99971
-8.19951 -0.0414177 -9.95051
-4.66273 -2.8301 10
8.23795 -2.73902 10.0433
-8.19958 -7.91181 1.68742
9.82115 9.99953 1.19871
7.45499 4.14835 11.8447
1.15054 -6.97177 -17.0592
-0.18073 6.7164 11.9221
8.80041 0.304298 -18.9572
-1.33623 6.33143 10.0009
7.75331 -3.6804 11.9175
3.39091 2.97674 -18.9999
3.8337 9.9995 7.96268
7.84096 -3.6975 -10.0001
2.34005 -6.99476 -18.959
-2.82497 1.00191 -5.92635
8.45072 -2.17044 -10.0419
-8.19943 7.96124 -7.90325
-6.46431 -9.99943 7.94668
3.56236 6.84157 -9.99989
8.45513 -2.21822 -11.8828
-0.173608 4.83023 18.9999
-0.313397 -6.68722 11.8659
-1.67072 1.33353 5.84684
-3.12237 -4.99964 -10.0421
-5.19961 -0.298962 -15.3691
4.99201 0.890717 -5.95489
5.57519 -9.99961 7.44412
-4.80669 9.95862 -9.99936
0.736426 8.27657 5.92668
-6.47156 -2.69098 9.99963
5.48116 -6.0479 -10.0006
0.76795 6.95035 13.644
-5.21234 0.842698 -9.9995
-1.2438 -6.36749 9.99982
6.5784 -0.201282 -5.99447
-3.8977 8.02116 1.89897
-8.15407 3.88457 9.9996
-3.00273 0.6559 18.9998
8.56741 -1.87161 11.9158
9.58748 7.74054 -9.99945
4.56626 -4.47936 19
-6.103 9.99959 -2.02424
11.7995 4.63392 6.25963
4.38638 -6.57081 10.0004
2.98165 -4.19559 5.8811
-5.86089 -9.9996 -4.08653
-6.52315 9.99945 -9.95943
-5.09999 -1.16477 -17.1487
-6.14429 -5.90024 1.07769
6.98526 -0.235867 -18.9999
9.83614 9.99954 -0.68083
-6.40642 9.9995 9.95705
-0.448903 -6.65465 -10.0461
6.98099 9.95203 3.02009
10.0699 4.1409 4.34505
1.40685 3.04893 -19
0.975226 -7.08685 -9.99999
-2.40874 -5.59946 -11.9113
11.7401 -6.49267 -9.99931
2.08697 7.10522 -9.99997
6.8501 -2.89574 5.25351
