4.61509 5.52958 -5.32597
3.9923 6.61818 -18.9998
-4.66647 2.00057 -5.68765
-4.77226 -9.99963 4.15247
1.0864 9.95418 -5.96135
5.55116 5.91433 -13.6425
11.7994 5.73864 -5.73371
-2.33146 5.66255 17.2147
6.49367 -9.99947 9.93801
-8.19955 -1.21493 8.05416
-6.37077 6.1068 -9.9994
-5.47401 8.23699 9.99944
2.55578 4.99349 5.95034
-4.19675 7.97744 0.129906
7.71583 3.74424 -11.8508
11.7994 1.97828 -7.86129
-8.13808 -9.99942 -5.44421
-2.76496 6.49431 -3.89756
-5.06186 -1.39038 17.1592
2.62237 -4.93732 19
11.7995 -6.39542 -4.47793
-6.40385 0.94508 -5.93314
5.81059 6.3432 -4.45928
1.74511 -9.89757 -9.99952
6.26847 9.96469 -4.01963
-8.1993 -6.56996 9.95302
4.72979 -9.99958 -5.31799
11.7996 6.0542 -0.505638
-8.19941 -3.48624 4.97927
1.89448 -6.78393 -6.01943
-0.372608 6.67145 -17.1701
-8.1995 7.80188 2.08126
7.60411 4.07128 -10.0005
8.40626 -9.99934 -9.95229
7.10443 2.62006 5.39636
11.7995 6.3518 4.83975
1.50711 1.02047 19
-4.73042 -8.27713 9.99949
9.97222 6.01608 9.99944
7.23768 4.40499 18.9515
-2.37663 9.99925 4.44064
-4.03921 -7.99393 1.39488
4.23875 -6.56553 15.3689
8.38362 2.38693 15.3575
4.89641 -3.16618 5.15025
11.7995 0.0659405 6.07345
5.55465 5.86785 -18.9998
3.8532 -6.76376 -10
3.02838 -6.17764 5.87341
-8.1995 3.26181 -9.92724
7.66941 -3.81576 -17.0716
-8.19954 -7.86516 -2.31879
9.79024 -9.99956 -0.996119
2.15393 6.96837 18.999
7.80007 3.53873 -18.9999
-1.30281 8.21493 5.14
6.47014 -5.21197 -17.1294
-6.4468 -7.49071 9.99938
0.677256 2.88318 19.0001
-8.19916 9.94506 -6.44106
11.7994 7.78809 -5.99481
2.63345 0.710368 -5.98346
1.21572 -7.83337 5.96989
-8.19953 -0.941695 -6.01128
11.7259 -9.91933 -9.99866
-3.51094 -7.98253 -9.99951
4.0075 -6.64073 -15.3271
11.7995 -1.25327 9.93733
-3.13537 8.19991 -3.41124
-8.19951 5.93389 -7.8356
-0.23937 -6.70436 -15.001
9.86251 -2.16236 -5.60588
7.64936 5.78179 -1.6564
7.63488 5.75873 1.68443
11.7995 -7.83992 3.81969
11.66 9.99957 9.92669
-4.21043 -9.99963 -0.903439
2.72685 6.93569 -11.8589
7.13836 -4.52728 13.7248
-6.53585 9.99954 -4.20388
4.59416 9.96072 -9.99943
-8.19954 -8.09984 5.63653
6.86763 5.03129 -3.2847
-4.32519 3.41807 11.9746
-4.98007 -1.63579 18.9992
4.97654 6.23471 17.1352
-4.23067 -9.99943 0.70637
-8.19954 -9.95704 2.53844
-6.45805 4.33879 4.147
-8.19951 -2.55248 -7.92975
11.7995 6.92914 2.92922
-8.19997 5.98497 1.0523
-8.19956 -8.5219 3.66765
-3.51544 2.49132 5.46317
-2.27111 -5.71299 -15.4889
11.7994 -6.02746 -0.742331
0.545721 -9.99947 9.94538
-1.15688 -6.35102 -18.9461
8.60513 -1.45412 -18.9998
3.96739 -2.42046 -19.0001
-4.76865 -2.43143 15.3971
-2.14083 3.83248 4.61904
-0.0808889 -9.99957 -7.80719
4.01694 6.63668 18.9157
4.06867 6.62747 11.874
9.96081 -3.89442 -4.5849
-8.19949 -5.73968 8.31756
11.7998 0.907762 -9.95439
-4.64575 2.73829 17.0963
-4.42694 -3.20113 18.9528
-6.51799 6.6749 9.99946
-4.17628 3.65299 18.9466
-6.09498 -9.99963 -2.15979
11.7388 -4.53658 -3.94595
9.52884 -5.59565 2.22201
-6.07986 4.22967 -9.99956
11.7995 0.0334912 -7.93897
-5.02099 1.60902 11.9382
-1.93572 9.94766 -4.69116
-3.3722 -4.70575 18.9504
4.16197 7.90324 -5.51252
-0.52532 9.99898 -5.62258
9.96569 9.99955 -4.47217
-4.41508 6.19399 -9.99953
-1.66101 7.95759 -4.90551
-4.87762 0.905523 5.9436
10.1358 -2.35263 9.9996
0.73293 6.93282 -11.8979
6.32253 8.27961 3.97496
-3.80694 -9.99903 2.35124
0.576321 4.58725 5.90706
6.26003 -8.1915 4.03805
6.27013 -6.31948 4.01849
-8.12454 9.99968 -9.91109
1.86619 -7.01357 18.9532
1.75192 7.00527 -13.6366
8.1982 -9.9997 -4.47708
-4.0712 9.99949 -5.67682
11.7994 -8.06435 -7.93062
-6.33166 2.83423 -5.29802
6.79166 4.92247 -18.9494
8.50094 1.94759 -18.9995
-4.49237 4.19265 4.29253
-8.19948 -3.54006 -9.92693
11.7995 -2.71041 7.72316
8.80188 0.463946 15.4046
-1.18681 5.87279 -5.1951
-4.94611 1.87818 15.3867
8.50699 -9.99956 -6.42264
-8.19949 7.76553 5.97018
-8.19953 8.07737 0.0384038
-8.19952 8.31448 3.95145
11.7634 2.72254 -9.99944
0.12572 -0.818027 -19.0001
4.77305 -6.82264 5.21839
8.22589 -2.77462 13.7219
1.7492 9.9995 8.00147
-8.19944 8.34554 7.89319
-5.06166 -1.40032 13.6517
4.83998 8.17843 5.17551
1.90358 -7.01801 -15.3015
9.80803 -5.73202 -1.84909
1.71262 -7.00175 11.9149
8.06252 -3.12851 -18.9521
-4.00428 -5.85772 1.5865
5.88788 -5.68339 -15.3298
11.7998 5.95722 1.15116
-4.30799 -3.44926 17.1217
-3.45157 -5.30799 2.95321
9.33246 9.99962 2.88799
-1.20585 -6.32734 13.6349
9.94091 3.99272 -4.48916
-8.19971 5.48149 2.61102
-6.23219 9.9996 0.0815258
3.81376 1.48278 5.82147
-2.74686 2.24701 -18.9998
11.7995 -0.705365 8.01264
-1.57066 -9.99942 9.94313
-0.533132 -8.30152 9.99956
-1.27792 -8.21041 -9.99952
-0.263738 9.99961 -7.86546
0.776192 -4.7753 19
11.7995 -1.79181 -8.17177
0.714775 -3.8779 5.93343
10.3046 -0.17126 9.99965
-1.90798 -5.94318 18.9433
2.29164 6.95752 -18.9995
-8.14749 9.99929 -0.960689
2.53281 -1.15102 -5.96752
-0.862311 -4.95659 5.39318
-3.80569 -9.9994 -2.41068
-4.21238 3.60501 -15.3583
0.848058 -6.95572 13.6672
8.33989 4.7355 -3.72391
-2.95902 -5.15315 17.1148
9.79972 5.34866 -2.73296
1.68175 9.99965 -7.94983
-4.90202 1.90328 18.9998
8.54624 1.91565 -15.3193
-2.75789 -5.26019 -18.9997
-8.14556 -4.75269 9.99955
4.51788 -0.750156 -5.98393
1.00553 9.95193 -9.99945
8.85556 0.891576 -10.0002
6.61953 -9.99967 3.69416
11.7464 -9.99933 -8.31371
-8.19955 -8.09827 -0.308305
-5.88424 5.37058 2.68687
-0.538736 -6.60745 -16.8573
11.7997 -4.35321 4.23673
0.290153 6.80271 18.9995
-3.64888 4.41053 17.0782
8.33876 2.69313 -9.99986
-8.15772 1.46367 -9.9996
6.60719 -9.99966 -6.08655
9.77679 5.96089 -0.765354
-6.0416 -2.57864 5.4106
-5.93441 -5.29204 2.85609
-1.32545 0.703979 -19
-8.19948 -5.22713 -8.17375
7.38809 -4.22456 -15.316
1.05895 -5.74391 5.95876
-1.57576 -6.13793 -13.7402
11.7994 -8.318 9.95254
-3.68147 -9.99964 5.98586
6.37767 -5.29815 16.8741
8.03286 -3.22281 -13.637
11.7541 8.34937 9.99926
-1.95287 -6.02118 -10.0002
11.7018 -0.837337 -9.99948
11.749 -1.55677 5.79042
-5.19131 -0.118061 -18.9528
5.38975 -5.93483 -4.80466
2.0432 1.3246 6.01548
8.37697 -9.99964 4.18752
4.74634 9.93982 -5.2166
11.7995 4.45402 4.14442
8.69652 -1.2008 -13.61
-6.02365 -9.9996 1.95904
1.91714 4.83559 -6.02226
7.55897 -9.99948 8.08063
3.85887 6.57571 5.63351
-6.02396 5.91302 -1.09777
-1.55342 6.14707 18.9539
-0.441176 -9.99857 -5.66324
7.6728 9.99913 1.52647
1.90686 -9.9994 -8.04404
11.7621 0.798541 9.99949
-1.57653 -9.99972 5.04147
11.7996 9.93447 -6.65429
5.23509 -3.84954 -18.9999
-2.40924 5.59917 15.379
2.16342 -9.99995 6.06455
-6.70112 -0.659516 -9.99971
11.7995 8.0245 -0.124565
8.69476 -1.0085 18.9997
11.7995 6.5415 9.94626
-0.728305 -6.52578 -12.1819
-1.00855 9.95288 -9.99929
1.12201 9.99951 9.95633
-5.20392 -0.437742 11.8823
5.77074 5.75847 18.9529
9.86834 2.14697 -5.61393
7.76709 -8.01477 0.685004
11.7484 0.540834 -5.97337
11.7995 -7.77157 2.01692
3.5313 9.9996 -8.20635
11.7432 -8.22842 -9.99966
11.7995 8.20921 -9.9533
5.10395 -6.17306 13.4974
5.77975 9.99958 -8.32054
3.79936 -4.45326 -5.67103
11.7997 -9.94046 2.73999
-4.86065 5.02576 -3.28171
-8.19955 9.91552 -4.65269
-2.04299 6.49678 4.60255
-4.75437 -2.46307 11.8694
1.54842 -9.99962 8.01919
8.89886 -0.690029 -10.0001
3.54445 4.82068 18.9999
0.526516 -1.81483 -5.88105
-8.19957 5.65728 -5.70226
-2.95701 5.15442 -11.8191
10.0724 -9.94126 -9.99921
-5.6999 2.91199 5.26441
11.7998 2.12327 -5.69759
-8.19949 9.94944 4.88615
-8.15785 -0.20111 5.99871
-6.39157 4.25201 -4.23043
11.7994 -5.54627 -2.51636
-4.2204 3.59443 -11.8071
7.86936 -9.99938 0.427668
-6.30121 -2.88437 -5.26966
0.129013 8.42178 -9.99958
-8.14913 -9.99944 -1.35253
11.7995 -6.71174 -6.46283
1.42861 -5.01835 -19
-2.05942 -5.84675 -17.3173
2.54314 -0.423417 5.992
-3.6093 4.45507 -17.1394
-0.641411 -6.75482 5.4957
1.90281 -1.15082 -19
-1.46986 -3.23062 5.08051
-6.66599 -0.0919301 9.99961
5.48267 -3.77614 -4.73174
-3.04164 9.9995 -3.66574
-5.95902 -7.82762 -9.99943
-3.00927 9.94619 -9.99925
7.77847 9.99954 -7.93141
7.09329 -4.576 -18.952
7.14205 9.9994 9.95751
6.06025 7.95208 9.99945
11.7994 5.95501 -7.83243
-4.81219 -6.12971 9.99966
-5.2191 -0.713257 -9.99969
-3.2363 -6.6613 -3.26144
-5.19714 -0.324399 15.4071
9.94118 9.99946 -6.49836
-2.16915 -5.77782 11.8829
7.88876 -3.43324 -4.91421
5.11172 -6.16949 -13.6168
9.37558 9.99935 9.95829
5.82976 6.42465 4.44474
-8.19952 0.2539 9.93012
3.84999 -6.65972 18.9997
5.85393 -1.31495 5.85103
-3.8256 -4.17876 -11.9006
-8.19951 -6.64564 6.76624
6.1317 -5.51394 15.0391
-4.63952 2.75756 -17.1556
-8.19954 -6.57797 -4.25213
-3.24366 4.85475 13.6141
-4.49657 -3.05498 -17.166
-3.0003 5.02005 18.9998
6.00351 4.13373 -4.37405
8.79377 -0.456136 17.1264
9.70726 -9.9996 -3.07058
-6.30818 -5.50097 -2.39475
-0.816365 8.3181 9.99952
-1.58934 -1.33181 -19
3.89933 -9.99945 5.72112
-6.33001 -0.704159 5.98197
-6.23211 -4.95186 9.9995
10.1015 2.67701 -9.9996
8.07618 -3.00803 19
-8.19929 6.73814 -9.9388
-6.39891 -3.24617 -9.99971
-5.1768 0.79002 10.0496
6.62771 1.69876 -19
-4.93354 -2.15306 -10.0002
-1.24832 6.31521 -11.8605
5.95112 -7.8598 9.99939
7.00442 6.96348 -2.99793
2.93719 8.2532 5.89177
-5.1694 0.726965 17.1366
10.0926 9.99947 8.17944
-4.79062 -9.99951 -9.949
5.96302 4.23026 4.31944
11.7998 5.35355 2.84771
-4.67792 2.68279 -13.5624
6.13815 -5.51139 -11.8676
11.7997 -9.92803 9.92021
8.31172 6.18637 -9.99957
-8.19931 -8.41826 -9.94279
4.11953 -2.46419 -5.53574
-4.16507 -9.99948 -7.77775
2.40042 9.99978 6.05525
8.01933 3.2448 13.5844
7.01128 -4.67743 18.9546
5.94511 5.64506 11.8266
11.7996 9.9524 4.65349
9.88095 -0.0825671 -5.99708
0.0141659 8.03068 -5.72978
-8.1998 -3.77391 -4.75789
6.6922 -4.81661 -3.61955
3.52144 -0.400558 -19.0001
-8.19945 1.6087 5.88027
-8.19946 -8.02262 7.95474
-5.16155 0.827987 -17.1562
6.35713 -2.23795 -19
-1.39558 6.24453 13.7359
7.25037 -7.69092 2.51255
-8.19952 1.86548 -7.95009
7.53122 -5.67411 -1.98993
0.685993 -6.90263 10.0566
4.6573 6.39825 -11.8415
6.0763 9.99952 8.28959
-2.36765 5.62763 -10.0404
-5.19529 -0.382853 -11.849
5.11752 3.78852 18.9998
7.41981 -9.94835 2.12815
9.60396 -7.73158 -9.99945
-8.19966 -6.04875 0.603914
8.57174 1.8471 -11.8219
11.7995 9.93124 8.16517
-8.19943 0.657318 -6.04995
10.0181 0.814169 5.96434
-4.12384 9.95143 1.00408
6.58859 2.38142 18.9999
-3.79578 9.99952 8.17352
8.21354 0.983648 -5.92706
6.54732 -5.14135 12.0669
7.55759 -9.99948 -8.12106
-3.99271 -4.08032 10.0003
6.50232 5.25887 -9.99976
-3.808 4.32455 -9.99997
-8.19964 -2.36862 -5.59337
8.43825 -2.26124 -17.2229
8.02925 8.22927 9.99952
-1.8187 3.7604 -4.78703
7.49019 9.96253 -1.90092
11.7995 -6.20983 4.98827
4.76636 -5.06098 5.25062
11.7995 -4.71648 8.30602
11.7994 8.37888 -4.01484
4.75513 -9.99946 9.92769
1.98025 -7.01474 15.41
8.10018 4.076 4.41911
8.19886 2.84476 -13.5687
-3.72784 -4.31224 11.8916
-2.84356 -5.24005 10.0536
3.16589 -6.87832 -13.6386
3.50101 4.1202 -5.78728
1.67438 4.83654 19
7.26956 -9.9995 -2.67927
4.08966 9.99922 5.61926
6.75422 -6.58663 -3.37491
6.17768 -9.95368 -4.13832
7.73334 8.02122 0.922323
-6.31559 -4.35511 -4.13166
-5.93095 9.99953 2.12596
6.78762 -4.92533 -13.5947
-4.70516 2.61337 10.0493
9.76875 -9.99934 -7.84051
-1.97484 -3.32581 -18.9999
-8.19952 -0.361514 -8.01844
-3.42717 -4.65419 -17.1718
-4.53089 6.26467 9.99951
5.2305 -0.679792 -19.0001
7.87559 9.9993 -0.198613
2.01363 -5.05889 -6.02476
-8.14607 9.99929 1.02086
-3.96179 7.82115 -1.76672
-2.11128 7.98649 -9.99945
-3.70497 5.42414 2.59489
-8.19952 0.786143 7.8675
-1.92086 -9.95425 -4.73666
-3.6377 4.42646 -13.5887
4.89116 3.1421 -5.14263
11.7995 -8.0178 -3.57221
6.4901 9.99968 -6.24157
1.92539 2.84777 -6.02198
8.2555 2.6668 18.9997
11.7995 7.86076 -2.06703
11.7519 -9.99922 -0.784656
-8.19949 5.87217 9.95136
9.02526 -4.91823 -3.43959
2.43111 -7.10594 -10.0001
11.7994 -4.89032 -6.15335
1.92866 7.01785 11.8809
-8.14738 -9.99946 0.6891
-8.19952 -6.83469 3.59532
-4.19689 -7.94011 -0.494214
4.44817 -6.49365 -11.8428
8.42455 -2.29435 17.2594
5.00244 6.22312 13.6045
9.92926 8.00569 9.9994
-2.6204 -8.18749 -4.05405
-2.12287 -5.80777 15.3747
-4.94783 1.88485 -18.9551
11.7997 4.55238 9.9541
9.98765 -4.70747 3.72848
11.7994 3.10283 5.21836
-8.19951 3.52728 6.73399
8.02325 3.21058 -5.08157
-3.62187 9.99915 2.73169
3.09475 6.88375 17.1353
-6.25727 -9.99964 -0.118211
-8.14541 -9.99957 6.54833
-2.17971 9.99955 -8.37556
7.67305 -7.87391 -1.24989
2.61092 -6.9506 -11.8871
9.75947 -5.16123 -9.99943
2.94799 9.99959 -5.96234
-8.15281 -4.73193 -3.70487
-8.19957 6.49694 4.23238
-0.112263 -6.70015 18.9996
3.69509 6.74157 -13.6232
9.46785 2.60129 5.40626
8.29811 9.92564 -9.99964
-5.17618 0.698243 -13.5802
0.300487 0.566482 5.99519
-3.84595 -4.14504 -15.4023
-4.65691 -1.90402 -5.71505
11.7994 7.8075 8.1269
-2.9775 2.76658 -5.32053
11.7434 -9.99913 -6.5161
8.42131 -2.29493 -15.369
-4.32353 -3.40769 13.6354
-2.77269 2.39522 18.9998
3.28252 -9.91165 -9.99945
-2.7249 -9.9995 8.26296
11.7995 -9.95763 8.23585
-3.29124 -1.2186 18.9998
3.72265 -2.03643 5.70077
8.14453 -6.28305 -9.9995
11.7997 -2.73213 -9.94622
-4.01533 8.02509 -9.99937
2.75482 9.89632 -9.99949
11.7995 -5.94871 -8.19427
0.681784 9.99948 5.99006
4.61968 6.41349 -15.4092
-4.19026 6.04022 -0.601198
-4.24264 9.99948 -0.626997
-0.486056 -8.50256 5.56888
11.7996 6.44854 -9.95167
11.7995 -8.01313 0.119283
0.637252 -8.23006 -5.91715
-8.19927 -9.94569 8.28863
11.7994 6.63881 -3.94404
-0.764056 1.24614 19
4.97326 2.93299 5.23072
3.58235 6.7791 -17.1602
-0.245644 -2.60769 19.0001
-8.19957 7.39113 -3.9427
11.7995 -2.93989 -6.82258
-6.08097 8.02833 -9.99933
5.19084 -6.12843 11.6371
6.4271 0.487428 19
-4.61777 9.99955 4.30624
-6.07119 9.99957 5.98617
6.6427 5.05551 17.1191
1.79054 3.19458 6.01245
0.58165 -0.736105 19.0001
-2.48091 -9.99963 -6.45386
6.50411 9.93792 -9.9994
11.7995 1.33786 8.00633
-2.89948 4.76334 3.75715
7.20352 -5.35142 2.75968
-2.68072 5.4722 10.0003
-3.17849 -4.92635 -13.706
9.57781 -4.28433 9.99954
11.7991 -5.43021 2.74788
6.20838 5.5286 9.99993
-4.39341 -3.26868 -13.6437
2.88025 9.99951 9.9459
4.82102 -6.31301 17.1561
-2.14135 5.79734 -13.5957
10.1385 -9.99939 9.9363
6.85345 -1.32917 18.9999
-2.50751 -8.52709 9.99942
-8.19952 -4.05139 -6.70159
2.13534 -3.16009 -19.0001
4.03343 4.68717 -18.9998
-2.1527 5.79128 -17.1863
8.57008 -1.79743 15.4526
8.43962 -9.99941 9.94168
7.77388 -8.20712 9.9995
2.23925 -3.0595 -6.00688
11.7995 -8.32175 -5.64099
-5.17205 0.744044 13.6938
-3.28107 0.295165 -18.9998
5.49113 5.95644 -17.1782
1.63543 7.00357 -17.1536
8.69269 1.22019 13.5626
-8.14122 9.99971 6.60918
11.7995 8.30568 3.99276
0.22414 2.14566 5.79225
11.7995 8.20549 6.03769
9.60647 -9.99944 7.68944
-8.11957 9.89314 9.99982
0.596423 -3.92932 -5.90241
-8.07872 -9.9996 9.92843
5.66744 -5.79891 -18.9993
2.54924 1.16419 -19
4.07707 -6.61755 -18.9483
11.7314 9.99916 2.69211
8.79312 -0.931434 10.0002
10.1446 2.21582 9.99958
-8.19962 2.22568 -5.66248
0.168419 4.1603 -5.77721
-4.81762 -2.2804 -15.3813
5.88095 5.6878 15.3422
-8.19955 -5.86061 5.1598
-8.19946 -8.37547 9.95085
7.86578 -6.0057 -0.381549
7.156 -7.96049 -9.99937
-2.94198 5.16291 -15.3732
7.73168 -5.86274 1.27367
-3.36631 -7.65637 3.04652
-4.7039 2.73658 -10.0001
-1.69888 -9.99962 6.74544
-8.14718 -4.77254 3.64738
6.04706 -5.65975 9.99981
-8.1443 -1.44478 9.99939
10.1295 9.99951 4.54413
11.7488 9.9992 0.695362
-1.88483 -6.24806 -4.73131
3.22092 6.87256 10.0554
8.46985 2.18433 11.8354
8.14192 9.99949 8.16088
4.80803 -0.957058 19.0001
5.84314 -7.99391 -4.43515
-4.9891 1.74655 -15.3574
2.70212 -9.99948 9.93738
-6.04987 -9.99938 9.95393
-0.971094 -2.6855 -5.35749
3.11037 -6.88785 -17.0703
4.76749 -8.4676 5.22035
-3.26375 4.83279 11.7293
0.966293 -6.96252 -13.5031
-8.19865 -9.93491 -7.69469
-8.15026 9.99963 -8.1682
-5.07108 -1.33821 -13.6044
2.66114 6.94303 -15.3896
8.78246 -0.772076 13.7298
3.05454 -6.89143 13.7582
-6.49129 5.35211 -2.70091
7.38612 4.22678 15.33
9.78474 -9.99954 5.56132
9.83306 -5.99298 0.272585
8.14324 -1.34746 -5.84199
-5.16804 0.0911759 18.9997
-8.19901 8.388 -9.94789
-8.19952 1.89956 9.95153
6.25087 -2.1532 -5.63051
8.72637 1.09876 -17.0729
-3.88994 9.99901 -2.15555
-8.12788 -9.99788 -9.86233
11.7334 9.99935 6.45035
-4.57297 2.89537 13.7228
-8.14839 9.99939 2.81293
-4.7906 -5.00966 -3.30935
0.475589 6.88575 -18.9541
-8.19948 4.50263 4.09007
1.05199 6.96954 17.0968
11.7995 -7.81912 -1.78656
6.38148 5.29578 -11.8638
9.83525 5.00582 -9.99949
-8.19961 7.96691 -2.03432
-8.19946 4.93655 -9.93076
-8.19963 6.05294 -0.590677
-0.324093 9.99953 7.99293
7.70954 3.75181 -15.3557
3.44358 3.31743 5.80351
-1.34042 6.21248 -19
8.09019 9.99965 4.60587
-4.46753 -1.11046 5.9018
11.7996 9.95032 -4.97505
-6.26091 5.96162 0.78635
-0.296597 6.6967 -13.6391
0.341719 -9.99981 5.91114
-6.60896 1.39964 5.83053
11.7995 3.97003 -6.69734
-8.19955 -3.60255 8.40674
-3.12422 7.91797 9.99935
5.4667 9.99962 6.62545
7.03404 8.6635 -2.95446
-8.12831 9.99962 8.34665
0.615169 1.55813 -5.89773
2.6016 -1.01967 19.0001
-8.1995 6.59866 7.98197
11.7994 -8.08894 5.87323
10.074 9.93022 -9.99967
-0.195474 -6.71705 15.3893
11.7997 -9.94529 0.989411
-6.5523 2.09684 -9.99963
11.7628 2.76534 9.99943
-8.13111 -1.85513 5.72207
-1.67828 3.96632 -18.9999
-8.1995 -8.38521 -4.27246
-4.05032 -3.799 -18.9995
-3.96847 -3.02575 5.20315
0.711516 6.31487 -5.93639
-1.40582 3.47082 18.9999
8.00166 -6.28089 9.99953
-5.17167 -1.13359 10.0006
11.7995 3.91686 -8.3899
7.87851 6.00406 0.07072
-4.13556 3.70176 -18.9534
-6.23199 -9.99957 -6.20768
-4.63476 -9.99945 7.88121
-3.08397 -9.99986 -3.64381
-3.75622 -8.11023 -2.2529
3.65269 -6.3639 -5.72796
11.7995 3.27344 7.79058
-2.92817 5.13333 -18.9987
-1.09065 -8.00949 -5.2527
11.7988 -2.98196 5.30905
7.09718 4.57802 -13.6325
6.57915 -9.99939 -9.94682
-3.30897 -1.72839 -18.9999
7.18048 7.47731 2.66649
11.7991 -3.13179 -5.19149
11.7998 1.74032 5.83446
8.13433 0.949303 5.93526
-1.03421 5.02356 5.29525
-8.19946 -8.09922 -6.24197
4.78289 8.24854 -9.99955
11.7416 -4.60579 -9.99934
8.70873 0.839217 18.9998
-5.96498 -9.99957 5.94653
4.91052 -6.26866 -17.097
10.0667 -3.17311 5.10192
-0.775011 6.50917 17.112
3.69174 2.07171 -5.70979
1.34642 -9.99979 -6.062
-0.49676 -4.6613 -18.9999
-8.19963 -5.60088 -2.37718
4.0025 6.64179 15.3429
-8.14786 -9.99942 4.77334
-5.00926 1.69622 -11.7963
9.78359 -1.02239 5.91395
11.7994 -8.07086 7.98858
2.66841 -8.32753 -5.93463
7.07444 4.60509 -17.1191
-0.824042 2.49464 -5.46857
-8.14091 -5.63366 2.12081
-4.23651 -3.71454 -10.0002
0.864501 -6.96349 -11.67
-8.19967 4.88743 -3.63424
9.67875 9.99947 -8.27746
-8.15614 -3.0291 9.99953
6.19674 -4.32369 4.16158
-1.28372 6.29591 -15.3898
-0.191182 6.61133 5.66365
5.57098 -9.99955 -7.71204
3.63924 -9.99963 7.94393
4.44597 -8.06092 -5.41553
7.47991 -9.99966 6.05121
8.03311 6.25879 9.9996
-0.639081 9.96568 9.99942
5.64856 -5.84407 18.9416
8.2133 2.82003 10.0504
7.68425 -3.79447 15.499
0.253993 -9.92216 -9.99948
11.7995 6.46901 6.74997
2.96232 6.37478 -5.88734
11.7506 -1.21687 -5.8736
8.7985 -0.25408 -15.3016
-3.86733 9.99961 6.17246
0.0915434 -6.25196 -5.74743
4.59981 4.93772 5.32723
5.81279 9.99956 4.57613
1.67994 -2.86933 19.0001
11.7997 -3.13493 9.93792
-4.17492 5.8855 1.12521
8.78903 1.00336 10
8.25938 -4.26634 4.22281
8.07096 9.99964 -3.83176
-3.98569 -5.80239 -1.68926
0.853119 -0.989021 5.95827
-2.06068 9.99958 7.28033
11.7256 9.91816 -9.99759
-2.37497 -6.21688 4.3203
5.01213 9.99946 9.95104
-0.298912 -2.19155 5.64595
2.08305 8.11521 -6.02389
-8.19954 7.81863 -5.89733
0.504988 -6.85404 -18.9991
2.85351 2.81563 18.9999
-4.48127 3.76431 -4.68012
-6.16318 -9.99942 -8.12766
-4.34719 -3.67738 -4.73838
9.76417 -9.99953 1.11542
6.36087 5.31401 -15.4054
3.91454 -8.39999 9.9995
-8.12943 3.16456 5.09702
11.7997 -9.94853 -2.54604
0.163577 4.75608 -19
-1.18684 -6.33617 17.146
-3.06875 -9.94984 -9.99946
-8.19951 4.72879 8.17799
-6.5345 2.44062 9.99974
-3.10616 -7.01106 9.99966
3.6604 -2.79518 19.0001
-2.31105 -2.87301 19
0.169624 -2.8082 -19
-2.20947 -3.95675 -4.52552
7.37881 4.23919 10.0398
11.7995 -4.57075 6.36641
-2.14958 -8.1219 4.52472
1.67143 -8.51281 9.99964
-1.04267 0.753542 -5.98549
2.98645 6.90182 13.5865
-8.1995 -5.96318 -6.12776
6.7617 -5.02758 -9.99982
-6.58673 -9.9996 3.86288
6.90972 5.18935 3.14071
-8.19961 5.69776 -2.16216
11.7995 8.2189 1.73195
11.7997 9.94543 -1.20227
8.61541 1.6011 17.2
4.41618 -0.341285 5.99318
-2.86009 8.39719 3.78148
-8.19946 -7.5062 -8.04672
-8.1995 -1.83269 -9.94272
-2.52742 -4.24429 4.23883
-6.48868 -4.10855 4.37816
5.77986 8.18511 -4.49389
9.33615 5.23283 2.96685
3.14123 -9.99906 -5.95198
-3.92355 -9.9994 9.94566
5.24512 6.19435 -9.99989
-6.48879 9.99955 3.98776
9.47089 9.99958 6.35675
5.44767 -9.99933 4.90187
-8.19952 5.51139 6.09438
9.74472 -8.00693 9.99934
3.52582 -6.79167 11.9164
6.72937 4.97787 13.5703
6.00459 0.870069 5.95369
5.5276 3.36852 -18.9998
-3.93012 4.14995 10.0007
7.52327 -4.0444 -11.8577
-4.66614 -4.3419 4.13865
8.80068 -0.653884 -17.0963
11.744 4.76737 -3.63127
-3.0507 -4.92835 -3.52687
4.78053 1.84008 18.9999
11.7997 -9.95356 -4.42029
7.70141 7.91409 -1.08186
-4.78156 -2.38866 -11.8429
2.11942 5.00522 -19
-1.05037 2.9458 5.2847
0.742713 0.973134 -19
4.93851 -8.21143 -9.9995
-8.13169 -6.73128 -9.99958
8.79247 -0.22218 -11.8485
7.3298 9.99964 6.3438
-1.35752 -9.99948 -9.94375
-2.83567 -2.41476 -5.49271
0.837378 -0.178855 -5.99186
9.65243 9.99952 -2.53213
-0.857785 -4.75246 -5.39601
3.1163 -8.12063 5.85614
-8.19954 2.64028 8.26604
-2.00451 -9.99952 -8.14961
8.79349 0.139261 11.8226
-6.07277 4.5948 9.9996
-8.15371 9.99928 -2.85156
-0.513038 2.54863 -19
11.7362 -4.88509 9.99935
3.53767 0.654163 19
4.93581 -9.99942 -9.93088
-8.1995 3.63861 -4.88955
1.8072 6.59167 6.01208
-5.89009 9.99945 7.93407
-4.27677 -5.99699 -0.0422809
2.60969 -6.95161 10.0494
9.61924 4.22708 9.99956
-4.40973 9.99943 9.95513
-4.90072 -2.02039 -18.9433
-8.13308 -9.9994 -3.32453
9.82664 -9.9995 3.08352
-8.19957 -4.64443 6.63598
11.7467 9.99911 -8.30601
11.7994 7.95669 -7.97369
-2.82011 -9.94117 3.81166
7.55998 -3.99292 17.3044
8.77006 0.828823 -13.5919
-0.434703 -9.99954 8.11652
3.78503 8.42902 9.99956
11.7994 -6.38865 7.32354
0.288525 6.91044 10
-4.18674 9.99951 -7.83921
4.79105 6.40785 9.9997
-8.19963 -2.78699 6.97672
7.6493 -0.782122 5.98094
-4.27194 -9.99963 -5.47578
11.7414 -9.99922 6.49019
1.93581 7.0132 15.3285
8.21484 9.99963 -5.78471
6.53582 2.11547 -5.64627
-1.26574 -0.592662 5.99565
11.7443 -5.90405 1.06267
8.14592 2.9611 -17.1356
9.95448 -6.08895 9.9994
7.074 7.8221 -9.99949
-6.05435 9.99952 -6.146
-2.99625 -5.11942 13.6316
-6.15723 -5.9905 -0.749255
8.50957 -2.44753 5.4733
-1.07294 -4.40418 18.9999
-1.90846 5.93455 11.967
0.807292 -6.94975 17.1618
11.7435 9.99916 -2.99985
-2.82673 4.68993 -3.82792
-2.60783 -1.83063 5.72882
4.67559 9.99968 -6.9177
-0.90683 9.99893 5.45259
11.7435 -9.99919 4.56531
-0.96209 6.50164 -10.0001
-8.19948 7.9876 9.9537
-4.90274 9.99952 -3.85822
-3.11082 0.38446 5.99485
2.91532 -6.90727 17.1186
-6.376 -0.932517 -5.9387
-8.19955 3.90257 -7.43487
-3.71815 -4.32888 15.3708
11.7996 -6.6381 9.92406
7.36559 -4.3647 10.0005
11.7996 5.69961 -2.08857
-8.19967 -6.00639 -0.934017
-2.30043 9.99967 -6.60412
-0.323416 6.68393 15.3316
-1.14593 -0.915006 -5.94895
-8.13936 -5.09421 -9.99948
-3.75924 5.64332 -2.26818
5.81176 -2.96479 19
10.0818 -9.99951 -5.32636
1.71322 7.14078 9.99984
-3.97823 3.94873 15.2908
10.0623 -2.82566 -9.99956
-6.1609 9.99944 -8.06764
11.7996 -4.01383 -8.20409
11.7996 5.37785 8.25339
7.03267 -8.286 -2.93358
7.7651 -9.99972 -1.2405
-2.96186 -0.723272 -5.98763
-4.6536 0.136964 -5.99671
11.7997 4.63518 -9.95795
9.83209 5.88506 1.23438
1.98235 -2.5058 6.02284
-2.41434 9.99949 9.93221
3.44247 -4.76964 -19
11.7993 3.63082 -4.87171
0.664428 6.92516 -15.3965
-6.11428 -5.40467 -9.99961
-1.39116 -0.805283 19
-3.27165 6.80432 3.20246
-6.50195 -9.99944 -9.9593
3.81436 -9.99954 -7.91769
0.535444 6.88683 -10.0519
7.8899 3.45534 17.1388
4.72378 1.32854 -19
-4.42477 -6.29907 -9.99971
-8.19951 -0.0566013 -9.94061
-4.6876 -2.78955 10
8.23371 -2.74971 10.0521
-8.19958 -7.91418 1.69443
9.81575 9.99953 1.14585
7.47236 4.12742 11.8662
1.15961 -6.97242 -17.1032
-0.153282 6.72319 11.9133
8.80016 0.292125 -18.9489
-1.3102 6.35493 10.0008
7.76508 -3.6602 11.8952
3.40674 2.93956 -18.9999
3.83923 9.9995 7.96022
7.83315 -3.73491 -10.0001
2.35383 -6.9926 -18.9518
-2.81435 1.0366 -5.91786
8.43027 -2.22745 -10.0507
-8.19943 7.96333 -7.89752
-6.45556 -9.99943 7.94917
3.56185 6.85448 -9.99989
8.4596 -2.20759 -11.8907
-0.20761 4.80829 18.9999
-0.315672 -6.68668 11.8737
-1.66765 1.36834 5.83829
-3.15642 -4.96063 -10.0509
-5.19949 -0.282292 -15.3606
4.99224 0.917973 -5.94842
5.60182 -9.99961 7.43612
-4.79689 9.95074 -9.99936
0.736251 8.28012 5.92662
-6.4607 -2.77635 9.99963
5.47388 -6.06621 -10.0005
0.775589 6.95074 13.6365
-5.21472 0.886916 -9.9995
-1.22002 -6.31031 10.046
6.57259 -0.173314 -5.99459
-3.88984 8.00984 1.91875
-8.14369 3.91154 9.9996
-2.99932 0.620339 18.9998
8.57227 -1.84548 11.9137
9.61731 7.715 -9.99945
4.53882 -4.49601 19
-6.11583 9.99959 -2.01545
11.7995 4.63283 6.26262
4.40417 -6.57169 10.0004
2.9721 -4.19457 5.88269
-5.83836 -9.9996 -4.08395
-6.51876 9.99945 -9.9527
-5.10188 -1.15283 -17.1388
-6.1479 -5.90005 1.07862
6.95592 -0.196454 -18.9999
9.82369 9.99954 -0.73841
-6.38984 9.99949 9.94814
-0.492508 -6.63512 -10.0585
6.98636 9.94156 3.01083
10.0737 4.13169 4.35455
1.41688 3.04635 -19
0.935568 -7.10661 -9.99997
-2.41272 -5.59616 -11.897
11.7289 -6.50093 -9.99931
2.06172 7.12377 -9.99997
6.84661 -2.89794 5.25235
