1.47587 5.69045 0.443467
-3.17373 5.90272 -1.04484
-2.75836 5.36729 -1.36033
0.712873 5.54179 -5.30089
0.673424 7.0441 -4.59677
2.37994 5.02613 -0.927283
-1.29596 6.8567 -2.93089
-2.2168 6.98065 -3.12826
-2.84492 6.29529 -0.928443
-2.56654 4.94186 -2.5717
0.498263 6.66648 -5.22444
-0.0209535 6.17053 -3.42264
-2.90063 5.39661 -2.13722
0.679586 5.01314 -0.267103
-0.489792 6.54328 -5.3089
-2.20123 6.5688 -0.300022
0.689801 6.46672 -2.89626
3.1183 6.42627 -1.77698
-2.97614 6.57062 -2.90942
-1.90902 4.87044 -4.27625
1.49808 5.2399 -1.8848
-2.26674 5.26162 -0.583481
1.1585 6.36058 -2.28836
-0.107635 5.49716 -5.33466
0.0519902 5.93648 -1.03657
1.32478 5.28887 -5.15309
-2.83496 6.69245 -2.49971
0.451606 7.01847 -0.631709
-2.92894 5.46536 -1.72489
-1.27854 7.14061 -0.269004
0.869455 5.95449 -2.91705
0.705648 5.80338 0.773876
1.38934 6.42414 -4.91682
2.08942 5.75631 0.0187554
0.273017 6.9787 -5.18712
1.60793 5.09295 -1.53343
1.76968 7.19143 -4.19955
-1.10393 5.14402 -3.35026
-1.54668 6.03877 -4.94171
1.32228 4.76759 -3.35357
-0.698505 5.304 -3.05694
-1.27952 6.52047 -2.62705
-1.42735 6.54414 0.372685
-3.37887 6.15589 -2.1702
-2.74936 6.1241 -0.56892
-1.78137 4.69429 -1.38891
0.240064 6.45296 0.840443
2.39744 6.54398 0.0301112
-2.50593 5.07252 -3.40922
-1.1138 6.81664 0.452364
-0.784696 6.87851 -5.20271
0.0874526 6.42949 -1.05275
1.06414 6.52517 -2.76499
-1.44331 6.67155 -2.29896
0.551714 5.04359 0.705967
-0.166681 5.01441 -3.91078
2.18819 4.69827 -2.10612
1.64716 6.99272 -0.63054
0.871293 6.01305 -2.3139
-1.89423 5.07915 -0.583464
2.467 5.17709 -3.26857
1.50467 7.06564 -3.73991
-0.0279873 5.7891 -3.42779
-0.391337 6.46994 -3.39388
-2.18285 6.18858 -4.53901
1.3634 5.06517 -4.27839
-1.06056 5.45127 -1.39055
-1.24241 7.01721 -3.93012
-2.24229 6.86952 -3.5732
-2.1992 5.0784 -0.963487
-0.130666 6.99204 -4.04077
-2.54169 6.69668 -0.985583
2.37483 5.51534 -4.55777
0.992775 5.05666 -4.47179
1.80792 7.27747 -1.64219
1.35401 6.9617 -0.292194
-0.119401 6.11355 0.855801
2.31185 6.90023 -1.16013
1.51237 5.26167 -2.30462
-1.45154 5.0613 -1.48581
2.67944 6.47676 -0.267408
-1.52281 5.06103 -3.27992
0.750671 5.11127 -0.841869
-1.34396 5.23677 0.38956
-2.05061 4.68235 -1.72903
2.23398 5.137 -3.5883
0.283875 5.01837 0.348258
1.25512 7.087 -0.738138
-1.49529 4.7182 -1.14695
-0.827926 5.48519 -2.76933
0.972217 6.6349 -5.06805
0.651259 6.98345 -4.16407
2.60375 5.3511 -0.992401
2.6362 5.58695 -4.2979
-0.505514 6.54699 -1.37164
1.80909 5.78255 -4.88209
-0.718176 5.11368 -3.49048
-2.5411 5.30153 -0.977156
1.021 6.82567 0.724806
2.95283 6.53773 -1.41269
-1.94194 7.30085 -2.39593
-0.183713 5.17199 0.87034
-1.17669 5.25893 -2.97661
-0.326318 5.77498 -1.05717
-1.63685 5.86097 0.517927
-0.545723 5.23999 0.87823
-2.78458 5.74865 -0.340334
1.0147 6.70915 -3.15276
-0.224398 5.92869 -5.32709
2.00202 7.29495 -1.95901
2.62688 6.74809 -3.19622
3.12589 6.40368 -2.1971
-1.07625 6.12531 -2.51009
2.86051 5.46694 -3.31936
1.38122 7.10638 -4.12066
-3.14309 6.44847 -2.50874
-0.462174 5.17801 -3.29272
1.77953 7.12062 -3.40935
-0.255822 6.25461 -1.12904
-0.93839 5.13874 0.339727
-0.663906 6.88163 -0.702512
-0.836524 5.89665 -1.49538
1.16631 5.30904 -1.52816
-2.44003 6.60602 -4.37855
2.10928 4.69826 -2.48282
-2.72996 6.52632 -4.06346
-2.46794 6.16162 -0.263017
-1.3504 5.1315 0.0246998
0.611005 6.90276 -3.77125
2.02675 5.1411 -3.90028
0.266434 6.98614 -4.28176
1.69131 5.07745 -4.06033
3.16683 6.28731 -1.05072
0.204231 4.98786 -4.04804
-1.40124 7.1139 -3.47573
-3.03373 6.50772 -2.08773
1.92876 7.23115 -3.89028
-0.131836 5.06097 0.439681
-1.37998 4.93625 -4.25785
2.19135 6.95418 -3.86736
2.39081 6.25302 -4.18962
1.74911 4.87962 -0.0854999
-0.195078 6.97047 -3.49681
2.91744 6.39278 -0.581667
1.83234 4.97757 -1.98822
1.66133 7.10511 -0.989209
2.81715 6.68896 -1.8764
2.91771 5.45558 -1.8175
1.40163 6.78387 -2.93159
0.560793 5.1562 -5.29256
0.628438 7.02028 -5.07958
0.519318 5.35465 -3.43113
-1.74453 7.27214 -2.74253
2.45416 7.0456 -2.94173
2.84931 5.6332 -4.01088
0.900197 5.11957 -4.91875
-2.0605 7.31385 -1.98634
-3.08023 6.38093 -1.68678
-1.86521 7.02386 -3.46316
1.44478 5.65857 -5.08833
-2.59011 5.0143 -2.1617
0.615928 6.121 -3.16331
-0.88535 5.69229 -2.47505
0.959995 5.20927 -1.17312
1.63816 6.84217 0.0435151
1.45583 6.03068 -4.99146
1.83007 4.90408 -1.17161
-0.212705 6.74305 -1.14586
1.00723 5.01834 -0.485209
-2.50462 6.93539 -2.52335
2.43095 7.02844 -1.99523
1.57706 5.0291 -2.75864
-1.41373 5.01341 -0.362158
0.647901 5.38372 -1.44512
-0.190739 6.59845 0.800492
-1.17641 6.34265 -2.15148
1.34072 5.16655 -4.73901
-0.544964 4.98533 -4.74421
1.08021 6.46026 -1.50019
2.89865 6.49326 -2.96546
-1.60754 6.87185 -4.54946
2.34668 5.6752 -0.289701
0.201612 6.94353 -3.81235
-1.97505 6.89247 -3.89828
0.67342 6.55705 0.81117
2.70645 5.99284 -4.0144
-1.93881 6.93654 -0.290807
-1.85243 4.88016 -0.992889
-1.72571 6.28451 0.295654
0.590005 6.90999 0.763685
0.700393 6.79629 -3.42872
-0.138143 6.33872 -5.32718
-3.16416 5.72261 -1.86603
1.19194 5.59651 -2.30331
2.19181 5.05596 -0.522154
2.39823 5.37142 -0.581294
0.285909 7.01678 -4.73812
1.04528 7.0719 -4.37546
1.1016 5.86478 0.652528
2.04472 6.74643 -0.0552184
0.761141 6.25878 -1.26727
-2.13618 4.87042 -1.35115
-2.89044 5.5698 -1.00517
2.94688 6.54821 -2.52344
1.73418 5.21879 -4.53631
-1.54882 6.94998 -2.60659
-1.61347 7.0015 -3.77852
0.181501 5.11047 0.818744
-2.62676 6.68396 -3.68178
3.02758 5.55009 -2.95557
-2.74319 6.14365 -3.93173
1.81713 5.4426 0.130811
0.312739 5.01126 -0.101052
1.54156 5.23915 0.281394
1.96001 4.87289 -1.60243
2.9193 6.08593 -3.61745
1.06518 6.16349 -5.12381
-2.50322 6.48527 -0.619162
2.82394 5.67754 -1.02599
-0.175038 5.08143 -3.45861
1.41362 5.09364 -1.17175
0.289394 5.9677 0.851517
3.2086 5.80247 -3.34674
1.70685 6.71186 0.47937
-1.22722 7.17357 0.190584
0.918663 5.2117 -3.31346
-2.97709 6.43992 -3.70386
-1.71661 7.01246 -2.19094
1.62391 6.86716 -2.58377
-0.848679 7.00365 -4.1648
-0.545647 5.03083 0.0365609
0.596775 4.99754 -4.26604
0.368178 5.63295 -1.14008
1.07702 5.5071 -3.00179
2.92204 6.03426 -0.800548
0.882344 7.12736 -1.00239
2.05458 5.2755 -0.181999
-0.988201 5.0552 -3.76016
1.71559 5.35679 -4.9881
-0.501149 7.02688 -3.8733
0.3766 5.82126 -3.38377
2.57353 6.83725 -1.5777
-2.77743 6.57887 -1.31797
-2.17619 7.10599 -2.72753
0.31357 5.51596 -5.34146
-0.0256408 6.58126 -3.4177
2.10374 6.20058 0.181274
1.80218 4.94123 -2.40237
-1.9478 4.90394 -3.09378
2.29436 4.71936 -1.6756
-1.40081 6.4287 -5.06323
0.609474 5.05077 -4.66259
-1.52258 4.88636 -0.729964
0.203176 5.01509 -4.50382
1.7741 6.23402 -4.74354
-3.36798 6.16921 -2.53449
2.88668 6.5213 -0.943851
0.209266 4.99243 -3.55361
2.07348 5.44186 -4.78948
-1.50525 6.88747 0.168143
0.440472 5.20429 -1.18731
1.77874 7.04013 -2.20342
2.28781 4.93419 -2.87828
0.757847 5.66815 -3.2297
-0.151159 7.01555 0.71172
-0.0188485 6.82678 -5.29683
-2.0745 6.315 0.0133239
-0.478686 6.97145 -4.82428
-1.34182 6.16988 0.551893
1.17879 5.48127 -1.92728
-2.34828 6.75154 -4.00136
0.670821 6.18074 0.799923
0.971798 5.24171 -5.25227
-1.37715 5.00986 -3.72747
-0.707063 5.6202 -1.17996
-2.53164 6.79409 -3.28455
0.0899261 6.9657 -0.497122
0.454292 6.57463 -1.06051
0.164851 5.06838 -0.995937
3.15815 5.65595 -2.55328
-1.36828 6.90775 -1.13652
2.47657 4.90926 -2.04561
-0.664321 6.74259 0.666082
1.07153 6.18358 -1.92093
2.2951 6.7242 -0.395605
-1.91074 5.38801 -4.5323
0.70331 4.97864 0.197313
-0.628686 6.14862 -5.28027
0.794237 5.57281 -1.72414
-2.24778 4.77808 -3.57969
1.35122 4.91356 -3.79111
-2.12151 5.21041 -4.2297
-3.00031 5.55514 -2.51131
2.19905 7.29624 -2.73634
1.08362 4.94575 -0.053573
-2.46002 6.96204 -1.40688
-0.539087 5.11024 0.477904
-1.20677 6.95644 -4.35985
0.039117 5.60503 0.884379
2.39721 6.10701 -0.104351
-2.31509 4.69519 -2.42309
1.20384 5.37609 0.529349
1.75833 6.32652 0.43572
-3.2062 5.80205 -2.26847
-1.02487 4.98023 -5.01109
0.128439 5.10374 -5.30459
-3.01005 5.8199 -0.693981
-2.94694 6.05849 -3.55532
-1.73821 5.16108 -0.211858
-2.83255 5.70201 -3.41482
-2.21813 6.88052 -0.638559
-2.78021 5.24761 -2.56486
-1.13589 6.1296 -5.13999
-1.03532 7.12326 -3.30093
1.6295 4.73007 -3.12125
0.910812 6.01723 -1.60368
-0.987372 6.65534 -1.33644
-2.67225 5.184 -1.77805
-0.931108 7.06898 -3.70888
1.90431 7.11851 -2.59893
-2.86732 6.60563 -3.30496
2.65595 5.22952 -2.92331
-1.89952 5.89804 -4.68459
-0.259777 6.89327 -0.712955
1.60461 6.97248 -1.83868
3.17431 6.25722 -2.69539
-2.57343 5.41767 -3.65575
-0.387741 6.90643 -5.25605
1.09898 6.88938 -3.56316
2.10454 4.76462 -0.814433
0.628454 5.93486 -5.27536
-1.62671 5.62417 -4.82033
-0.486807 6.99425 -4.3564
2.64273 6.71356 -1.17433
-0.314513 4.9583 -0.391755
0.432006 5.48364 0.825523
0.897138 4.9999 0.571637
-1.18463 4.75243 -0.959962
-0.999844 6.45389 0.613325
-1.68434 4.90504 -3.93155
3.40734 6.0534 -2.24361
-3.07136 5.66194 -1.38782
-3.1747 6.3466 -3.30117
2.73606 6.78176 -2.2541
0.864322 5.79267 -2.02157
2.4899 4.99448 -2.49905
-0.839509 4.80559 -0.864705
-0.192628 5.00573 -4.37896
2.26605 6.61131 -4.07069
-1.81903 6.66827 0.0238287
-1.62852 5.23875 -4.7363
2.60194 6.35883 -3.82304
1.38664 6.73917 0.634779
1.43317 4.91599 -0.37784
-0.404173 6.00298 -3.35156
-2.00585 6.81206 -4.31605
-2.44053 5.45877 -0.292755
-0.667037 5.01191 -5.15223
-1.75373 7.03444 -1.77587
-0.866805 7.12578 0.427375
3.08083 6.17271 -3.17273
-0.70085 4.92417 -0.425114
0.939136 7.05945 -4.93896
0.855573 6.93111 0.390931
0.530333 7.02642 -0.969195
-2.31672 7.11724 -2.24707
-0.548215 5.7118 -5.27905
0.993916 4.95157 -4.01234
-2.42836 5.89955 -4.18978
-1.29818 5.31088 -4.97067
0.6672 5.81786 -1.34261
1.89841 4.70527 -2.82006
2.1373 7.29977 -2.30776
-1.04439 6.8666 -0.911201
0.984339 6.96475 -0.0784134
-1.39345 7.07143 -0.675479
-0.199369 6.98427 -0.186184
2.0517 6.62061 0.299081
-1.97469 5.94083 0.292523
-1.04254 5.73448 -1.77065
1.96651 7.09289 -1.24419
0.320455 6.32796 -3.32284
-0.984698 6.99699 -0.486827
2.63232 5.70725 -0.651967
0.843602 5.42233 0.698934
-1.56505 6.76801 -4.97692
0.131884 6.91166 -0.995647
-0.981593 4.96101 -4.56629
-1.24767 5.38495 -2.57969
-1.23472 6.90652 -4.76576
0.601961 4.9181 -3.54408
1.06501 5.73155 -5.20082
-2.11347 7.31354 -1.58005
1.42819 6.91775 -3.30618
-2.65077 5.77704 -3.82036
1.95313 6.82899 -4.29685
0.499103 6.64543 -3.14339
1.48181 4.88338 0.12477
-1.83106 6.33511 -4.82628
1.53306 7.13688 -4.50585
3.39306 5.96639 -2.58419
-1.16371 6.81935 -5.13285
1.92179 4.8088 -0.40823
1.36414 6.85921 -1.55805
1.33927 6.61056 -2.53361
1.48608 6.7141 -2.17062
-0.348102 5.62049 0.892956
-0.341167 5.53887 -3.34198
-0.101709 5.01661 0.00738733
-0.698372 6.70116 -3.32272
-0.565609 6.97868 -0.315773
-1.05065 6.32867 -2.91236
2.21535 7.08292 -1.60167
-1.75444 4.90798 -1.74065
2.64535 5.39247 -3.66436
-3.36659 6.06648 -1.83543
-0.78721 5.20691 -1.04824
-1.96897 4.91388 -2.64661
1.65592 4.91292 -0.77096
-1.22711 5.35831 0.756222
3.04463 5.71475 -3.70098
-1.13856 5.60757 -2.15795
1.42259 6.17867 0.568168
-3.16809 5.86681 -2.72744
-3.06351 6.24373 -1.28286
2.82999 5.33022 -2.58678
2.23882 4.73446 -1.2445
-0.508678 5.34563 -5.27098
1.85226 6.87042 -0.360659
-1.73522 7.07809 -1.37337
-0.643927 6.74527 -1.0625
-2.67485 5.50044 -0.643173
-1.60177 5.1487 -1.95883
-1.45415 6.71186 -1.91768
0.0690708 4.99623 -0.47197
-1.3984 5.3653 -2.18494
-2.08945 5.32972 -0.130325
2.64129 5.11775 -1.71909
-1.88673 6.72498 -4.79763
-2.28269 5.9701 0.0475759
-1.40426 6.78813 -1.52181
-0.114751 7.02914 0.280098
-3.30823 5.97676 -1.47408
0.338811 5.05348 -4.94214
-2.67823 6.82509 -2.11764
2.09748 7.25483 -3.54579
1.20131 4.94229 0.378332
2.53067 5.05286 -1.34687
0.109523 5.41412 -3.45299
2.98486 5.48244 -2.22593
-1.83647 4.90559 -3.52552
-0.932592 6.47509 -5.22744
-1.61025 6.92767 -4.16291
0.411041 6.11057 -1.10358
-1.95787 5.51992 0.429168
-1.6937 4.90515 -4.5299
1.28589 5.09987 -3.08583
2.72481 5.19422 -2.16683
2.08948 5.28365 -4.31689
-1.11578 6.49069 -1.73604
1.2995 6.54242 -1.85672
2.78536 6.42368 -3.40976
1.07601 6.35808 0.717341
-2.36921 5.50381 -4.05608
-0.6704 5.74278 -3.1414
2.06251 6.38078 -4.44705
2.07957 6.903 -0.785089
3.38321 6.1176 -1.84374
1.33143 5.37931 -2.68888
0.899293 7.04364 -0.536587
-0.695111 6.34976 -1.6182
0.207581 6.93532 0.785006
0.18873 5.91824 -5.32991
1.55548 7.2443 -1.38377
2.48189 6.69223 -3.64471
-0.882863 5.92899 -2.16357
-2.38696 4.90945 -1.74801
-2.33396 4.74403 -3.20708
1.74317 4.92371 -3.57531
2.81955 5.45295 -1.39995
0.302475 6.99346 0.413123
3.12869 5.78736 -1.62897
3.30147 6.20164 -1.43786
2.41355 5.92431 -4.37743
-1.30691 5.39325 -1.74166
-0.81906 5.65138 0.839763
-3.07316 5.92392 -3.13349
2.41163 5.34801 -4.01428
-0.0884897 6.99157 -4.95679
2.0418 4.91618 -3.2415
-1.57811 7.19986 -0.110857
0.00635747 5.45865 -1.00739
0.230521 6.83529 -3.37663
-2.59985 6.81907 -2.89158
1.06551 5.76602 -2.63314
-1.37914 4.93502 -4.77973
1.23157 5.05092 -0.81194
-1.83859 7.14451 -3.101
-1.76828 7.25759 -0.454663
-0.975843 5.02782 -0.107958
2.10791 5.92899 -4.63141
-0.821019 6.14288 -1.88732
-0.891992 7.08919 -0.0471558
2.16714 7.28161 -3.14541
-0.554445 5.04137 -3.85634
-0.264866 5.04954 -5.24883
-2.10186 4.81831 -3.93864
-0.555395 6.35482 0.769541
-1.64784 5.14786 -2.43261
2.65836 6.05198 -0.418956
-0.395154 5.32459 -0.975178
-0.485612 4.87543 -0.833408
0.588542 6.97334 0.135878
1.34123 6.80021 -4.83228
3.06233 5.89285 -1.23915
0.431811 5.04858 -0.626226
1.6994 6.67956 -4.61811
-1.58914 5.12448 -2.85784
1.78765 7.05299 -2.9918
1.27441 6.88327 0.2476
-2.28711 7.03522 -1.02788
-2.23498 4.6878 -2.0694
-1.75062 5.29683 0.182735
-2.6242 5.08236 -2.9688
-0.496951 7.07223 0.597953
-2.5461 5.69139 -0.0504771
-1.9201 4.9074 -2.17806
1.78463 5.90602 0.308335
1.10996 6.87516 -1.28201
3.32889 5.89061 -2.95991
-1.9692 7.2709 -0.774329
-0.849332 6.95646 -4.67787
0.697397 6.32033 -5.21442
0.9712 4.82284 -3.51193
-2.49927 6.25439 -4.27122
-2.17427 6.63821 -4.62081
-1.15317 5.07593 -1.19633
-1.09482 4.89307 -0.543143
0.817621 6.23812 -2.59951
-0.933537 6.06433 0.731438
2.46211 7.06182 -2.45382
0.195948 6.99035 -0.0442907
-1.27226 5.71608 -5.039
0.598691 4.93034 -3.87488
-1.61073 5.43986 0.614047
-2.45586 5.10683 -1.35994
-2.34257 5.12428 -3.83883
3.20862 5.76243 -2.06627
-0.592196 5.00332 -4.28808
-2.72366 5.37679 -3.24397
-0.522617 5.96521 0.836547
2.52742 6.68891 -0.732292
-0.570637 6.07442 -1.28091
0.814774 6.67901 -1.16645
-0.106444 5.01267 -4.84911
1.26166 7.20142 -1.15089
0.562754 6.99699 -0.262543
-0.514757 7.06054 0.147817
-3.29646 6.26869 -2.92412
-0.995859 4.99924 -4.13067
-1.68025 7.1376 -0.959781
-2.15154 5.70145 -4.40427
1.21762 7.11267 -4.73567
-0.145895 4.96298 -0.879859
1.0291 6.9823 -3.94032
-1.02124 6.67278 -3.12053
-0.104974 6.99324 -4.51642
-2.42126 7.05642 -1.81957
-2.35421 4.71722 -2.83725
2.69258 6.79793 -2.72776
-0.602568 7.04591 -3.45291
-0.909157 5.92934 -2.86746
-0.908159 5.82151 -5.1929
-0.745338 6.23634 -3.20216
-1.25056 5.75996 0.707069
2.36747 7.00677 -3.41139
-1.43857 7.2183 -3.06877
-0.92212 5.40126 -5.15456
0.262134 6.34585 -5.2997
-2.25809 5.56975 0.205391
-2.06778 7.3045 -1.19551
-2.90574 5.53328 -2.93282
-2.75344 6.71704 -1.71516
-0.890954 5.26994 0.813365
