-0.822009 0.0243359 -0.433621
0.52448 0.313317 -0.289072
0.779272 -0.196803 -0.918256
0.936562 -0.309759 -0.69164
-0.0796442 -0.712641 -0.325794
-0.647167 -0.430422 0.59099
-0.253518 0.0633731 0.196476
-0.58117 0.222714 0.651682
0.0157957 -0.733175 -0.257985
-0.192839 0.0487972 0.173532
0.737365 0.0650586 -0.153103
0.456889 -0.64928 -0.329995
-0.895154 -0.303818 0.0217004
0.12315 0.452612 -0.632062
0.90554 -0.215351 -0.508356
-0.610082 0.199304 -0.072165
-0.250088 -0.602154 -0.972455
-0.922861 -0.220136 0.443167
-0.647401 0.0791002 0.218118
0.193862 0.446747 -0.604453
-0.613237 -0.527711 0.0200026
-0.124105 0.0418313 0.587958
-0.429205 -0.601323 -0.237648
-0.280283 -0.0746655 0.724914
-0.708226 0.0556044 -0.502818
-0.255493 -0.184944 -0.982452
0.0949717 0.214742 0.0573695
0.740543 0.143293 -0.333249
0.267566 -0.166232 -0.997568
-0.806663 0.0145879 0.338908
-0.645293 0.723553 0.736243
-0.0979709 0.0840338 -0.929118
0.242515 -0.126539 0.269021
-0.524288 0.0179915 -0.706419
-0.641444 0.740513 0.867731
0.592122 0.215427 -0.718363
-0.378316 0.322886 -0.969825
0.344672 -0.660361 -0.774965
0.64018 -0.541388 -0.275856
-0.846963 -0.0828021 -0.452578
-0.101801 -0.470236 0.0482289
-0.86522 -0.359876 -0.00318768
0.666333 -0.490001 -0.63387
0.684968 -0.364966 -0.881784
-0.541589 -0.147554 0.609224
0.637538 -0.537757 -0.463238
-0.910565 -0.0788481 -0.208408
-0.443399 0.0949984 0.186535
-0.346161 -0.345138 0.175831
-0.0260979 0.496863 -0.481168
-0.553841 -0.508166 -0.804054
-0.761227 -0.539795 -0.222884
-0.494883 -0.207157 0.599932
0.756744 -0.0488929 -0.92604
-0.101439 -0.548008 -0.626861
0.335882 0.418705 -0.411257
-0.715459 -0.385548 -0.536334
-0.900619 -0.246131 0.00802511
-0.54624 -0.0123714 -0.645407
0.639603 -0.0027854 0.0611837
-0.254787 -0.606835 -0.899378
-0.686412 -0.12365 -0.845934
-0.955756 -0.46957 0.0964907
0.0866649 0.336731 -0.871845
0.275428 0.263555 -0.991448
0.602402 0.154817 -0.0340137
0.621952 -0.32751 0.0776845
-0.321027 0.0786155 0.207716
0.467695 -0.621033 -0.63564
0.745532 0.107391 -0.412603
-0.290904 -0.0387343 0.239792
-0.896617 -0.299198 -0.0381318
-0.13466 0.387143 -0.678594
-0.618327 0.669929 0.898392
-0.450651 -0.617899 -0.313371
0.800485 -0.0236466 -0.313697
0.56971 -0.575368 -0.481686
-0.503809 0.0678022 -0.672984
0.0996339 -0.621583 -0.831992
0.448248 0.364048 -0.450852
-0.806009 0.412623 0.760898
-0.770501 0.0499097 -0.471907
-0.00683915 0.453917 -0.667924
-0.915352 -0.279576 0.563202
-0.927814 -0.505829 0.302163
0.627622 -0.188635 0.0951982
-0.59147 0.436951 0.622162
0.798612 -0.385637 -0.8028
-0.207921 0.311409 -0.263784
-0.277868 -0.539944 -0.667593
-0.677479 0.661275 0.939795
-0.088972 -0.0504028 0.201771
0.738801 0.0134652 -0.102613
-0.172078 0.370553 -0.87033
0.704613 -0.258022 -0.015501
-0.747758 -0.724554 0.194446
-0.752352 0.0401632 0.375422
-0.534893 -0.43579 -0.800346
-0.474295 -0.0504488 -0.985707
0.563074 -0.556448 -0.545205
-0.0535814 0.154788 0.801979
0.0454418 0.231479 0.0278336
-0.398213 -0.189711 0.378317
0.724639 -0.0409264 -0.0498173
0.617447 -0.340254 -0.921496
-0.765415 0.194943 0.709406
-0.207069 0.374336 -0.497032
-0.701599 0.0753339 0.163866
0.522168 0.332938 -0.44003
0.887288 -0.190227 -0.854237
-0.72088 0.447674 0.604369
0.350885 -0.704871 -0.591781
0.0185979 -0.507217 0.0600447
-0.219637 -0.0706313 0.223385
0.111479 0.111765 -0.927483
-0.358415 -0.584888 -0.241648
0.0597854 0.486785 -0.466582
-0.395734 -0.0858728 0.317474
0.670435 0.186611 -0.601463
0.0440819 -0.627793 -0.82009
-0.388946 -0.453682 -0.977984
-0.841079 0.0307411 -0.0727836
-0.76021 0.227685 0.544493
-0.453416 0.105096 -0.82775
0.118116 0.179804 0.113007
-0.595643 0.745811 0.902234
-0.209863 -0.522532 -0.621884
-0.810558 0.0784181 -0.112171
-0.514977 -0.438798 -0.976697
-0.328459 -0.106301 0.681355
-0.462545 -0.354821 0.560303
-0.889138 -0.425948 0.0509712
0.635512 0.20512 -0.666284
-0.0789662 0.297565 -0.101773
0.717018 0.161844 -0.273424
0.504501 -0.480403 0.00195038
-0.336833 0.246561 -0.35552
0.214651 -0.660919 -0.807169
-0.348334 0.135602 -0.795294
0.247046 -0.0563639 0.262371
-0.48678 -0.545847 0.189151
0.314897 -0.0784906 0.262946
-0.694914 0.32936 0.799974
0.176354 -0.0392128 -0.938014
-0.901344 -0.182136 -0.377802
0.348503 -0.72215 -0.344976
-0.139621 -0.245373 0.194012
0.541753 0.225712 -0.822646
-0.710383 -0.154436 0.610806
-0.022095 -0.0907909 0.224383
0.0325634 0.102384 0.675823
0.313836 0.103436 0.186699
-0.300186 -0.113395 0.586538
-0.00768732 0.281682 0.822584
-0.224475 -0.360945 -0.980049
-0.586154 0.670583 0.75325
0.349282 0.38623 -0.73079
-0.858526 -0.567787 0.0210081
-0.161658 -0.0240709 0.189428
0.693635 0.135747 -0.147648
0.25886 0.350978 -0.171655
-0.0479824 -0.369875 -0.935073
-0.126498 0.464711 -0.289753
0.218391 -0.704216 -0.194492
-0.288699 -0.061335 0.516778
0.318822 0.394057 -0.654595
-0.659288 -0.588726 -0.324162
0.237267 0.430764 -0.548223
-0.116857 0.0437886 0.170795
-0.949135 -0.159918 0.0706314
0.565779 0.269089 -0.223512
-0.216358 -0.418906 0.112802
0.409218 -0.68002 -0.363326
-0.972472 -0.221915 0.277976
-0.688017 -0.529443 -0.425489
-0.685092 0.0261945 -0.54838
0.47797 -0.58264 -0.771126
-0.748192 0.173463 0.578435
-0.0638205 -0.600574 -0.61831
-0.805161 0.00521453 0.418595
0.376941 0.396938 -0.460422
-0.313559 0.181364 -0.541329
-0.843194 -0.493398 0.0163905
0.290355 -0.536585 -0.99459
0.37224 -0.295547 0.241861
-0.435524 0.163686 -0.52617
-0.941976 -0.276777 0.391596
-0.301324 -0.570025 -0.198489
-0.145669 -0.511724 -0.581558
-0.0637507 -0.672542 -0.493258
-0.428492 -0.0541837 0.380024
-0.0635455 0.4823 -0.548136
-0.0658746 0.00995543 0.644757
-0.911371 -0.262405 -0.308054
0.024183 -0.688376 -0.654743
-0.545924 -0.588732 -0.148813
0.37461 -0.704033 -0.408726
-0.890203 -0.130123 0.0133037
-0.0117484 0.194357 0.847472
-0.0237794 -0.214989 -0.9377
-0.82556 -0.665149 0.36124
-0.200863 -0.286311 0.196382
-0.236051 0.202108 -0.929683
-0.490858 0.21362 -0.432371
-0.472515 -0.399322 -0.629049
0.138881 0.423199 -0.70465
0.224335 -0.497688 0.116406
-0.0841669 -0.423559 0.115141
-0.328946 0.366016 -0.9377
-0.881549 -0.062777 -0.347756
0.0931714 0.135861 0.151249
0.142368 0.30261 -0.131247
0.00954195 0.255422 -0.0144525
-0.673399 0.170042 -0.12205
-0.526179 -0.408712 0.583946
0.402718 -0.627352 -0.183191
0.259396 -0.251349 -0.993297
-0.238069 0.380703 -0.894971
0.21015 -0.599757 -0.860226
-0.406712 -0.117953 0.385284
0.15807 -0.75197 -0.402924
-0.957441 -0.373816 0.300083
0.0137721 0.20249 -0.930429
-0.867534 -0.661631 0.31058
-0.666515 -0.647711 0.399329
0.218069 0.409231 -0.19799
0.014775 -0.695125 -0.203131
-0.740843 0.402815 0.534406
0.437946 0.172283 0.0860073
0.281972 -0.685852 -0.770773
-0.298536 -0.571552 -0.462743
-0.8969 -0.1907 0.00712035
-0.222836 0.000991486 -0.931818
0.00124652 0.389495 -0.804181
0.216094 -0.44447 -0.933612
0.0731744 -0.656481 -0.162631
-0.500596 0.113565 -0.880395
-0.384526 0.26182 -0.188257
-0.844104 -0.162858 0.581313
-0.638646 0.0664175 0.415762
0.919065 -0.239317 -0.813346
-0.0345756 0.0610878 -0.929238
-0.741608 -0.237279 0.614124
0.574824 0.298184 -0.455229
0.810476 -0.238711 -0.450292
-0.620745 0.00453451 -0.983091
0.554228 0.0957947 0.0735324
-0.86736 -0.075243 0.0239433
0.647324 0.0944158 -0.858646
-0.906489 -0.354598 0.550798
0.726976 -0.312436 -0.0762581
-0.444007 -0.190699 -0.973713
-0.690454 0.0424213 -0.97156
-0.0720183 -0.705817 -0.879676
0.255969 -0.20187 0.270134
-0.226606 0.119217 0.130304
-0.681901 -0.027431 0.623755
-0.356693 -0.567526 -0.496875
0.39315 0.292185 -0.117115
-0.614516 -0.536132 -0.469456
-0.100713 0.487652 -0.491748
0.140977 -0.320891 -0.936777
-0.897369 -0.0203431 -0.174944
0.552653 0.148964 0.0166708
-0.610066 -0.112294 -0.643057
-0.698634 -0.533842 -0.0808712
0.807927 -0.332677 -0.84983
0.657216 0.107117 -0.754717
-0.261533 -0.260518 0.220353
-0.625991 0.548258 0.820715
-0.246816 0.148072 -0.644781
-0.442514 0.112977 -0.683425
0.789686 -0.306541 -0.461458
-0.941131 -0.373426 0.489902
0.0526389 0.327287 0.971788
-0.664703 0.0051002 -0.856455
0.985211 -0.227577 -0.603829
0.310857 -0.331603 0.241662
-0.454414 -0.21824 -0.711045
0.481084 -0.526051 -0.813299
-0.475545 -0.409809 0.548862
0.270087 0.424243 -0.598472
0.207237 -0.734049 -0.630367
0.103952 -0.176064 0.255667
-0.883235 -0.392311 -0.280262
0.467578 0.332984 -0.766858
-0.568798 0.0990579 -0.908462
0.584855 -0.498704 -0.74913
-0.410542 -0.00050632 0.491935
-0.0847325 0.456884 -0.593805
0.272983 0.203305 -0.989273
-0.174144 0.21985 -0.92783
0.0257598 0.0495309 -0.929779
0.530842 0.283522 -0.717758
-0.960332 -0.228699 0.0633679
0.141895 0.376841 -0.831766
0.425383 -0.565398 -0.899271
-0.57674 0.0988725 -0.972757
-0.489849 -0.474416 0.330147
0.952649 -0.297136 -0.628182
-0.766086 0.367327 0.799979
0.69436 -0.374941 -0.0846054
-0.607201 -0.000948572 -0.824464
-0.0790787 0.496589 -0.42379
-0.465006 -0.25213 -0.82023
-0.517244 -0.0828028 0.636062
-0.212953 0.413132 -0.421827
-0.174124 -0.338532 -0.941877
-0.311922 0.19878 -0.978375
0.480246 -0.00335883 0.185718
0.823476 -0.128036 -0.498798
-0.152238 0.406311 -0.241862
-0.447108 -0.434569 -0.698815
-0.304345 0.210935 -0.465942
-0.655319 -0.468027 -0.958987
0.756688 0.104221 -0.278011
-0.491052 -0.338929 -0.809688
-0.173876 -0.489377 0.0167899
-0.701571 0.254749 0.770973
-0.734842 0.337255 0.590848
0.133343 -0.752855 -0.507284
-0.747277 0.0405836 0.456142
-0.0777457 0.349839 -0.965913
-0.877731 -0.142114 0.539123
0.469764 0.354269 -0.392582
0.0615638 -0.298182 -0.937701
-0.638595 -0.603593 -0.258579
-0.805357 -0.686827 0.161896
-0.19463 -0.408201 -0.940566
-0.4279 0.19016 -0.463076
-0.807492 0.469591 0.790844
0.668127 -0.14628 0.046898
0.839373 0.0905014 -0.713863
-0.793818 -0.729888 0.233484
0.161992 -0.46089 -0.934736
-0.500858 0.171505 -0.499265
-0.914312 -0.152842 -0.056824
-0.137005 0.200268 0.0433166
-0.707104 0.267 0.493255
-0.1531 -0.387488 0.125584
-0.83694 -0.0908235 0.55068
-0.907591 -0.127076 -0.329989
0.140589 0.404303 -0.772996
-0.682528 0.104811 0.0345793
-0.725469 0.638008 0.869749
0.135815 0.460517 -0.257188
-0.0141054 -0.0903471 -0.934987
-0.109654 0.107436 0.83269
0.344291 0.346344 -0.820459
0.454059 0.0617371 0.165329
-0.579176 -0.633319 0.1246
-0.658893 0.112685 -0.500523
-0.664455 -0.570347 -0.134097
-0.385616 0.266292 -0.883325
-0.323561 -0.402079 0.128988
0.0658912 -0.568887 -0.985697
0.309328 0.410403 -0.550194
-0.81988 0.0793746 -0.34402
0.40224 -0.235258 0.243239
0.411038 -0.642583 -0.670068
0.202764 -0.0763259 -0.983189
-0.58969 0.369862 0.582586
-0.725147 -0.0335116 -0.898282
-0.122617 0.3633 -0.744071
-0.207698 0.224616 -0.00276499
0.666672 -0.294322 0.0375664
0.153981 0.0393017 -0.929433
0.34689 -0.568879 -0.9817
-0.671015 -0.498221 0.559608
-0.5973 0.7263 0.7185
-0.525438 -0.129559 -0.733115
0.643733 0.253758 -0.353171
-0.592455 0.0370077 0.562611
-0.210783 -0.595763 -0.2504
-0.612095 0.457822 0.772391
0.276256 -0.744957 -0.342164
-0.548212 0.163783 0.0646684
0.419702 -0.162797 0.238852
-0.859301 -0.152019 -0.439654
0.861778 -0.332702 -0.79708
0.180885 -0.735146 -0.556623
0.0391806 0.178056 0.105354
0.809002 -0.202489 -0.380811
-0.785971 0.12213 -0.154589
-0.673558 -0.501441 -0.481343
0.801314 -0.276269 -0.387588
0.428167 -0.450119 0.111816
-0.776969 0.0218567 0.0640568
-0.227907 -0.593115 -0.83793
-0.113159 0.224533 -0.933946
-0.502538 0.127995 0.133062
-0.174735 0.436968 -0.485105
0.400057 -0.412616 0.171355
-0.919544 -0.0698224 -0.285592
0.473047 0.363109 -0.573464
-0.575343 0.385426 0.662929
-0.582769 -0.542291 0.410578
-0.656937 0.0829309 0.100848
-0.820229 -0.141666 -0.495424
0.4499 0.337872 -0.264294
-0.135487 -0.139037 -0.937957
-0.900403 -0.256174 -0.37675
0.409297 -0.606422 -0.118597
-0.785018 -0.504826 -0.157829
0.482464 -0.521968 -0.941144
0.0387524 -0.0275983 -0.933252
0.174375 -0.699179 -0.688241
-0.9125 -0.4034 0.3684
0.417247 -0.270577 -0.993915
-0.935076 -0.156788 -0.115144
-0.830463 -0.213087 -0.491628
-0.372629 -0.377182 -0.984809
-0.13547 -0.532297 -0.95661
0.15544 -0.610544 -0.849616
0.533515 0.168111 -0.850762
-0.781313 0.0852027 -0.404655
-0.886396 -0.330694 -0.3307
0.540979 0.197399 -0.044525
-0.651142 0.556936 0.573019
-0.545158 -0.58209 0.171421
-0.699602 0.591526 0.592877
-0.106449 -0.655914 -0.283534
-0.860014 -0.403634 -0.0685196
0.422867 0.124432 0.139261
-0.54325 -0.267718 0.607352
-0.497504 -0.184778 -0.788197
-0.742103 0.253156 0.610235
-0.752242 0.055063 0.304738
-0.376165 0.169204 -0.572953
0.523738 -0.372265 0.13877
-0.470067 -0.276852 0.580173
0.112961 -0.750721 -0.449079
0.0430392 -0.748925 -0.32246
-0.671991 -0.523488 -0.0061405
-0.599543 -0.579807 -0.897805
-0.238981 0.342946 -0.43841
-0.493188 0.0986294 -0.611995
-0.104234 -0.597342 -0.215162
0.116336 0.485918 -0.409501
0.41241 -0.550589 -0.0618648
0.91694 -0.30055 -0.767208
-0.171568 -0.013162 0.58015
-0.459492 -0.363293 0.486704
0.185552 0.146002 0.142196
-0.771863 0.051492 0.139388
0.642111 -0.448297 -0.752352
0.809003 -0.0828046 -0.344606
0.617027 0.108645 -0.795657
0.633173 -0.498101 -0.690872
-0.212918 -0.662304 -0.897165
-0.797019 -0.363963 0.593708
-0.195656 0.293693 -0.638263
0.409355 -0.33116 -0.994503
-0.570116 -0.083697 0.594059
-0.317905 0.147991 -0.613942
0.652455 -0.437351 -0.0932777
0.717053 -0.172793 -0.949076
0.213534 0.176531 -0.936511
-0.435718 0.207952 0.0267309
0.313077 0.250708 0.0273609
0.627826 0.255463 -0.42389
-0.459543 -0.493157 0.251487
0.069251 -0.0960297 -0.935121
0.35972 0.029386 -0.996865
-0.205185 -0.353873 0.162879
-0.641633 0.361964 0.518836
0.145196 -0.500456 0.107259
-0.0876299 -0.0743392 -0.9339
0.347 0.2828 -0.9767
-0.80433 -0.626397 0.0274631
-0.956198 -0.156993 0.292208
-0.830382 0.0845735 -0.184944
0.756732 -0.377861 -0.455292
-0.754535 0.297455 0.539744
-0.955992 -0.574437 0.213502
-0.85787 -0.521161 0.486367
0.497924 0.349824 -0.506947
0.671506 -0.219421 0.0404392
-0.0252023 0.233873 0.748681
-0.695846 -0.688779 0.34054
0.411986 0.313545 -0.199172
-0.350813 -0.562651 -0.846812
0.503288 -0.0705736 0.189185
-0.112428 -0.527645 -0.694497
0.0216787 0.194304 0.783551
0.0828479 0.301964 0.893467
0.632578 0.159856 -0.725273
-0.0253201 -0.167119 0.228043
-0.611166 -0.517491 -0.850174
0.339667 0.406996 -0.340457
0.894737 -0.347698 -0.635567
0.543751 0.0472396 -0.947328
0.0843234 -0.722975 -0.629589
0.734496 -0.253874 -0.927093
0.156285 -0.622695 -0.908059
0.655298 -0.0705952 0.0586124
-0.450126 -0.45127 -0.605329
0.636672 -0.369818 0.0292674
-0.490281 -0.535969 -0.799023
-0.897105 -0.0114286 -0.248506
-0.473214 -0.00683483 0.373075
0.754731 -0.280637 -0.136775
-0.621091 0.194152 -0.142929
-0.573796 0.0296728 0.493519
-0.77121 0.111336 0.588967
-0.169238 -0.58707 -0.981791
-0.44275 -0.304278 0.435447
-0.374362 0.223075 -0.0114198
-0.47543 -0.0431132 0.669911
0.759966 -0.0535297 -0.113699
-0.110295 0.0714356 0.911819
0.410841 0.0188699 0.210071
0.432035 0.385721 -0.517955
0.526108 0.239006 -0.102819
-0.315767 0.111129 0.69815
-0.511266 0.0673962 -0.814899
0.706432 -0.093589 -0.955813
-0.556975 -0.180262 -0.824842
0.61487 0.111125 0.0124364
-0.755058 -0.507677 -0.0889765
-0.486546 0.120796 -0.55819
0.68434 -0.0273947 0.00780422
0.803264 -0.24381 -0.322826
-0.498283 -0.250076 -0.984253
-0.0675142 0.248723 0.81911
-0.0619686 0.387826 -0.775215
-0.609011 0.158772 0.659713
0.503269 0.154946 0.0621518
-0.251184 -0.501043 -0.00484203
-0.290158 0.0242324 -0.951777
-0.253367 -0.589646 -0.322247
-0.370345 -0.223622 0.30967
-0.776685 0.143356 -0.214401
0.270643 -0.423617 -0.936476
-0.94572 -0.270844 -0.225563
-0.727298 -0.647497 0.427727
-0.883432 -0.0216951 -0.0965998
-0.189679 -0.532448 -0.0497492
-0.214484 0.197404 -0.762201
-0.752436 0.0691141 0.0204358
0.769356 -0.343554 -0.51806
-0.649567 0.296575 0.497394
-0.627622 0.0649109 -0.881186
-0.530188 -0.502419 0.517056
-0.14383 0.236091 0.00179081
0.54264 -0.0224673 0.14873
0.821562 -0.0681489 -0.512853
0.160796 -0.738774 -0.248668
-0.835897 -0.580199 0.449698
0.16781 0.277771 -0.98928
0.082349 0.189461 -0.92971
0.211813 -0.707305 -0.753156
-0.619198 -0.151103 0.6056
-0.915402 -0.505779 0.0446665
0.323112 0.359729 -0.199064
0.896085 -0.0860594 -0.511625
-0.573553 -0.621318 -0.268398
-0.139026 0.206926 0.823178
0.0233544 0.102919 0.148391
-0.342537 0.0191525 0.789186
0.385868 -0.0988486 0.248427
-0.467297 -0.359246 -0.721846
-0.449745 -0.510819 0.0138021
0.578208 -0.238783 0.139149
0.698335 -0.100428 -0.000333347
0.236395 -0.746599 -0.401113
-0.115934 0.349179 -0.815866
-0.757979 0.536178 0.888097
0.283472 -0.556029 -0.0844551
0.46086 -0.678527 -0.412158
0.288667 0.379514 -0.783304
-0.264572 -0.386082 0.15681
-0.560463 -0.361296 -0.842128
-0.836582 -0.407193 -0.395496
-0.888317 -0.00851911 -0.319598
-0.255615 -0.532334 -0.817199
0.293996 -0.669757 -0.181598
-0.348761 0.256376 -0.132656
0.76884 -0.00329394 -0.168826
-0.794047 -0.543771 0.50973
0.238293 -0.335628 0.243324
-0.342642 0.212107 -0.817197
-0.21256 0.190748 0.0661496
-0.636493 0.737424 0.798491
0.559712 -0.48164 -0.0291627
-0.273328 0.202537 0.051806
-0.44779 -0.483686 -0.976698
-0.048768 0.275848 -0.0309492
0.558804 0.256116 -0.765012
-0.228196 0.372918 -0.360249
0.688302 -0.463273 -0.203758
0.117789 -0.633179 -0.974471
0.52068 -0.585612 -0.586194
-0.658629 0.207587 -0.300156
-0.432364 -0.338318 0.373086
0.174492 -0.324373 0.245998
-0.868289 -0.676245 0.199458
-0.421098 -0.535349 -0.505203
-0.258819 0.212316 -0.513238
0.343035 -0.630544 -0.169446
0.279303 0.446296 -0.431345
-0.600737 -0.604499 -0.342743
-0.403938 -0.605825 -0.187824
-0.737358 -0.253793 -0.578418
-0.155164 0.0323812 0.874812
0.539702 -0.439032 0.0461185
-0.761776 -0.600941 0.475124
0.0716581 0.383964 -0.827049
0.0458944 0.337028 -0.92476
0.0845379 -0.757084 -0.384776
0.444767 0.209764 -0.925313
-0.782953 0.442315 0.823284
0.254214 0.261321 -0.0337206
0.784164 -0.24469 -0.197937
0.045721 -0.495679 -0.930816
-0.533309 -0.140553 -0.675165
-0.612753 -0.0401127 -0.628445
-0.284433 0.157831 0.1059
-0.139721 -0.462588 -0.93
-0.0788266 0.267294 -0.987657
-0.435239 -0.0961473 0.688326
-0.0162522 -0.397274 0.158526
-0.64673 -0.472706 -0.896699
0.00694366 0.425223 -0.732628
0.802657 -0.0284902 -0.398263
-0.20077 0.0940202 0.588173
0.608561 0.060833 0.0570906
-0.416431 0.0102258 -0.984665
-0.438932 -0.492075 0.162336
0.00489792 -0.54221 0.000476386
-0.295221 0.0682038 0.819421
-0.407841 0.253752 -0.330755
-0.616484 -0.703878 0.127234
0.875194 -0.101719 -0.86084
-0.617109 0.0812616 0.145597
-0.665363 -0.155286 -0.629561
0.430045 0.0583178 -0.986818
0.261569 0.0921 -0.936096
0.370571 -0.672062 -0.71886
0.580548 -0.562791 -0.211329
-0.734137 0.173482 -0.332263
-0.739324 -0.609935 0.0102304
-0.0461862 -0.710614 -0.27056
-0.954035 -0.551332 0.0884078
0.275968 -0.711876 -0.229991
-0.579281 0.161514 0.600164
0.801752 -0.138105 -0.243567
-0.773292 -0.194848 -0.541049
-0.930024 -0.0716398 0.151246
-0.617966 -0.564709 -0.960176
0.958155 -0.248822 -0.747624
-0.626974 -0.569351 -0.403635
-0.536035 0.0473337 0.335545
0.597934 -0.483515 -0.0961984
-0.630833 0.210072 0.716966
-0.609108 0.167116 0.4773
-0.512756 -0.508033 -0.9767
-0.275766 0.150596 -0.927108
-0.0159828 0.17763 0.67442
-0.66276 -0.703826 0.0732339
-0.657107 -0.358349 0.610734
-0.29925 0.102256 -0.931553
0.795658 -0.0113594 -0.548465
-0.532819 -0.628589 -0.900564
-0.138564 0.115792 0.614931
0.657432 0.0457067 0.00963442
0.122897 -0.749651 -0.318295
-0.378449 0.062013 0.697202
-0.293771 0.232943 -0.00415008
0.00185589 0.491644 -0.419012
-0.953124 -0.283677 0.45327
0.724357 0.0668589 -0.871152
-0.465521 0.0251536 0.307398
-0.0978737 -0.318877 -0.937654
-0.430128 0.146836 0.137434
-0.396041 0.250873 -0.0777843
0.4818 0.0861964 -0.937555
0.491237 0.340329 -0.704818
-0.8629 -0.641746 0.0569856
-0.275834 -0.582295 -0.255938
-0.50431 -0.599276 -0.839925
-0.647214 0.39799 0.797272
-0.0475486 0.0860264 0.162012
0.176939 0.32862 -0.869058
0.884479 0.0518224 -0.752179
-0.600925 0.0967687 0.607839
0.953434 -0.249783 -0.553594
0.332784 -0.194069 -0.991323
0.699142 0.0843248 -0.0979594
0.62035 -0.381426 -0.862225
-0.59943 -0.581773 0.305668
-0.403799 -0.0648199 -0.987953
-0.547989 -0.300421 -0.981154
-0.628016 -0.480347 -0.526966
0.307843 -0.148847 0.269165
-0.678103 0.155814 -0.0681621
-0.598731 0.105494 0.459947
-0.669104 -0.00640146 -0.594062
0.196217 0.428612 -0.667643
-0.21432 0.187995 -0.695951
0.308841 -0.474916 -0.990221
-0.837117 -0.474073 0.535046
-0.653338 -0.410973 -0.956335
-0.124471 -0.0281257 0.640292
0.692127 -0.389993 -0.749601
-0.640127 0.207577 -0.22206
-0.203411 0.266936 -0.982436
-0.0101003 -0.617737 -0.794247
-0.729363 0.347543 0.516391
0.456385 -0.616139 -0.211992
0.271783 0.340267 -0.842245
0.025776 0.493697 -0.301148
0.202303 -0.139413 -0.989077
-0.201586 0.147562 -0.924324
-0.382513 -0.491416 0.0351826
-0.996674 -0.311347 0.182829
-0.393013 -0.612931 -0.290093
0.435637 -0.507195 -0.00136658
0.112009 0.351399 0.820529
0.806265 -0.156195 -0.314792
-0.487358 -0.1787 -0.704522
-0.575945 -0.459995 -0.564656
-0.612715 -0.639817 0.263874
-0.223963 0.254573 -0.569523
0.521919 -0.606168 -0.22529
0.701739 0.104609 -0.813983
-0.00626763 -0.0242455 0.21374
-0.00759446 0.290042 0.947949
-0.274472 0.0792434 0.571993
0.520706 0.274961 -0.16494
-0.155964 0.169171 0.876879
-0.515831 -0.334228 0.594875
-0.252634 -0.0261002 0.682872
-0.838435 -0.0567141 0.432213
-0.932646 -0.324833 -0.168106
0.610793 -0.552216 -0.344985
0.813312 -0.165806 -0.446389
0.365884 -0.436953 -0.993565
-0.523028 0.249528 -0.171293
-0.69154 -0.604831 0.475332
0.654193 -0.143267 -0.979266
0.681799 0.148544 -0.664833
-0.121919 -0.523241 -0.0194789
0.275113 -0.387403 0.21107
-0.68833 0.540743 0.870804
-0.91938 -0.0806651 0.281838
-0.406235 0.178221 0.0797335
-0.0122087 -0.509508 -0.929729
-0.200103 0.374936 -0.969987
0.122961 0.333181 -0.917413
0.280681 0.430759 -0.28942
-0.604664 -0.516617 0.54182
-0.55792 -0.570587 0.246466
0.286624 -0.00602611 0.249302
-0.658526 -0.691938 0.262858
0.203573 0.442608 -0.258892
-0.579543 0.751852 0.786085
-0.209671 0.0196487 0.731872
0.386251 0.35739 -0.236193
-0.717323 0.190685 0.482948
-0.287768 -0.558475 -0.1281
-0.582441 0.182063 -0.00243204
0.0331968 0.301797 -0.987097
-0.265901 -0.528869 -0.0665918
0.0824222 -0.648665 -0.889907
0.96831 -0.032046 -0.671638
-0.636514 0.0296582 0.619697
-0.593958 -0.183797 -0.658369
0.243821 0.249807 0.0483194
0.526829 0.324691 -0.361933
-0.866604 -0.678056 0.125238
0.511987 -0.386667 -0.961804
0.682454 -0.493361 -0.44186
0.670001 0.0496177 -0.918749
-0.1487 -0.493379 -0.657425
-0.860142 -0.113217 0.474499
0.0405085 0.271937 0.757613
0.497821 0.19176 0.000637203
0.88287 0.0680708 -0.676774
-0.465264 -0.565395 -0.978011
-0.584619 0.687481 0.839805
0.348539 -0.577801 -0.916415
0.369159 0.412568 -0.528069
0.824921 -0.35371 -0.621313
-0.140708 -0.316713 0.159557
0.237505 0.116318 0.174701
0.682536 -0.482275 -0.513027
-0.574702 0.237663 0.587706
0.71344 0.123107 -0.61164
-0.628238 0.334522 0.762098
-0.618854 0.135755 0.052938
-0.79341 -0.514242 -0.283861
-0.0578216 -0.642411 -0.984386
0.781552 0.0238255 -0.369128
0.445431 0.288817 -0.829693
-0.685851 0.702957 0.941453
-0.524462 -0.429647 -0.597193
-0.666534 0.135417 0.453445
-0.135682 -0.704112 -0.892831
0.509575 0.31795 -0.594803
-0.139709 0.264922 -0.983911
0.00712227 0.483624 -0.540127
-0.714925 0.0760511 0.245492
-0.909717 -0.0359492 0.23242
-0.688947 -0.660518 0.0349182
-0.783609 -0.00367578 0.503592
0.413658 0.384274 -0.592221
-0.307897 0.127874 -0.681314
0.117283 -0.106802 0.254584
-0.583546 0.048009 0.428109
-0.400525 -0.175991 0.510668
-0.159837 0.0616424 0.793076
0.790833 -0.279201 -0.260811
-0.455358 -0.414067 0.358298
0.230747 -0.580824 -0.125294
-0.0195153 0.334576 -0.96722
0.324366 -0.715674 -0.284589
0.539678 -0.0180135 -0.985311
-0.729569 0.47587 0.857043
0.743562 -0.170945 -0.0743051
-0.0808624 -0.203952 0.210639
-0.842551 -0.454849 -0.293399
-0.650457 -0.230932 -0.636255
-0.820576 -0.286027 -0.48115
-0.694053 -0.734506 0.134913
-0.214244 -0.544354 -0.552639
-0.933522 -0.283747 -0.109013
-0.490807 -0.529091 0.118089
0.692959 -0.4202 -0.146448
0.0578547 -0.716511 -0.520672
-0.582569 0.177993 0.537636
-0.624356 0.0780591 -0.546899
0.809791 -0.0853949 -0.437288
-0.608793 -0.0783354 -0.982056
0.678351 -0.301816 -0.932341
0.688814 -0.332665 -0.0184792
0.610793 0.259676 -0.499884
-0.667381 -0.21236 0.614793
-0.495981 0.019625 -0.98439
-0.459977 -0.0223581 0.451902
-0.490079 0.0649247 -0.746113
-0.572518 0.305356 0.629936
-0.434027 -0.242677 0.47579
-0.289548 0.119659 0.16696
-0.0307962 0.352674 -0.902249
0.680603 -0.444934 -0.693372
-0.589406 -0.418996 -0.976383
-0.158925 0.196159 0.750024
-0.638919 0.273137 0.749786
-0.119777 -0.392582 -0.934694
-0.852365 -0.400015 0.564484
-0.425045 0.22762 -0.395013
0.412608 -0.672993 -0.598622
-0.176756 0.27135 -0.0515094
-0.920895 -0.0887156 -0.142646
0.740451 0.0967597 -0.557283
-0.681794 -0.0837509 -0.608227
-0.0648175 0.0750503 0.611158
-0.251758 0.109915 0.833974
-0.16199 -0.655833 -0.839108
-0.713092 -0.443818 0.584659
0.0679005 0.0117937 0.222662
0.789881 -0.081347 -0.187677
-0.0620359 0.0144357 0.19101
-0.578097 0.0768891 0.217286
0.488752 0.108161 0.113757
0.338638 0.0395274 0.2228
-0.89131 -0.396481 -0.146939
-0.722971 0.115776 0.467116
0.465473 0.223712 -0.0575632
-0.924909 -0.446292 0.326473
0.569567 0.274133 -0.575576
-0.279791 -0.576535 -0.397379
0.918366 -0.302085 -0.571662
-0.450699 -0.398496 -0.978214
-0.573484 -0.52811 0.337154
0.64514 0.225838 -0.549969
-0.715063 0.518396 0.711749
0.995211 -0.168423 -0.649553
-0.728201 0.469939 0.540865
0.0868097 -0.53097 0.0478499
0.766509 -0.318581 -0.199458
0.816744 0.0881829 -0.773922
-0.180907 -0.555158 -0.374022
-0.934821 -0.347297 0.422657
-0.938333 -0.13046 -0.259462
-0.627874 -0.597121 0.445331
-0.768772 0.154785 -0.274277
-0.271438 0.272865 -0.348692
-0.706359 -0.72311 0.239343
-0.182524 0.00160755 0.671627
-0.209778 0.0365442 0.553952
-0.522979 0.108258 -0.981003
-0.443188 -0.501539 -0.554873
-0.891934 -0.0659392 0.342115
-0.678031 0.682499 0.843732
-0.727614 -0.372302 0.605193
-0.406037 -0.123386 -0.965519
-0.3145 -0.148269 -0.965577
0.28975 -0.600536 -0.140155
-0.988332 -0.239022 0.205128
-0.689691 0.177466 -0.190974
0.178046 0.358798 -0.15818
0.112317 -0.513076 -0.959298
-0.854119 -0.694943 0.257224
0.627172 -0.261354 0.0921155
0.581394 0.25973 -0.658621
-0.169179 0.461573 -0.371001
-0.0332453 -0.684396 -0.553189
-0.557616 -0.585702 -0.389879
-0.206844 -0.501818 -0.765034
0.178278 -0.459712 0.161288
-0.586394 -0.253431 -0.652157
-0.663549 0.0771254 0.289272
-0.696738 -0.446192 -0.513778
-0.395073 -0.50963 -0.587575
0.322372 0.319734 -0.893963
0.691201 -0.487367 -0.267488
0.0163099 0.34207 -0.860669
-0.365333 -0.0524532 0.257808
-0.433141 -0.024678 0.711406
-0.461183 -0.298827 -0.763356
0.182515 -0.253158 -0.943525
0.612546 -0.276978 -0.961694
0.409313 -0.204761 -0.984208
-0.7633 0.13945 0.531347
0.304704 -0.722156 -0.411756
-0.233452 -0.0391736 0.549527
-0.359608 -0.0514038 0.470808
0.369505 -0.515038 -0.0169537
0.243363 -0.732716 -0.53214
0.0878867 0.43203 -0.200258
-0.652062 -0.558337 0.514959
0.478926 0.151805 -0.891457
-0.0377408 0.399473 -0.187661
0.330814 0.269798 -0.0964739
0.440738 0.278506 -0.889903
-0.970639 -0.5166 0.152786
0.594181 -0.574427 -0.415608
-0.0737991 0.108061 0.943917
0.306072 -0.0248014 -0.994159
-0.24301 0.24857 -0.0529732
0.276061 0.0388476 -0.986174
0.209085 -0.541136 0.0486663
0.220413 0.0289462 -0.938529
0.0891493 0.235682 0.781668
0.7798 0.0803193 -0.831228
0.977214 -0.245225 -0.678255
-0.481916 -0.348082 -0.652228
-0.168073 0.317178 -0.211162
0.555586 0.311287 -0.52338
0.151791 -0.532074 0.0550719
0.555833 -0.326936 -0.956565
0.500041 -0.426039 0.109362
0.253174 0.283576 -0.0895933
-0.522381 0.0528201 0.265319
-0.419281 -0.615282 -0.956134
-0.275184 0.0178297 0.523295
0.343844 -0.267305 -0.993434
-0.52494 -0.226161 -0.676751
0.181867 0.324951 -0.951683
-0.339665 -0.531609 -0.70968
-0.307935 -0.367122 -0.983213
0.71711 -0.448425 -0.32448
-0.276339 -0.556089 -0.603109
-0.533934 -0.298051 -0.657419
-0.187098 -0.481158 -0.956215
-0.435243 -0.58766 -0.847633
-0.100196 0.169595 0.935276
0.164138 0.230031 0.047699
-0.164768 -0.0362529 -0.931303
-0.403698 0.262028 -0.260883
0.642239 -0.0685216 -0.974914
-0.0860673 -0.668031 -0.817456
0.331195 -0.229957 0.263059
0.582576 -0.529383 -0.147564
0.697117 -0.471248 -0.385245
-0.662709 -0.592964 0.0204149
0.73053 0.00690784 -0.916739
0.35458 -0.370651 0.214714
-0.4098 0.221729 -0.981487
-0.865305 -0.609819 0.390162
0.0881037 0.0380053 -0.929996
0.0976942 -0.464364 -0.930198
-0.743841 -0.676885 0.0487155
-0.402529 -0.133583 0.448215
0.720033 0.167036 -0.386475
-0.98043 -0.199327 0.132082
0.0848762 0.35928 0.933496
0.920525 -0.0593877 -0.811271
-0.746815 -0.00559774 -0.511296
-0.212043 -0.506636 -0.691915
0.3751 0.203852 0.0782878
-0.129923 -0.619926 -0.792527
-0.691657 -0.0572143 -0.845414
-0.644197 -0.183059 -0.977163
-0.432975 -0.210071 0.548001
-0.7308 -0.11862 -0.894549
-0.397061 -0.546476 -0.978001
-0.501772 -0.497182 0.052783
-0.141513 0.366676 -0.962551
0.537155 -0.494709 -0.802762
0.431776 -0.491183 -0.991122
-0.322728 0.27952 -0.827225
-0.567492 -0.0546002 -0.790704
0.439441 0.13104 -0.963174
-0.747621 -0.717279 0.107856
-0.955429 -0.506739 0.232273
-0.336629 -0.110442 0.615984
0.831497 -0.381468 -0.673423
0.479175 -0.565648 -0.0958213
-0.804778 -0.711942 0.306336
0.704528 0.165943 -0.53829
-0.508358 -0.454381 0.413081
-0.9128 -0.58173 0.0516239
0.110262 0.314068 -0.973932
0.0964306 0.488197 -0.328569
-0.553636 -0.55677 0.101452
-0.0848418 0.179962 0.078663
-0.544255 -0.566969 -0.976081
0.703588 -0.452029 -0.575785
0.438455 -0.0886364 -0.982719
-0.576713 -0.624229 0.207183
-0.271216 -0.521961 -0.73607
0.438742 0.210253 0.0184479
-0.715633 -0.566268 -0.28234
-0.148827 -0.170992 0.204194
-0.512381 0.201635 0.0152691
0.482969 -0.0523764 -0.99729
-0.758464 0.0740858 0.641344
0.462612 0.353106 -0.330844
0.208031 -0.207626 -0.986551
0.200507 0.22173 -0.987735
-0.135639 -0.199695 -0.941066
-0.682544 0.189199 -0.373302
-0.742283 -0.725289 0.293076
-0.659516 0.699167 0.686122
0.389309 0.377166 -0.661754
-0.825707 -0.0486392 0.494977
0.373572 -0.38285 -0.990754
0.323408 -0.398262 -0.948649
0.221558 0.448105 -0.328697
-0.284355 0.17485 -0.78934
0.308556 0.209159 0.0914914
-0.231871 0.0460186 0.858778
-0.920644 -0.62956 0.10032
-0.099667 0.222171 0.766763
0.145435 0.18058 -0.929428
-0.096068 0.492563 -0.356321
-0.980293 -0.378297 0.232099
0.0505431 0.323206 0.820706
0.196852 0.258137 0.0059451
-0.589397 -0.326501 0.609915
-0.232387 -0.461183 0.0483327
-0.250135 0.330244 -0.986894
-0.83485 -0.412444 0.00977011
-0.0821868 -0.357431 0.156901
0.294632 0.308353 -0.962151
-0.818183 -0.481086 -0.223119
0.579656 0.280893 -0.384689
0.527541 -0.498579 -0.879219
0.0418803 0.263363 0.935265
-0.0730457 -0.627841 -0.54932
-0.9841 -0.374492 0.161871
-0.0197278 -0.291105 -0.9377
-0.865966 -0.0163812 0.298849
-0.6585 0.47529 0.824165
-0.0188459 -0.668514 -0.832775
-0.366703 -0.340331 0.251789
0.690185 0.0922599 -0.715494
0.682273 -0.0166812 -0.951531
0.0328674 0.219477 0.705932
0.794053 0.0132329 -0.878838
-0.584076 -0.21298 0.611254
-0.154948 -0.271332 -0.944266
-0.757746 -0.686885 0.370705
-0.429331 0.135818 -0.904157
0.0708955 -0.560475 -0.0151737
-0.0807719 -0.501113 -0.929215
0.861881 -0.0249113 -0.539241
-0.856316 -0.0313332 -0.405464
0.991436 -0.160316 -0.577483
-0.751985 0.391634 0.698563
-0.391594 0.127936 -0.830303
-0.166912 0.100415 -0.927369
-0.314105 -0.532334 -0.792784
0.476791 -0.241758 -0.993235
0.613 0.0165551 -0.956842
0.232417 0.308484 -0.976013
0.732122 -0.414355 -0.519082
0.000689856 -0.718409 -0.506444
0.272433 -0.522734 0.0676005
0.669977 -0.517774 -0.329735
-0.389501 -0.14077 0.645426
-0.946997 -0.409326 0.104621
0.296901 0.435839 -0.485704
-0.318983 -0.574128 -0.296883
0.468863 -0.60068 -0.148129
-0.279586 0.00217122 0.819761
0.20065 -0.577692 -0.0621435
-0.817117 0.0950557 -0.254957
-0.912075 -0.371271 -0.212378
-0.696029 -0.578294 -0.210101
-0.5068 0.1376 -0.9489
-0.702027 -0.181684 -0.956125
-0.106972 -0.597185 -0.982371
0.479639 -0.162844 -0.97908
0.7542 -0.355699 -0.64353
-0.579386 0.11657 0.106747
-0.915049 -0.54808 0.357262
-0.552281 0.0926059 -0.558895
-0.1485 -0.5901 -0.2646
0.661368 0.0960023 -0.0392401
-0.436093 0.262062 -0.139953
-0.463682 -0.550647 -0.0428352
0.292659 -0.58458 -0.975761
-0.588545 -0.148809 -0.981654
0.00726698 -0.670397 -0.97328
0.242103 -0.50375 -0.989459
-0.883117 -0.0878511 0.406461
-0.594331 0.515513 0.752909
-0.206084 0.334587 -0.570638
-0.237741 0.313115 -0.322532
0.0568795 -0.0570085 0.237665
0.350672 0.30692 -0.167759
-0.607238 -0.275504 -0.967555
-0.339549 0.00726544 0.498924
0.0112926 0.0439286 0.190636
0.843274 0.0388974 -0.822659
-0.345891 -0.548091 -0.556938
-0.0128125 -0.752104 -0.334589
-0.545286 -0.359221 -0.624787
0.391937 0.318611 -0.862971
0.803821 -0.26416 -0.531623
0.139113 0.0395028 0.226792
-0.744998 0.574196 0.828069
-0.274688 0.12941 0.765469
0.073424 0.422219 -0.751495
-0.347898 -0.111076 0.263828
-0.630222 -0.274565 0.615679
0.540118 -0.513698 -0.089474
-0.28889 -0.0639225 0.646858
-0.100121 0.108702 0.756918
0.530077 -0.550156 -0.736462
0.342393 0.399398 -0.258839
-0.593919 0.308851 0.545615
0.650378 -0.532104 -0.394878
-0.0477039 0.314128 -0.158331
-0.474944 -0.12428 -0.984647
-0.960784 -0.58986 0.148329
-0.323945 0.0168934 0.233101
0.697674 0.0269596 -0.0454944
-0.160897 -0.441282 0.0786385
-0.00709238 0.204127 0.920465
0.369298 -0.0484589 -0.985942
-0.734794 -0.474278 -0.459715
-0.481825 -0.324744 -0.983104
0.659304 0.198268 -0.483441
0.294285 -0.723155 -0.6453
-0.214987 -0.141431 0.226571
-0.354654 -0.591267 -0.955228
0.922187 -0.135382 -0.824229
-0.309017 -0.23248 -0.965138
0.205034 0.000526325 0.245728
-0.640613 0.732085 0.935301
0.277554 -0.639619 -0.835173
0.192595 0.462249 -0.40676
-0.176776 0.360772 -0.632969
-0.347931 -0.293568 -0.971099
-0.525731 0.257269 -0.249867
-0.80197 -0.669942 0.0906928
-0.491616 -0.622301 -0.959001
0.323776 -0.110101 -0.990676
-0.606998 0.0637652 0.35499
-0.904602 -0.63208 0.252117
-0.228658 -0.561396 -0.413902
-0.759899 -0.526624 -0.332066
-0.249064 -0.0893455 0.617657
-0.15726 0.0970376 0.144588
-0.895681 -0.0868883 -0.0590269
-0.219398 0.221013 -0.6359
-0.777104 -0.48525 -0.0217441
-0.783399 -0.431826 0.577541
0.242381 0.193763 0.107605
-0.566499 -0.512611 0.0479088
0.72327 0.11059 -0.20928
0.674968 0.167869 -0.211669
-0.607224 -0.451088 -0.832265
-0.805582 -0.0262813 -0.473798
0.39918 -0.484716 0.0544688
0.071378 -0.66512 -0.77353
-0.087856 -0.126473 0.211147
-0.0652449 -0.15532 -0.936437
-0.785885 0.129353 -0.325655
-0.697673 0.575212 0.667501
0.949103 -0.0440809 -0.742692
-0.46999 -0.595677 -0.181556
0.570309 -0.381896 0.0848455
-0.054113 0.225889 0.952486
0.328759 0.258632 -0.0385566
-0.116125 0.156486 -0.926129
-0.8855 -0.152935 0.447717
-0.148495 -0.602158 -0.331059
-0.333403 0.267625 -0.984394
-0.428539 0.0233209 0.669486
-0.914877 -0.197324 -0.314966
-0.0519122 -0.564034 -0.964927
-0.316587 0.24521 -0.0719567
-0.984917 -0.309555 0.258746
0.461421 0.35277 -0.645546
0.190312 0.109066 -0.926519
-0.747438 0.126351 -0.0896494
-0.0614194 0.146979 0.882127
-0.504711 -0.458756 0.550043
0.0777212 0.314922 -0.137163
0.83663 -0.220946 -0.885891
-0.595441 0.220635 -0.271102
-0.578886 0.149232 -0.51765
-0.195871 -0.00580743 0.829271
0.400668 -0.601197 -0.794109
0.143025 -0.700692 -0.186911
0.101742 0.372629 -0.161268
-0.897408 -0.0171182 0.167074
-0.268561 -0.326315 0.193419
-0.264992 0.254746 -0.982164
0.741055 -0.330221 -0.891863
-0.358903 0.317793 -0.896615
-0.162752 -0.0933473 -0.935412
-0.420547 -0.260099 -0.974014
-0.345638 -0.101712 -0.98669
-0.241807 0.0694877 -0.926061
-0.543134 0.0117203 -0.787283
0.65606 -0.390033 -0.808864
-0.4775 -0.135182 0.640831
0.905763 0.00136518 -0.790129
-0.564089 -0.614993 -0.95307
0.430577 -0.551695 -0.831406
0.457827 0.274019 -0.107161
-0.851431 0.046114 -0.291097
-0.645669 0.605923 0.877541
0.200496 0.0667594 0.213724
-0.383 0.0582738 0.224959
-0.453478 -0.380904 0.418078
0.0971464 -0.693938 -0.703697
0.952334 -0.186826 -0.783875
-0.048528 0.48721 -0.2918
-0.871133 0.0408751 -0.221245
0.581006 0.281575 -0.311482
-0.892703 -0.429601 0.518861
-0.597858 0.619639 0.693476
-0.710141 0.515173 0.634972
-0.621402 -0.586222 -0.184546
0.340927 -0.618336 -0.834999
-0.262774 0.307615 -0.812729
-0.621051 -0.650975 0.0637703
0.700897 0.157973 -0.451536
0.619288 -0.522266 -0.522297
-0.386122 -0.593652 -0.892208
0.293663 0.289376 -0.14145
-0.485465 -0.612217 -0.36652
-0.422802 -0.43382 0.288469
-0.656274 -0.726682 0.185226
-0.775684 -0.298022 0.608084
-0.765083 0.0710757 0.515916
-0.644115 0.620694 0.607119
-0.739386 -0.0590061 -0.962929
0.866722 -0.27397 -0.844402
-0.018819 0.048003 0.657841
-0.0260029 -0.722307 -0.444655
-0.378847 -0.392807 0.145782
-0.0877109 0.444176 -0.229027
-0.373438 -0.595839 -0.349568
-0.150051 0.111385 0.91162
-0.749675 0.45853 0.740434
0.614432 0.249459 -0.60775
-0.403371 -0.53516 -0.0252349
0.574867 -0.58366 -0.273861
0.594859 -0.542403 -0.61302
-0.610646 -0.227616 -0.884559
0.470176 -0.620299 -0.269377
-0.574999 -0.548982 -0.0390283
0.460195 0.298836 -0.159084
-0.27376 0.269394 -0.127766
-0.00597251 0.211176 0.995684
-0.247226 -0.252817 -0.985041
-0.868066 -0.427661 -0.219346
-0.0106702 0.47427 -0.602405
0.764492 -0.205157 -0.133652
0.637154 -0.521 -0.212888
0.394523 -0.696137 -0.295927
-0.192782 0.287798 -0.156566
0.570746 -0.451145 -0.864561
-0.129663 0.450867 -0.541501
0.786014 -0.318221 -0.324062
0.111141 -0.244806 -0.938993
-0.570925 -0.283602 -0.901911
0.123209 0.23067 -0.98436
-0.2393 0.124532 -0.706827
-0.183572 0.434215 -0.31911
0.413657 -0.554212 -0.971014
-0.77359 0.0574945 0.218149
-0.357795 -0.581551 -0.156623
0.0188972 -0.586993 -0.145992
0.466675 -0.199921 0.215808
0.352663 -0.675363 -0.22653
0.978444 -0.0879809 -0.575008
0.052321 0.490006 -0.376095
0.334226 -0.507821 0.0607788
0.669634 -0.225566 -0.959219
-0.200506 0.269353 -0.77619
-0.734368 -0.0556128 -0.56018
-0.344547 -0.0113576 -0.985716
-0.787406 -0.435555 -0.42638
-0.715363 0.114591 -0.0246134
-0.0505944 -0.585149 -0.108305
-0.721628 0.059778 0.0858909
-0.972279 -0.161377 0.206516
-0.209527 -0.471214 -0.964047
-0.785189 0.20493 0.635756
-0.351586 0.158255 0.127269
-0.622613 0.199656 -0.417475
-0.59985 -0.587752 0.0593694
-0.646474 -0.240036 -0.957938
0.154705 -0.183671 -0.943068
0.796537 -0.0157066 -0.470608
-0.857569 -0.230072 -0.42839
-0.0678962 0.413203 -0.713174
-0.405779 -0.00316555 0.256554
0.762903 -0.354336 -0.262321
-0.486106 0.248759 -0.103011
-0.669708 0.669706 0.765054
-0.551058 -0.076576 -0.664514
-0.144232 0.168295 0.674255
0.0277285 -0.701109 -0.595803
-0.0887968 -0.680862 -0.435457
-0.910552 -0.169403 0.389266
0.0607966 0.467804 -0.532559
-0.451614 -0.477104 -0.773369
-0.203154 -0.147791 -0.974668
0.744176 -0.413611 -0.390851
-0.36036 0.225156 -0.419996
0.291517 -0.586689 -0.876884
-0.698381 0.0610256 0.420751
0.578613 0.0256163 0.102109
0.403568 0.178412 -0.985035
-0.745845 -0.132348 -0.948896
-0.397797 -0.434572 0.10691
-0.646769 0.0906085 0.664008
-0.861983 0.00950449 0.235872
-0.265738 -0.116236 -0.988682
0.980872 -0.180777 -0.713747
0.328009 0.15543 -0.990207
-0.251024 -0.421879 -0.981129
0.055739 0.238914 -0.983627
-0.0034727 0.105617 0.636286
-0.770019 0.0347849 0.563959
-0.203314 0.101541 0.878362
-0.107944 0.27413 -0.0384468
-0.4027 0.2763 -0.9702
0.954917 -0.120312 -0.526735
-0.456401 0.0706591 -0.984681
-0.263218 -0.492154 -0.98313
-0.751929 -0.500134 -0.395536
-0.731732 0.666555 0.931734
0.596152 0.0732412 -0.903248
-0.699471 -0.297269 0.616413
-0.930695 -0.416761 0.437307
-0.477783 -0.404028 -0.774088
0.265934 -0.730015 -0.588954
-0.364659 -0.291909 0.286805
0.769734 -0.12458 -0.12909
-0.106709 0.377104 -0.197377
0.117309 -0.357051 0.22433
0.837593 -0.381078 -0.746809
0.111464 -0.035335 -0.933058
-0.45346 0.035552 0.23727
-0.85932 -0.340949 -0.389512
0.266302 0.0555167 0.22011
-0.595569 0.39773 0.734102
0.147627 -0.682948 -0.770952
-0.57447 -0.224446 -0.981926
-0.282891 -0.560676 -0.53111
0.585447 0.176398 -0.786513
-0.433801 0.137871 -0.604706
-0.373722 0.117108 0.178636
-0.620096 -0.344154 -0.97024
-0.550711 -0.565644 -0.459601
-0.809232 -0.440703 -0.0132763
-0.194216 -0.0633431 0.632234
0.65211 -0.395649 -0.0320283
0.0166101 -0.35345 -0.935879
-0.420022 0.208742 -0.926445
0.185403 -0.529757 -0.98805
0.356661 -0.679873 -0.655889
-0.788355 -0.0729576 -0.504151
-0.901274 -0.476638 0.46408
0.274074 -0.351661 -0.938487
0.476384 -0.539198 -0.876293
-0.32396 -0.525798 -0.0102971
0.471315 -0.637211 -0.571098
-0.942988 -0.241586 0.519693
-0.56985 -0.0222803 0.546213
-0.338542 0.276642 -0.238898
-0.772437 0.626866 0.913585
0.892133 -0.150933 -0.501467
0.0603529 -0.491137 0.107683
0.0183455 -0.563583 -0.0722152
-0.761804 0.308459 0.774496
-0.775151 -0.339976 -0.508587
-0.29865 -0.557663 -0.888849
-0.589422 -0.543889 0.483053
0.587281 -0.133764 -0.994758
0.111431 0.45404 -0.56667
-0.554121 0.22742 -0.386855
0.87154 -0.265035 -0.528243
0.238485 -0.706364 -0.690307
-0.485177 -0.614185 -0.252302
-0.307703 0.277327 -0.190412
-0.495146 -0.010228 0.519187
-0.252854 0.297788 -0.394074
-0.56034 0.0412007 -0.984244
-0.118583 -0.665351 -0.365593
-0.726215 -0.319918 -0.555041
-0.682471 -0.284871 -0.608822
-0.844538 -0.452222 -0.153538
0.00909781 -0.590052 -0.985956
-0.0307101 0.145708 0.113113
0.181342 -0.611919 -0.977413
-0.167817 0.320411 -0.794133
-0.0141023 -0.252739 0.221519
-0.585685 0.333442 0.699678
0.521613 0.047592 0.134223
-0.859259 -0.024226 -0.0283581
0.148959 -0.642349 -0.144332
-0.514974 -0.179303 -0.985654
-0.535 -0.0026 0.4578
-0.743584 0.00422008 0.619856
-0.521539 -0.529291 -0.00664666
0.512872 -0.64452 -0.381826
-0.163432 -0.546698 -0.442356
-0.918418 -0.0973124 0.0838446
0.111758 -0.295955 0.244557
-0.748904 0.516597 0.782119
0.242347 0.317081 -0.898207
-0.207761 -0.655846 -0.967616
0.811375 -0.132223 -0.385326
-0.964497 -0.441644 0.180214
-0.198542 0.143273 0.64524
-0.894357 -0.60935 0.330462
-0.610459 -0.314576 -0.625459
-0.0809125 0.192971 0.706165
0.190763 -0.747375 -0.337936
-0.714177 0.405229 0.826623
0.599217 -0.423219 0.0218522
-0.353797 0.0593358 -0.97887
0.722264 -0.381024 -0.698449
-0.377648 -0.521447 -0.779107
-0.457591 0.144058 -0.976912
0.619095 -0.119138 0.103111
-0.592798 0.268502 0.694272
-0.272263 -0.318723 -0.974788
-0.051175 -0.600428 -0.181466
0.0798245 0.0793149 0.195555
-0.850441 -0.293713 -0.425808
-0.154241 0.0631529 0.733417
-0.106575 -0.569517 -0.552832
-0.0570964 0.0868922 0.700838
-0.138796 -0.667453 -0.981791
-0.399935 -0.276262 0.349227
0.744269 0.112372 -0.766132
-0.954843 -0.440918 0.260095
0.35097 -0.595316 -0.110261
0.715105 0.0781873 -0.682161
0.778706 -0.34287 -0.392277
-0.00307182 -0.643382 -0.178646
-0.685032 0.62733 0.713612
-0.734171 0.156573 -0.1526
-0.296332 -0.051195 -0.981413
0.0101327 -0.677083 -0.893108
-0.94579 -0.202528 -0.240156
0.767166 0.0416619 -0.514381
-0.557543 0.197305 -0.457001
-0.337066 -0.510284 -0.98036
-0.747894 0.323273 0.657094
0.446417 -0.662274 -0.515224
-0.718458 0.530175 0.564559
-0.546463 -0.616736 -0.209526
-0.647737 -0.520753 -0.953294
-0.323646 0.348018 -0.982127
0.485219 -0.320081 -0.989032
-0.612808 0.218288 -0.350907
-0.153512 -0.0965878 0.201867
0.0271392 0.327735 0.891027
-0.278891 0.291136 -0.274755
-0.530236 0.210722 -0.0543765
-0.0730028 0.14239 0.644069
0.480312 0.0161968 -0.982901
0.520911 -0.618652 -0.522717
0.158252 -0.578015 -0.117517
-0.278108 -0.436404 0.0978043
-0.0210232 -0.326932 0.190164
0.334754 -0.539942 -0.0626493
-0.194891 0.374138 -0.277092
-0.15989 0.157124 0.100758
-0.175426 -0.56155 -0.780189
-0.301583 -0.481623 0.0398834
-0.378716 -0.0772796 0.730169
-0.212307 -0.536865 -0.981712
-0.216232 0.27336 -0.10127
-0.0265561 0.503112 -0.358489
-0.544004 -0.0508015 -0.726249
-0.795031 0.58902 0.886888
0.108534 -0.462604 0.149815
-0.369812 0.207621 -0.495441
0.905286 0.0306839 -0.627521
-0.454886 0.255601 -0.209013
0.0420991 -0.227172 -0.939084
-0.814205 -0.358799 -0.450421
0.52619 -0.289872 0.172988
-0.902844 -0.208444 0.561138
-0.150544 0.323733 -0.988401
0.180213 0.285303 -0.0589597
0.542481 -0.258461 -0.986429
0.304272 -0.541911 -0.0023202
-0.403078 -0.497076 -0.725141
0.115879 0.276132 0.00183698
0.130514 -0.0312402 0.246483
0.133529 0.464889 -0.480212
-0.62947 0.435033 0.556895
-0.810355 -0.459369 -0.0896799
-0.370018 0.126207 -0.722551
-0.205555 -0.213873 0.220109
-0.0184791 0.463268 -0.239035
-0.662385 -0.351828 -0.586681
0.582704 -0.0607211 -0.989341
0.523305 -0.623323 -0.306701
-0.82916 0.0209327 0.175179
-0.619162 0.678459 0.65953
-0.62479 0.168951 -0.470182
-0.430564 0.171266 -0.978233
0.0437953 -0.125363 0.241813
0.790556 -0.0185648 -0.234753
0.105277 0.267545 0.73564
-0.549095 -0.0313025 -0.984358
-0.0391144 0.151745 0.973406
0.25946 -0.0821705 -0.993922
-0.756859 -0.49565 0.553325
0.032092 -0.194187 0.241609
-0.371357 -0.200851 -0.965518
-0.60159 0.24197 0.512427
-0.700665 -0.552532 -0.364251
-0.262936 0.387922 -0.960076
0.162818 0.479204 -0.337787
0.77952 0.0464484 -0.439745
-0.569448 0.0603385 -0.844883
-0.466458 -0.286253 -0.693526
-0.520778 0.0307972 0.396218
-0.339335 0.0912042 0.629233
0.715767 -0.421062 -0.635902
0.217134 0.456555 -0.478218
0.486961 -0.65862 -0.471198
0.212322 0.301655 -0.138949
-0.799249 0.341109 0.721398
-0.000849318 -0.457591 0.121709
0.17883 0.195091 0.0942825
0.709224 -0.178338 -0.0136111
-0.560216 -0.516554 -0.515809
0.0683729 -0.244689 0.244994
-0.227005 -0.0681142 -0.955982
-0.514907 -0.526672 0.279488
-0.064485 -0.58928 -0.772714
-0.665742 -0.182775 -0.886934
-0.580389 0.1044 0.531466
-0.926446 -0.227603 -0.0640277
0.851067 -0.317152 -0.570164
-0.105211 0.367676 -0.892375
-0.148242 -0.533215 -0.508043
-0.454281 0.225012 -0.0399007
-0.971779 -0.341639 0.104375
0.90256 0.00151414 -0.568814
0.789166 -0.394325 -0.711624
0.146407 -0.235077 0.258465
-0.0129335 0.249848 -0.983607
-0.728831 -0.528863 -0.0158331
0.110201 0.291854 -0.0696164
0.207228 -0.375774 -0.933854
-0.72543 0.452143 0.67922
0.293505 -0.472019 0.124242
-0.764264 0.136885 0.677513
-0.297811 -0.563988 -0.969513
0.983747 -0.105099 -0.703853
0.739656 -0.391125 -0.838001
0.252896 0.406197 -0.661331
-0.431264 -0.597843 -0.381538
0.0790254 -0.377476 -0.935532
0.00877016 -0.754702 -0.392042
-0.604864 -0.679816 0.193652
0.142022 -0.730976 -0.632557
0.0448237 -0.741274 -0.455336
-0.559286 -0.118595 -0.794629
0.10695 -0.722344 -0.55924
0.22009 -0.302487 -0.941982
-0.505079 0.0649187 0.195184
0.0607582 0.4682 -0.2542
