4.60254 5.55512 -5.33149
3.91867 6.6628 -18.9997
-4.67703 1.99105 -5.69211
-4.78369 -9.99963 4.10317
1.04413 9.97258 -5.95828
5.53225 5.92737 -13.6283
11.7995 5.71272 -5.72054
-2.31836 5.67325 17.2166
6.47705 -9.99947 9.96426
-8.19955 -1.27132 8.06452
-6.36503 6.06023 -9.9994
-5.43881 8.23931 9.99944
2.48834 4.98849 5.96118
-4.19637 7.9724 0.0576008
7.69616 3.77829 -11.8492
11.7994 2.00397 -7.86742
-8.16191 -9.99942 -5.48152
-2.83522 6.52534 -3.81398
-5.06296 -1.3843 17.1658
2.72105 -4.83452 19
11.7995 -6.34132 -4.55045
-6.41863 0.917816 -5.93925
5.78607 6.36679 -4.48285
1.81029 -9.93799 -9.99951
6.21454 9.99949 -4.13295
-8.19928 -6.57241 9.97224
4.63835 -9.99954 -5.34387
11.7996 6.03428 -0.491632
-8.19939 -3.48501 4.95644
1.91651 -6.76976 -6.02112
-0.368781 6.67238 -17.1737
-8.1995 7.82354 2.14232
7.56218 4.07865 -10.0005
8.44996 -9.99933 -9.97259
7.07491 2.63272 5.3906
11.7995 6.3512 4.8173
1.42369 1.05504 19
-4.7949 -8.29079 9.99948
9.98567 6.01432 9.99944
7.24482 4.39642 18.9722
-2.38809 9.99924 4.38842
-4.04945 -7.97202 1.34379
4.15027 -6.59407 15.2893
8.37763 2.40153 15.3241
4.8663 -3.1216 5.16961
11.7995 0.1195 6.05007
5.43527 5.96753 -18.9999
3.87008 -6.73272 -10
2.95263 -6.18075 5.88584
-8.1995 3.27786 -9.95759
7.66705 -3.81975 -17.0955
-8.19954 -7.84917 -2.34267
9.77455 -9.99956 -0.936834
2.14725 6.99632 18.999
7.75895 3.65223 -18.9998
-1.32299 8.19055 5.12928
6.47958 -5.2034 -17.1295
-6.45247 -7.38564 9.99938
0.703722 2.91716 19.0001
-8.19915 9.96781 -6.55089
11.7994 7.79531 -6.02854
2.59817 0.704603 -5.98399
1.13371 -7.83367 5.96579
-8.1995 -0.8859 -5.9934
11.7529 -9.94589 -9.9986
-3.44896 -7.96527 -9.99951
4.08033 -6.61761 -15.3171
11.7995 -1.28731 9.96377
-3.08219 8.34163 -3.49556
-8.19951 5.93742 -7.83955
-0.138607 -6.72881 -15.2482
9.87656 -2.16548 -5.60439
7.61626 5.76831 -1.69164
7.60919 5.75324 1.70338
11.7995 -7.83206 3.86358
11.7122 9.99958 9.9552
-4.19276 -9.99963 -0.870824
2.67412 6.94284 -11.8645
7.0166 -4.67692 13.8147
-6.60412 9.99954 -3.98972
4.61858 9.97716 -9.99942
-8.19954 -8.09591 5.62466
6.87307 5.04241 -3.26628
-4.33917 3.38892 11.9445
-4.9963 -1.64278 18.9991
4.9941 6.22593 17.1173
-4.21089 -9.99942 0.693279
-8.19954 -9.97509 2.52111
-6.47197 4.30845 4.17691
-8.19951 -2.49381 -7.95782
11.7995 6.98755 2.90364
-8.19998 5.96236 1.05409
-8.19956 -8.55465 3.64285
-3.5024 2.45838 5.47965
-2.23185 -5.73958 -15.4801
11.7994 -6.00903 -0.741258
0.495708 -9.99947 9.96769
-1.17688 -6.34279 -18.9713
8.63965 -1.42641 -18.9998
3.96297 -2.34247 -19.0001
-4.76795 -2.43364 15.4143
-2.09163 3.79961 4.64524
-0.275467 -9.99958 -7.78363
4.003 6.6412 18.9712
4.03336 6.6375 11.8679
9.96269 -3.92359 -4.56393
-8.19949 -5.77214 8.3146
11.7998 0.9204 -9.97348
-4.64751 2.73455 17.1071
-4.42296 -3.20952 18.973
-6.53901 6.69581 9.99946
-4.18594 3.63845 18.9683
-6.08909 -9.99963 -2.1648
11.759 -4.56744 -3.91489
9.51008 -5.54091 2.33783
-6.06094 4.16204 -9.99956
11.7995 0.0551926 -7.95213
-5.02247 1.6001 11.9189
-1.88898 9.96881 -4.7287
-3.36572 -4.71278 18.9717
4.10995 7.917 -5.53333
-0.505158 9.99896 -5.60657
9.98247 9.99955 -4.36659
-4.42919 6.13335 -9.99954
-1.65649 7.89819 -4.90994
-4.90049 0.847434 5.95679
10.1447 -2.28546 9.9996
0.694151 6.92405 -11.8741
6.33106 8.27298 3.96373
-3.80464 -9.99896 2.30719
0.611514 4.51299 5.91805
6.24282 -8.202 4.05447
6.25008 -6.31317 4.03773
-8.15117 9.99968 -9.94414
1.88846 -7.01513 18.9724
1.73603 7.00434 -13.6333
8.17835 -9.9997 -4.41176
-3.96634 9.9995 -5.7549
11.7994 -8.08076 -7.91719
-6.32795 2.8561 -5.28807
6.69375 5.00859 -18.97
8.4972 2.03763 -18.9994
-4.49097 4.16542 4.32079
-8.19948 -3.5186 -9.95744
11.7995 -2.67873 7.74359
8.80218 0.483038 15.4056
-1.2383 5.80111 -5.16553
-4.95679 1.84474 15.3867
8.4883 -9.99956 -6.40385
-8.19949 7.7845 5.97469
-8.19953 8.06068 0.105332
-8.19951 8.43276 4.0436
11.7776 2.80072 -9.99943
0.153046 -0.814921 -19.0001
4.71048 -6.80258 5.25895
8.17943 -2.89266 13.7353
1.74568 9.9995 7.99338
-8.19944 8.34238 7.87595
-5.0578 -1.42406 13.6569
4.84683 8.16941 5.17137
2.01514 -7.02517 -15.2301
9.7911 -5.74922 -1.76709
1.71586 -7.00195 11.9251
8.06344 -3.12616 -18.9728
-3.97278 -5.82347 1.68043
5.91023 -5.66819 -15.3334
11.7998 5.93195 1.16773
-4.30745 -3.45049 17.1428
-3.43614 -5.25679 2.98458
9.3066 9.99962 2.94883
-1.21357 -6.32411 13.6391
9.92106 3.9062 -4.57481
-8.19971 5.46143 2.60832
-6.24565 9.9996 0.0811784
3.63836 1.54766 5.81386
-2.76492 2.19466 -18.9998
11.7995 -0.658258 8.04154
-1.59786 -9.99942 9.96673
-0.61969 -8.28384 9.99956
-1.20089 -8.23242 -9.99952
-0.27809 9.99961 -7.86668
0.798345 -4.9103 18.9999
11.7995 -1.77511 -8.17244
0.716976 -3.86528 5.9336
10.3232 -0.0278699 9.99965
-1.88887 -5.9536 18.9673
2.26027 6.98182 -18.9995
-8.16908 9.99929 -0.968077
2.46141 -1.07379 -5.98127
-0.867972 -4.96926 5.38958
-3.80188 -9.99941 -2.32806
-4.23121 3.57747 -15.3573
0.837795 -6.9552 13.6806
8.31261 4.61228 -3.85664
-2.95593 -5.15573 17.1387
9.75573 5.32148 -2.79628
1.66664 9.99965 -7.94723
-4.92301 1.91386 18.9998
8.54741 1.91073 -15.289
-2.78695 -5.26652 -18.9997
-8.16842 -4.825 9.99955
4.50582 -0.737818 -5.98629
0.986329 9.97493 -9.99945
8.8139 0.893101 -10.0002
6.61301 -9.99967 3.6712
11.7706 -9.99932 -8.29551
-8.19955 -8.08681 -0.338421
-5.8527 5.33724 2.76375
-0.603232 -6.5803 -17.0371
11.7997 -4.2951 4.27014
0.309856 6.83204 18.9994
-3.64841 4.41104 17.0717
8.31916 2.69146 -9.99987
-8.17764 1.50403 -9.9996
6.55922 -9.99966 -6.12588
9.75439 5.9493 -0.822955
-6.05878 -2.60148 5.39984
-5.95094 -5.29485 2.84976
-1.27912 0.749084 -19
-8.19948 -5.23016 -8.19664
7.41433 -4.193 -15.321
0.964689 -5.74194 5.95209
-1.34503 -6.26844 -13.7603
11.7994 -8.35141 9.97216
-3.71844 -9.99964 5.96952
6.40757 -5.27058 17.1053
8.03873 -3.21326 -13.6313
11.7725 8.37249 9.99926
-1.86302 -6.03854 -10.0002
11.7426 -0.817325 -9.99948
11.7996 -1.52589 5.88315
-5.19076 -0.125798 -18.9721
5.37909 -5.9168 -4.81126
1.95741 1.17547 6.01184
8.31599 -9.99965 4.2153
4.69524 9.96488 -5.24701
11.7994 4.45367 4.11342
8.69658 -1.20098 -13.5884
-6.02467 -9.9996 1.94552
1.95327 4.79573 -6.02508
7.53173 -9.99948 8.10682
3.85731 6.56242 5.63408
-6.03788 5.92957 -1.03204
-1.55825 6.14422 18.9741
-0.503007 -9.99851 -5.61066
7.65053 9.99908 1.53157
1.80409 -9.9994 -8.02913
11.78 0.817608 9.99949
-1.56677 -9.96288 4.98638
11.7996 9.9624 -6.81623
5.14877 -3.91879 -18.9999
-2.4188 5.59129 15.368
2.10338 -9.99997 6.04668
-6.69593 -0.642534 -9.99971
11.7995 8.01715 -0.152155
8.71544 -1.01277 18.9997
11.7995 6.57603 9.96792
-0.768646 -6.50926 -11.9983
-0.992014 9.97143 -9.99929
1.0658 9.99951 9.97279
-5.20402 -0.448372 11.8779
5.77527 5.75532 18.9724
9.8754 2.0329 -5.66611
7.76363 -8.01485 0.705809
11.7996 0.511846 -6.00606
11.7995 -7.77624 2.08519
3.51932 9.9996 -8.24622
11.7662 -8.24519 -9.99967
11.7995 8.24098 -9.97351
5.27528 -6.08789 13.5581
5.80404 9.99958 -8.27563
3.72639 -4.39092 -5.70344
11.7997 -9.96498 2.75446
-4.81361 4.97815 -3.34857
-8.19955 9.95361 -4.75972
-2.06089 6.43312 4.5881
-4.75389 -2.46448 11.8646
1.51168 -9.99962 8.02127
8.86529 -0.611969 -10.0001
3.57646 4.86076 18.9999
0.45732 -1.6696 -5.85822
-8.19957 5.66851 -5.67755
-2.97549 5.1395 -11.8207
10.1103 -9.96471 -9.99912
-5.70675 2.899 5.27021
11.7998 2.08915 -5.68663
-8.19949 9.97359 4.94258
-8.17556 -0.221005 5.99892
-6.39439 4.26671 -4.21538
11.7994 -5.53088 -2.49299
-4.25471 3.54239 -11.8274
7.85291 -9.99938 0.364025
-6.31357 -2.91037 -5.25749
0.253878 8.43718 -9.99958
-8.16943 -9.99944 -1.3746
11.7995 -6.74644 -6.48732
1.37443 -5.02572 -19
-2.14244 -5.79725 -17.3386
2.57198 -0.481844 5.99005
-3.63006 4.43202 -17.1554
-0.683876 -6.77386 5.47247
1.93445 -1.15704 -19
-1.38381 -3.17377 5.12382
-6.65881 -0.161783 9.99961
5.40608 -3.69233 -4.79278
-3.00613 9.9995 -3.68249
-5.9479 -7.82565 -9.99943
-3.01356 9.96768 -9.99925
7.77177 9.99954 -7.90415
7.08821 -4.58189 -18.9727
7.14042 9.9994 9.97485
6.06786 7.93868 9.99945
11.7994 5.96541 -7.82308
-4.86032 -6.09777 9.99967
-5.1924 -0.85002 -9.99973
-3.21639 -6.62543 -3.29436
-5.19715 -0.341763 15.4034
9.95275 9.99947 -6.34363
-2.17539 -5.77403 11.8591
7.87776 -3.45374 -4.89905
5.13031 -6.16039 -13.5945
9.42647 9.99935 9.97525
5.84405 6.42509 4.43072
-8.19952 0.278934 9.96118
3.82942 -6.68659 18.9997
5.86023 -1.25268 5.86661
-3.80631 -4.2079 -11.9022
-8.19951 -6.66172 6.76294
6.09914 -5.53616 15.3568
-4.64887 2.73799 -17.1661
-8.19954 -6.57666 -4.272
-3.27931 4.81558 13.62
-4.49033 -3.06827 -17.1706
-3.02918 5.03088 18.9998
5.96746 4.1267 -4.38212
8.79353 -0.485049 17.1465
9.5994 -9.99961 -2.98835
-6.29365 -5.52734 -2.3398
-0.727961 8.3153 9.99953
-1.57528 -1.27168 -19
3.82015 -9.99941 5.71626
-6.35171 -0.740402 5.9814
-6.22358 -4.78418 9.99952
10.1152 2.53258 -9.99961
8.12061 -2.9747 19
-8.19926 6.74064 -9.96459
-6.39609 -3.21208 -9.99971
-5.18027 0.771892 10.0289
6.6306 1.62988 -19
-4.87101 -2.27065 -10.0004
-1.29271 6.2965 -11.8546
5.91766 -7.86251 9.9994
6.99468 6.97337 -3.01744
2.99324 8.26852 5.88385
-5.17179 0.711708 17.145
10.1057 9.99947 8.19003
-4.78482 -9.99951 -9.96868
5.94451 4.19919 4.33789
11.7998 5.37849 2.75105
-4.69614 2.64539 -13.5886
6.13675 -5.51265 -11.8585
11.7997 -9.95155 9.94789
8.31417 6.21061 -9.99957
-8.19929 -8.41569 -9.96675
4.03291 -2.3625 -5.57413
-4.25547 -9.99948 -7.69214
2.37426 9.99978 6.03448
8.00479 3.26861 13.5391
7.00918 -4.67978 18.9772
5.89292 5.67999 11.8552
11.7996 9.97241 4.66674
9.90836 -0.151983 -5.99724
-0.0216567 8.02027 -5.71961
-8.19979 -3.73424 -4.76473
6.63966 -4.79443 -3.647
3.53953 -0.327317 -19.0001
-8.19944 1.61351 5.85224
-8.19946 -8.04364 7.96858
-5.16651 0.800234 -17.167
6.31423 -2.30962 -19
-1.43596 6.22382 13.718
7.23769 -7.69751 2.53761
-8.19952 1.90517 -7.93656
7.49579 -5.65891 -2.02569
0.730643 -6.91075 10.0342
4.60344 6.42583 -11.8567
6.0664 9.99952 8.31121
-2.34943 5.64234 -10.0236
-5.19495 -0.41473 -11.8518
5.08167 3.71834 18.9998
7.48439 -9.99928 2.09738
9.60094 -7.71297 -9.99946
-8.19965 -6.02596 0.606072
8.56816 1.86632 -11.8234
11.7995 9.96146 8.20052
-8.19943 0.687622 -6.02069
10.016 0.828509 5.96126
-4.18107 9.99949 0.979924
6.58527 2.41204 18.9999
-3.81637 9.99952 8.16656
8.19895 0.861783 -5.95524
6.58275 -5.10838 11.9318
7.64658 -9.99947 -8.14276
-3.90204 -4.15717 10.0005
6.43386 5.24397 -10.0227
-3.79948 4.29847 -9.99997
-8.19964 -2.31095 -5.59508
8.43855 -2.26077 -17.2391
8.04104 8.26983 9.99951
-1.77352 3.68266 -4.81988
7.49445 9.97708 -1.88689
11.7995 -6.17574 5.00954
4.74273 -5.03866 5.26013
11.7995 -4.69462 8.31222
11.7994 8.39665 -4.07165
4.73124 -9.99946 9.95792
2.02012 -7.01692 15.3775
8.11534 4.10015 4.39328
8.19332 2.85889 -13.5641
-3.72562 -4.31548 11.8838
-2.77755 -5.29391 10.0308
3.17537 -6.87704 -13.5941
3.49734 4.11573 -5.78883
1.73083 4.85775 19
7.22092 -9.9995 -2.71657
4.09746 9.99921 5.59855
6.7033 -6.60795 -3.45042
6.15313 -9.9695 -4.15982
7.74223 8.03841 0.869404
-6.33771 -4.39301 -4.09397
-5.93062 9.99953 2.13018
6.7896 -4.92352 -13.6214
-4.72006 2.58176 10.0284
9.84325 -9.99933 -7.84214
-1.96734 -3.2986 -18.9999
-8.19952 -0.310628 -8.01556
-3.4454 -4.63415 -17.1498
-4.54559 6.25546 9.99951
5.28942 -0.588521 -19.0001
7.85693 9.9993 -0.201577
2.00843 -5.0226 -6.02428
-8.16793 9.99929 1.01683
-3.91573 7.77518 -1.87968
-2.02344 8.01165 -9.99946
-3.64405 5.39743 2.66205
-8.19952 0.703952 7.88642
-1.9328 -9.97305 -4.72871
-3.65949 4.40289 -13.5862
4.87025 3.1175 -5.15517
11.7995 -7.93442 -3.4894
6.45191 9.99968 -6.23055
1.95304 2.81475 -6.02391
8.28619 2.63327 18.9482
11.7995 7.86203 -2.09453
11.7715 -9.99922 -0.753212
-8.19949 5.82099 9.97139
9.00833 -4.93778 -3.4098
2.46109 -7.05719 -10.0002
11.7994 -4.87006 -6.17857
1.92811 7.01782 11.8807
-8.16914 -9.99945 0.669801
-8.19952 -6.85182 3.60301
-4.19705 -7.93165 -0.54567
4.42703 -6.50397 -11.8384
8.43211 -2.27576 17.1891
4.9858 6.23123 13.6089
9.91961 7.98803 9.9994
-2.60557 -8.18092 -4.07086
-2.14479 -5.79467 15.3854
-4.95156 1.8735 -18.9736
11.7997 4.58275 9.97244
10.0109 -4.64897 3.8125
11.7994 3.11295 5.19124
-8.19952 3.72479 6.63799
8.0137 3.08883 -5.17075
-3.61933 9.99915 2.69535
3.11242 6.88119 17.1283
-6.25731 -9.99964 -0.120429
-8.16854 -9.99958 6.57673
-2.21367 9.99955 -8.4147
7.67403 -7.8306 -1.24599
2.55115 -6.95839 -11.9165
9.78234 -5.10925 -9.99943
2.91726 9.99956 -5.94921
-8.19922 -4.73998 -3.78422
-8.19956 6.60107 4.15783
-0.106205 -6.7283 18.9996
3.64769 6.75708 -13.6308
9.44063 2.62108 5.39678
8.28925 9.95842 -9.99964
-5.18523 0.643102 -13.5978
0.184462 0.572141 5.99518
-3.81964 -4.18407 -15.3827
-4.69822 -1.92291 -5.71075
11.7994 7.85349 8.09823
-2.95174 2.69435 -5.35548
11.7683 -9.99912 -6.49082
8.43045 -2.27265 -15.3762
-4.31721 -3.42063 13.6423
-2.73752 2.4509 18.9998
3.31621 -9.95075 -9.99944
-2.76579 -9.9995 8.27927
11.7995 -9.97515 8.25654
-3.31097 -1.2188 18.9998
3.72812 -2.02514 5.69881
8.13776 -6.19223 -9.99951
11.7997 -2.71149 -9.9686
-3.94277 7.99979 -9.99936
2.70895 9.94052 -9.99949
11.7995 -5.9484 -8.19464
0.64286 9.99929 5.95458
4.61848 6.41409 -15.4083
-4.19021 6.02391 -0.603893
-4.2176 9.99945 -0.648074
-0.503918 -8.50004 5.55973
11.7996 6.48613 -9.97169
11.7995 -7.99104 0.206836
0.624547 -8.2153 -5.91363
-8.19927 -9.9688 8.33262
11.7994 6.64665 -3.95301
-0.789466 1.27132 19
4.90602 2.89557 5.25058
3.59728 6.77435 -17.1654
-0.255232 -2.65386 19.0001
-8.19957 7.42351 -3.92664
11.7995 -2.93143 -6.84309
-6.04605 8.00074 -9.99933
5.15751 -6.14487 11.6299
6.62638 0.493615 18.9999
-4.6209 9.99955 4.29456
-6.05415 9.99957 5.98966
6.64546 5.05302 17.1386
1.87357 3.06722 6.01871
0.570984 -0.752148 19.0001
-2.35996 -9.99962 -6.5514
6.48939 9.96343 -9.9994
11.7995 1.37883 7.98952
-2.8784 4.70583 3.78337
7.15845 -5.32474 2.8032
-2.67133 5.4495 10.0003
-3.09765 -5.01518 -13.7212
9.60421 -4.26584 9.99954
11.7991 -5.37932 2.78329
6.22481 5.48204 9.99994
-4.36637 -3.32489 -13.636
2.83237 9.99951 9.96776
4.81452 -6.31646 17.0824
-2.16703 5.78198 -13.6063
10.1293 -9.99939 9.9634
6.84515 -1.33932 18.9999
-2.61051 -8.53258 9.99941
-8.19952 -4.0136 -6.74655
2.10784 -3.16679 -19.0001
4.07656 4.71048 -18.9998
-2.16112 5.78622 -17.1746
8.58377 -1.73296 15.3772
8.43018 -9.99941 9.96614
7.77645 -8.19932 9.9995
2.17633 -2.97269 -6.01705
11.7996 -8.30872 -5.53782
-5.17355 0.735528 13.6767
-3.28274 0.254345 -18.9998
5.52072 5.93592 -17.1682
1.66015 7.0047 -17.1441
8.68788 1.24307 13.5676
-8.16442 9.99972 6.64407
11.7995 8.31657 3.97656
0.203571 2.05907 5.78554
11.7995 8.21631 5.99878
9.59241 -9.99944 7.71402
-8.14865 9.92814 9.99982
0.628222 -3.8522 -5.91222
-8.11198 -9.99961 9.95768
5.67358 -5.82177 -18.9992
2.56214 1.21992 -19
4.05728 -6.62413 -18.9708
11.7603 9.99915 2.68516
8.77262 -0.984824 10.0002
10.1469 2.14131 9.99958
-8.19961 2.23968 -5.62555
0.247634 4.13644 -5.8041
-4.80208 -2.32895 -15.3809
5.87224 5.69372 15.3396
-8.19955 -5.84858 5.14076
-8.19944 -8.36827 9.97215
7.84763 -6.00885 -0.353881
7.18838 -7.94297 -9.99937
-2.95799 5.14989 -15.3752
7.7021 -5.85092 1.32937
-3.40531 -7.70922 2.98607
-4.71754 2.66447 -10.0001
-1.74844 -9.99962 6.73801
-8.19959 -4.82325 3.68394
6.04134 -5.63642 9.99982
-8.17192 -1.45953 9.99939
10.1312 9.99952 4.57854
11.7708 9.9992 0.640063
-1.84543 -6.22101 -4.76333
3.18437 6.88299 10.032
8.46146 2.2042 11.8022
8.14424 9.99949 8.19361
4.80538 -0.798356 19.0001
5.78217 -7.99459 -4.49298
-5.00117 1.7091 -15.3694
2.6575 -9.99948 9.96305
-6.11513 -9.99938 9.97195
-0.921872 -2.63538 -5.38235
3.12557 -6.88526 -17.0849
4.73753 -8.44077 5.23967
-3.29197 4.80161 11.7314
0.829697 -6.95507 -13.5379
-8.19864 -9.95958 -7.70256
-8.17107 9.99964 -8.2802
-5.06283 -1.38647 -13.6126
2.66674 6.94229 -15.3893
8.78319 -0.767137 13.6676
3.14048 -6.88068 13.6689
-6.41987 5.37709 -2.64971
7.37881 4.23557 15.3237
9.77983 -9.99954 5.61048
9.83473 -5.9922 0.485223
8.16461 -1.40689 -5.82768
-5.19108 0.0941296 18.9997
-8.19899 8.39005 -9.97067
-8.19952 1.92304 9.96725
6.24865 -2.14859 -5.63293
8.73968 1.03538 -17.0322
-3.86603 9.99901 -2.16716
-8.15579 -9.99778 -9.90381
11.7618 9.99935 6.48508
-4.57666 2.88766 13.7094
-8.16927 9.99939 2.80039
-4.80186 -4.99787 -3.32665
0.474696 6.88558 -18.9731
-8.19947 4.50766 4.05179
1.02058 6.96705 17.0704
11.7995 -7.84841 -1.70153
6.34772 5.32719 -11.8597
9.83258 4.89825 -9.9995
-8.19961 7.9526 -1.98636
-8.19946 4.94089 -9.9593
-8.19963 6.03238 -0.577101
-0.296504 9.99953 7.98418
7.70743 3.75525 -15.3444
3.46659 3.43443 5.79998
-1.36383 6.22619 -19
8.07476 9.99965 4.65025
-4.48799 -1.09409 5.90593
11.7996 9.97084 -5.08201
-6.25325 5.95378 0.840631
-0.320036 6.69149 -13.6245
0.289559 -9.9998 5.87114
-6.61879 1.36504 5.83787
11.7995 3.95028 -6.67328
-8.19955 -3.62642 8.40315
-3.06266 7.91287 9.99936
5.46671 9.99962 6.62745
7.00821 8.71284 -3.0065
-8.15846 9.9996 8.37374
0.625175 1.52293 -5.90022
2.54671 -1.04338 19.0001
-8.1995 6.59862 7.98773
11.7994 -8.06931 5.90529
10.0644 9.96157 -9.99968
-0.203756 -6.71507 15.3943
11.7997 -9.96843 1.0065
-6.55348 2.02529 -9.99963
11.7776 2.80476 9.99943
-8.1417 -1.82591 5.73415
-1.74292 3.9568 -18.9999
-8.1995 -8.39034 -4.3057
-4.06521 -3.8198 -18.9634
-3.99271 -3.03146 5.20054
0.679164 6.25258 -5.93415
-1.36617 3.54861 18.9999
7.98804 -6.2708 9.99953
-5.15022 -1.13284 10.0006
11.7995 3.95872 -8.40134
7.80159 6.06189 0.0577171
-4.13786 3.69779 -18.9731
-6.15435 -9.99957 -6.22024
-4.67431 -9.99944 7.88918
-3.10863 -9.99977 -3.55463
-3.73961 -8.08366 -2.29479
3.62781 -6.3302 -5.73854
11.7995 3.30955 7.78727
-2.93747 5.14905 -18.9987
-1.09087 -8.00526 -5.2526
11.7988 -2.92011 5.31471
7.08368 4.59465 -13.6107
6.62038 -9.99938 -9.97027
-3.28287 -1.78522 -18.9999
7.18879 7.49827 2.64932
11.7991 -3.13549 -5.17506
11.7998 1.7847 5.79416
8.11601 0.928579 5.94012
-0.94953 5.00485 5.34644
-8.19946 -8.08941 -6.26459
4.62708 8.27014 -9.99956
11.7659 -4.58888 -9.99934
8.74367 0.831883 18.9998
-5.98691 -9.99957 5.92329
4.91981 -6.26403 -17.1142
10.0387 -3.09691 5.15475
-0.769417 6.5115 17.1444
3.68469 2.03056 -5.71267
1.20669 -9.99983 -6.02864
-0.54289 -4.6476 -18.9999
-8.19963 -5.56495 -2.39877
3.98896 6.64617 15.3438
-8.16948 -9.99942 4.79429
-5.01676 1.6579 -11.8167
9.78621 -0.956304 5.92861
11.7994 -8.0688 8.01575
2.60385 -8.32198 -5.94408
7.09839 4.57616 -17.1359
-0.757637 2.44838 -5.49332
-8.16623 -5.63604 2.11633
-4.16991 -3.77358 -10.0002
0.87044 -6.96366 -11.6893
-8.19967 4.87366 -3.60152
9.70055 9.99946 -8.1585
-8.17082 -3.12451 9.99953
6.14708 -4.29369 4.19545
-1.28781 6.29422 -15.388
-0.175718 6.58888 5.66827
5.60809 -9.99954 -7.87623
3.59569 -9.99963 7.95567
4.38051 -8.05699 -5.44159
7.44152 -9.99967 6.07177
8.03033 6.27496 9.9996
-0.752484 9.98027 9.99941
5.58843 -5.88322 18.967
8.2712 2.77841 9.99983
7.69634 -3.77463 15.5364
0.314072 -9.95496 -9.99947
11.7995 6.48841 6.74177
2.91576 6.36615 -5.89499
11.7715 -1.21463 -5.87346
8.79961 -0.324512 -15.3063
-3.81976 9.99961 6.15193
0.123221 -6.23867 -5.75702
4.63224 4.97643 5.314
5.79857 9.99955 4.55932
1.66244 -2.92853 19.0001
11.7997 -3.16719 9.96416
-4.14223 5.87046 1.19959
8.77909 0.955269 10
8.24286 -4.2313 4.25968
8.11253 9.99964 -3.77818
-3.97138 -5.81572 -1.74258
0.878914 -0.893121 5.96365
-2.04255 9.99958 7.32884
11.7504 9.94528 -9.99751
-2.42552 -6.24343 4.27897
5.00356 9.99946 9.97114
-0.232224 -2.12729 5.66879
2.05481 8.09792 -6.02212
-8.19954 7.83769 -5.90805
0.512682 -6.87958 -18.9991
2.89968 2.83521 18.9999
-4.4597 3.73835 -4.69902
-6.24606 -9.99942 -8.18961
-4.36184 -3.66942 -4.74426
9.7241 -9.99953 1.23851
6.35913 5.31561 -15.4001
3.84044 -8.40858 9.99951
-8.15789 3.15609 5.1023
11.7997 -9.96975 -2.53082
0.13527 4.74043 -19
-1.19233 -6.33389 17.1558
-3.09695 -9.96776 -9.99946
-8.19951 4.73002 8.18343
-6.53155 2.3501 9.99975
-3.20506 -6.99172 9.99965
3.72436 -2.71281 19.0001
-2.31243 -2.84501 19
0.147874 -2.79968 -19
-2.16875 -3.9247 -4.54989
7.41693 4.1942 10.0212
11.7995 -4.53261 6.37545
-2.18893 -8.1439 4.49438
1.59132 -8.51232 9.99964
-1.10144 0.764678 -5.98306
2.97924 6.9027 13.5925
-8.1995 -5.92804 -6.13963
6.79379 -4.96258 -9.99981
-6.61052 -9.9996 3.85487
6.89997 5.16043 3.15627
-8.1996 5.67209 -2.14711
11.7995 8.22532 1.69355
11.7997 9.9674 -1.28642
8.61177 1.61683 17.1654
4.39454 -0.323538 5.99323
-2.86651 8.38275 3.77422
-8.19946 -7.51486 -8.05737
-8.1995 -1.79716 -9.96649
-2.46765 -4.20344 4.28148
-6.47397 -4.11687 4.36964
5.7439 8.2106 -4.52763
9.39731 5.26202 2.90582
3.05467 -9.99908 -5.93778
-3.9647 -9.9994 9.96782
5.20039 6.18803 -9.99989
-6.51278 9.99955 3.98107
9.47161 9.99958 6.38314
5.38833 -9.99932 4.90234
-8.19952 5.61211 6.01449
9.75535 -7.97969 9.99934
3.52396 -6.79228 11.9372
6.71557 4.99031 13.5789
5.94685 0.877325 5.9523
5.55469 3.35226 -18.9998
-3.87014 4.09987 10.0603
7.50966 -4.06659 -11.8767
-4.65969 -4.34724 4.13312
8.79905 -0.684229 -17.1352
11.7651 4.75162 -3.65196
-3.02146 -4.87814 -3.57057
4.82831 1.6362 18.9999
11.7997 -9.97201 -4.3445
7.69275 7.90339 -1.13371
-4.77514 -2.40836 -11.849
2.11663 5.01876 -19
-1.00337 2.89434 5.311
0.787582 0.949859 -19
4.92766 -8.18162 -9.9995
-8.15953 -6.71828 -9.99958
8.79205 -0.259836 -11.8367
7.31857 9.99964 6.37205
-1.31968 -9.99948 -9.9678
-2.81986 -2.38728 -5.50625
0.798479 -0.147278 -5.99226
9.67224 9.9995 -2.39657
-0.784758 -4.72598 -5.43687
3.08446 -8.12212 5.86154
-8.19954 2.59175 8.09641
-2.25313 -9.99951 -8.33504
8.79315 0.16899 11.8164
-6.11008 4.55581 9.9996
-8.17567 9.99928 -2.87498
-0.511031 2.58346 -19
11.763 -4.90787 9.99934
3.33543 0.691743 19
4.94143 -9.99942 -9.9617
-8.19948 3.64634 -4.84632
1.85756 6.61312 6.01587
-5.91231 9.99945 7.93964
-4.25815 -5.99693 -0.0144251
2.62495 -6.94987 10.0295
9.65484 4.20246 9.99955
-4.43544 9.99943 9.97279
-4.90088 -2.0192 -18.9675
-8.1611 -9.99939 -3.34326
9.84728 -9.9995 3.24145
-8.19957 -4.65878 6.63586
11.7694 9.99916 -8.42948
11.7994 7.95558 -7.99795
-2.83598 -9.96581 3.79067
7.5748 -3.96916 17.3686
8.77676 0.796031 -13.5793
-0.472604 -9.99954 8.11251
3.78228 8.43256 9.99956
11.7994 -6.37012 7.35532
0.337754 6.89926 10
-4.22035 9.99951 -7.84917
4.79617 6.38417 9.99976
-8.19963 -2.82717 6.94741
7.62613 -0.752694 5.98823
-4.1641 -9.99965 -5.38156
11.7657 -9.99922 6.50969
1.95726 7.01433 15.3339
8.2153 9.99963 -5.77788
6.50474 2.07957 -5.66407
-1.33667 -0.652455 5.99575
11.7683 -5.8976 1.09973
8.16059 2.92548 -17.1284
9.93971 -6.06297 9.9994
7.00869 7.8407 -9.99948
-6.04574 9.99951 -5.97777
-2.99097 -5.12372 13.6378
-6.1467 -5.9916 -0.691403
8.47339 -2.34899 5.52237
-1.07504 -4.41457 18.9999
-1.95182 5.90812 11.9581
0.812007 -6.95043 17.1363
11.7679 9.99915 -3.08727
-2.79141 4.64804 -3.86703
-2.6492 -1.89571 5.71351
4.61009 9.99968 -6.93658
-0.933305 9.99889 5.41124
11.7681 -9.99918 4.59653
-0.8859 6.51656 -10.0001
-8.19948 7.99334 9.97169
-4.88032 9.99952 -3.97123
-3.13859 0.39788 5.99485
2.92468 -6.90579 17.148
-6.38431 -0.908004 -5.94444
-8.19955 3.92141 -7.42754
-3.72226 -4.32287 15.3888
11.7996 -6.64938 9.95679
7.36947 -4.32788 10.0006
11.7996 5.67269 -2.10128
-8.19967 -5.9843 -0.925498
-2.22275 9.99967 -6.65816
-0.353001 6.67665 15.3336
-1.22792 -0.861809 -5.96143
-8.16472 -5.06965 -9.99948
-3.76261 5.61662 -2.25987
5.82575 -2.90531 19
10.0913 -9.99951 -5.31647
1.74208 7.08939 9.99985
-4.00208 3.91335 15.3101
10.0755 -2.76546 -9.99956
-6.1927 9.99944 -7.95594
11.7996 -3.99122 -8.23303
11.7996 5.42918 8.26165
7.01836 -8.24579 -2.9632
7.72572 -9.99971 -1.21609
-3.05991 -0.733579 -5.98486
-4.68992 0.152569 -5.99694
11.7997 4.70478 -9.975
9.81024 5.91295 1.10423
1.98404 -2.47509 6.02297
-2.4714 9.99949 9.96103
3.40265 -4.76093 -19
11.7993 3.61695 -4.85602
0.670119 6.92653 -15.3868
-6.13748 -5.38847 -9.99961
-1.38531 -0.78687 19
-3.29304 6.81511 3.16728
-6.50418 -9.99941 -9.97774
3.79259 -9.99954 -7.80863
0.622265 6.94142 -10
7.88761 3.45912 17.1484
4.68745 1.4082 -18.9999
-4.44047 -6.29476 -9.99971
-8.19951 -0.0175771 -9.96598
-4.63877 -2.85565 10
8.27745 -2.79199 9.99997
-8.19958 -7.91587 1.67536
9.84422 9.99952 1.25646
7.4276 4.18107 11.8229
1.13306 -6.97056 -17.0252
-0.195634 6.71271 11.9284
8.80229 0.369154 -18.9703
-1.32178 6.32377 10.0009
7.76066 -3.66799 11.9381
3.38457 3.02075 -18.9999
3.8303 9.9995 7.96394
7.85581 -3.63877 -10.0001
2.32267 -6.99745 -18.9708
-2.85217 0.947532 -5.93963
8.47869 -2.09237 -10.0286
-8.19943 7.96164 -7.91765
-6.47641 -9.99943 7.9385
3.58391 6.81859 -9.99989
8.45342 -2.22225 -11.8667
-0.122289 4.862 18.9999
-0.340171 -6.68074 11.8491
-1.68609 1.28736 5.85818
-3.08493 -5.04238 -10.0293
-5.19984 -0.337013 -15.3775
4.99303 0.866856 -5.96056
5.55855 -9.99961 7.45441
-4.81219 9.97017 -9.99936
0.727009 8.27158 5.92555
-6.46866 -2.60046 9.99964
5.48707 -6.02319 -10.0006
0.77132 6.95057 13.6567
-5.20871 0.789061 -9.9995
-1.19775 -6.38173 9.99982
6.57517 -0.249912 -5.99428
-3.90915 8.03819 1.87017
-8.1679 3.83386 9.9996
-3.02037 0.651791 18.9998
8.56901 -1.86293 11.9205
9.59166 7.75614 -9.99945
4.61196 -4.47256 19
-6.08733 9.99959 -1.99589
11.7995 4.64678 6.26512
4.39718 -6.55608 10.0005
2.96995 -4.19289 5.88304
-5.87986 -9.9996 -4.09998
-6.52204 9.99945 -9.97024
-5.09724 -1.18231 -17.1543
-6.15913 -5.90675 1.04768
7.03246 -0.294494 -18.9999
9.84863 9.99954 -0.600907
-6.41144 9.9995 9.97001
-0.40183 -6.67515 -10.0279
7.02986 9.99943 3.0577
10.0688 4.14538 4.34042
1.40393 3.03817 -19
1.01111 -7.06058 -10
-2.40891 -5.59936 -11.9422
11.7581 -6.49368 -9.9993
2.12139 7.07679 -9.99998
6.84932 -2.89566 5.25354
