-4.21805 -3.93352 4.5396
-8.05941 -6.14299 -0.403976
10.1206 3.34361 -10.0077
-6.64049 -5.0785 -3.1799
-4.13818 -10.01 7.80175
4.65582 -6.39198 16.023
-6.14563 -10.0109 2.67398
7.25782 -4.41622 -17.4343
11.5884 9.89074 1.49972
-3.23876 -0.884716 -19.0049
-6.14462 10.0069 0.677396
9.46857 3.16153 5.09139
-6.29473 -10.0072 -1.02458
8.37809 -10.0038 -9.38195
8.33123 1.87736 18.9164
10.0529 -10.0148 -5.93113
-8.21423 -1.46238 7.93707
-1.79486 -5.99423 -11.6934
-4.73235 -10.0162 -4.35798
-7.92314 1.38006 -9.97534
11.7553 3.00249 -9.73539
1.29709 6.98099 -14.7437
11.7835 9.68195 -4.72123
7.58543 3.48091 18.9086
6.36986 8.20527 -3.87811
4.03964 6.07408 5.56451
11.6717 4.17303 -4.5602
5.51805 6.06753 -4.71884
8.18814 10.0057 7.75166
-8.20801 -7.94833 1.02075
3.57232 -6.78547 17.316
-3.93112 9.84878 -9.85547
-6.65947 -0.336256 10.009
-4.41168 -3.27444 17.2278
-2.90894 -9.81597 -3.996
4.54892 -3.54964 19.0054
7.68569 -8.0763 1.07245
7.33816 10.0039 -5.95854
-8.09542 1.29614 6.05674
-6.34808 0.304721 6.00266
-2.01766 -3.1389 5.11532
-7.22457 -9.91122 -9.86325
-1.66528 1.69572 -5.75139
7.647 5.97885 1.73787
-6.0939 -5.6066 2.11356
-5.83305 -10.0076 6.34971
-8.20674 -5.77519 -8.00771
5.83357 -6.18678 -4.4347
11.7183 0.910432 6.11699
11.5344 -9.96742 2.10057
-8.11616 -5.44417 3.09708
11.6626 5.33453 -3.1441
10.0153 3.07641 10.0038
-8.20954 7.88787 3.93022
8.57954 0.362439 -18.8817
7.80457 -3.60951 -15.4718
-8.14231 3.6674 -5.07778
-1.6098 -9.78047 4.92461
-6.24478 4.54386 -3.93461
6.08367 -5.52977 11.5337
4.87358 -6.28184 -12.2238
7.367 4.2499 -15.4925
-8.21207 8.07725 1.98191
11.7565 -5.97344 1.90624
-8.20738 -8.2335 -5.55391
-8.05897 4.71328 -4.04994
6.77898 7.96705 -10.0087
-8.20794 -7.88717 6.42015
-4.73767 -2.51988 -13.7273
-4.85913 -10.0088 4.27978
-8.2118 8.23139 6.09368
-5.18632 0.542764 -16.9494
-1.954 2.66951 19.0051
7.72718 -6.03601 -1.64775
11.7245 -7.71988 9.79693
-4.50204 4.10457 -4.3661
-1.06164 -6.62743 -10.0948
-4.9142 -5.04163 -3.23394
-2.59834 -5.4494 -15.3726
11.8066 7.98234 -1.17671
4.01851 -10.0086 7.49867
-1.70468 -6.07436 17.0802
9.78298 -10.0104 0.919766
-2.45731 9.91671 4.46627
2.67316 -6.72306 18.9407
11.24 9.79689 9.90811
8.17632 2.89184 -14.8565
-3.64918 -5.44006 2.86882
3.1581 6.87735 15.3705
4.9011 -6.27536 14.2489
7.42448 9.94501 9.68927
-2.23709 -7.90653 -4.43359
0.861174 3.32726 5.93235
-8.07958 9.85421 -1.18787
-1.55143 9.84109 9.88473
2.11897 -10.0109 8.12196
-8.20959 -6.60904 -4.15132
-8.10976 -4.20571 9.80469
-8.19162 2.36477 -5.85947
11.8084 2.11559 7.82984
-5.40109 -9.92457 9.79066
2.07313 7.00014 11.8479
-1.24735 0.170669 19.0022
-0.138509 7.51694 5.67579
11.6382 9.869 -6.52731
-5.07273 -1.34445 -15.4428
11.6813 9.81909 6.64684
0.323294 9.95293 -6.13916
2.81282 6.92527 -13.3606
-2.056 -10.0091 -8.53741
9.92864 4.26142 -4.21007
4.81129 6.31944 -15.3784
7.04648 4.70845 -10.1909
11.5285 -5.0112 3.40493
-2.66248 -4.61178 4.09244
11.5184 4.86479 -9.92952
-8.2073 -7.26778 8.07862
9.64904 -5.45439 2.48807
-8.21189 -7.63437 2.82204
7.78494 3.61943 -11.8496
11.7594 9.73746 -2.97584
11.7674 9.72243 -0.0583316
-4.9446 -2.59275 -10.0839
-2.72497 4.59216 -4.04567
10.0886 10.0144 7.98667
3.77443 6.4299 -5.66533
6.10845 -9.88056 4.42807
-0.159443 -6.61138 -18.8278
-8.2093 8.12882 -8.13747
11.7011 -3.95346 -4.806
-2.37936 5.61676 14.9532
-3.06389 8.056 -10.0102
11.6726 -9.86477 -1.66608
4.30796 -6.51777 -5.45706
-6.33805 3.23004 -5.06634
7.51834 9.86043 -9.84431
-4.39451 2.66894 18.9524
8.23144 -2.74971 12.1861
-4.76502 2.48238 -17.3122
5.51306 1.21897 -5.89776
-3.64566 -10.011 -5.97041
5.44307 9.97433 5.17411
-3.71121 4.2998 -18.6172
-1.95324 -10.0071 -6.84168
11.808 7.98306 5.80119
-6.54261 -10.013 -4.88317
-8.20568 5.30756 -6.17003
-0.532716 -4.02735 19.0048
-8.21236 -5.9308 5.55721
1.66897 4.93109 -19.0038
-4.81111 -2.30883 15.3794
-8.20541 4.57286 6.43664
0.866806 6.95285 -12.4258
2.4224 0.558392 5.99298
9.42007 9.91191 -9.84358
-8.05075 9.82077 0.569641
-6.17809 9.8789 -9.86162
-6.54974 -1.68566 5.74954
-3.64151 -10.0048 5.81631
-7.9614 4.82079 9.95965
9.86591 -10.0063 -1.33914
10.0854 10.0189 -7.89792
0.33558 -6.83219 11.2563
5.68843 9.95384 9.72191
-2.74086 -5.75731 -10.0531
11.6111 6.41143 9.92085
6.38884 -4.01787 -19.0093
-8.20676 7.97641 -2.10278
11.8134 -8.10568 -8.17947
4.49687 -6.39961 -18.6854
-8.20672 6.40597 -4.74421
-6.20659 -5.99425 0.357682
7.55765 -3.96789 -11.8851
-5.16188 0.769177 13.6571
-0.637462 4.27361 19.0055
7.45175 8.14245 10.0111
11.804 -6.81179 3.97043
8.39911 -5.79072 10.0023
-7.99699 -3.32175 -9.94275
3.78422 9.716 9.96111
-8.10153 3.1251 -9.70983
-1.89294 -1.13496 5.89352
7.11749 2.9992 5.19909
-8.09741 -8.12258 9.78218
11.6976 -2.3361 -5.75554
6.05536 -8.06323 -4.21563
-4.07554 -10.0119 -8.01954
5.85441 -10.0107 8.19237
-2.68349 4.55096 4.13485
-8.22485 8.04249 8.14566
-3.35046 9.70373 -3.21206
9.86201 1.63277 5.76365
9.89017 -9.72309 -9.94074
8.3151 -10.0035 -7.05217
4.21007 0.820248 5.95827
3.37328 4.78493 19.0045
-8.08987 -9.8569 5.76414
0.914446 7.01979 10.2271
-8.20929 -8.34283 -3.55513
6.21638 6.13285 10.0142
11.8055 -7.72582 -6.34669
6.27757 5.38707 -14.0254
4.61071 10.0098 -8.10424
11.4839 1.15245 9.97231
9.46312 -4.59131 3.85279
10.1198 7.00036 -10.01
-4.44261 3.16583 -13.7894
-3.14561 4.97792 -16.6836
11.8062 7.92175 -5.64618
-1.87304 -10.0093 6.8217
5.18215 3.61949 19.0061
11.7714 -9.69715 -3.44654
-2.37541 9.75192 -4.43916
-2.88469 7.38237 -3.75157
-7.93745 9.97538 2.35217
8.66338 -1.38296 -13.2076
-6.1526 -10.0073 0.867914
11.7572 2.88957 9.70153
-4.75415 2.44836 -11.8705
-8.20476 -3.37247 7.71989
-0.271409 -4.44394 -5.62637
8.36093 -10.004 -4.91879
-8.21519 0.578839 7.92455
-7.89374 8.42761 -10
-8.16922 5.93313 2.09587
11.8079 4.55115 -8.25244
-0.271387 0.699265 -5.97787
-6.04954 4.11645 10.0053
-4.58769 2.85517 13.7909
-8.20998 7.9488 -0.0626526
-1.53369 6.16518 16.6378
9.15273 0.163298 -10.0626
-1.60731 -9.79161 -4.99558
1.3613 -6.80075 -18.8488
-8.20017 -2.39937 -5.98571
11.8045 -3.94819 -7.31813
3.41716 -6.3138 5.79429
-5.81613 7.9279 10.0095
6.54503 -3.68339 19.0179
-0.835138 -9.88323 9.85662
11.8076 -8.23907 2.98261
7.87144 -10.0093 7.80538
10.1784 -10.0103 -3.86474
11.8105 0.330071 8.10094
-8.21526 -8.23809 -0.672089
-5.82598 4.77221 3.64531
0.0758337 2.31563 19.0032
-3.36525 0.912861 -5.94149
7.63296 -3.87806 15.7144
10.0219 -10.0139 -7.97661
-3.07657 2.96243 -5.2256
2.72781 -7.76912 -5.9268
11.7008 5.98893 -1.57297
7.29134 -5.21421 3.11269
-6.46709 10.0179 -5.36229
11.6388 5.10513 3.42342
-4.75981 -2.40801 11.7996
6.66986 -5.03074 -15.7427
7.53899 9.86972 -2.37048
3.67827 9.8305 -9.79693
0.908378 10.0092 -8.01289
-8.21041 4.42475 8.26018
9.40559 5.20484 -10.0031
10.0404 4.45842 4.00312
2.05284 5.50969 -6.01128
11.8031 -5.93549 -7.8709
-3.4941 -4.37581 -4.08927
11.7638 -9.73054 -5.28108
-2.63652 5.03386 18.8763
-4.15034 3.6986 -16.1779
7.42095 4.16478 11.9318
4.54567 -8.25497 -5.32436
-0.0851956 -9.93599 -5.94253
4.7926 -6.51413 10.1214
-5.10402 -9.85337 -9.85624
-3.8776 -9.86915 -2.45348
-8.21223 -7.71001 4.55424
-6.60686 10.0165 -7.76349
3.93739 4.50953 -5.60915
-4.83736 9.90289 9.80803
8.32043 -2.58633 -16.9642
8.30156 -8.38774 -10.0104
1.66753 6.86711 18.8615
11.5022 9.98097 -1.45673
-7.74597 -9.9369 9.72138
9.26848 9.7783 9.86848
-6.14845 -4.27212 10.0054
-0.0258146 -10.0138 -8.02873
-8.08308 9.86857 -9.4114
1.54754 -4.39888 -5.99903
-6.56391 -2.54077 -5.42426
2.99593 10.0127 7.93088
3.96043 6.67919 11.758
9.9267 -6.56432 10.007
7.08814 -4.59188 -13.8417
-1.31063 3.58648 -5.132
-0.893058 6.46593 -12.4336
5.9501 5.65099 16.8675
0.486218 3.08305 -19.0046
11.7318 -0.87099 6.1461
7.5375 0.808866 -5.95484
5.26524 8.20438 10.0095
2.83105 -6.61007 -18.9638
-1.14162 9.9026 5.43398
8.53934 -1.94527 -15.0006
-4.58219 -2.25141 -18.8828
11.5456 -0.691725 9.90897
5.90448 -2.85012 5.27144
-8.09313 -9.83199 -8.07337
-4.65347 -5.86713 -10.0028
3.76828 4.68769 -19.0079
6.88877 4.80938 15.2934
-5.02209 -0.427263 -18.8247
-3.68953 -3.99411 18.9443
3.05007 7.24079 10.0076
-4.96511 1.21858 -18.8344
1.56654 -6.33673 6.00195
-3.41469 4.67001 13.6155
-8.2125 -7.45671 -2.07903
2.50469 -6.96713 -15.269
10.2214 10.0061 -4.20064
-5.90494 -3.97916 -4.49752
-8.16407 -6.009 9.74304
4.73066 10.0134 7.8769
10.0838 -0.0077063 6.00005
8.46249 -2.15895 -11.5978
-4.21353 6.63139 -10.0022
-3.46241 4.61978 -14.5378
2.79798 10.0187 -7.8047
9.05737 -1.41981 -10.032
4.54815 -6.23804 18.8487
-5.19477 -0.241446 15.3305
-8.21348 1.99679 -7.95162
8.77469 -10.005 -3.00848
-4.28106 6.107 -0.930854
5.68755 6.15204 4.57542
-8.20814 6.26722 7.87958
-3.81551 7.8726 -2.09178
6.05022 -2.0126 -19.0059
-7.83135 -1.8435 -9.95996
9.74596 -3.277 5.01136
-3.25614 -4.86752 17.1589
-1.51302 7.84544 -5.00833
6.33592 -5.32956 -12.2002
-4.81651 10.0182 -8.29322
2.66269 -5.71292 -5.94016
-0.458036 8.29165 10.0056
-8.17969 4.82298 -9.61041
8.42081 -2.29735 14.5636
3.48647 0.148195 19.0022
6.48888 -2.35009 -5.52155
-6.01628 -5.78864 -1.56258
3.95296 9.90357 5.81238
-1.74881 -6.03018 11.9092
-8.2065 -5.29233 7.50419
-2.06687 -10.0149 8.56499
7.7437 -3.90189 4.57276
-2.14835 -8.05059 -10.0064
6.80252 -10.004 -5.99867
1.01865 -6.79892 18.7843
-6.18173 10.0064 4.36089
-3.08825 -9.84956 3.7233
11.5006 -0.490616 -9.92635
0.236864 4.62022 -5.79138
-0.107569 -6.74165 -11.689
8.12184 3.02778 -16.958
-8.11295 -0.414287 6.2184
11.7809 -0.56267 -6.22813
-0.128888 -6.73516 13.1763
-1.47547 5.97149 5.02941
-6.16653 3.48745 4.88614
-4.35944 -3.32828 13.4601
-0.388967 6.65585 -14.2971
7.65547 -9.79697 9.9183
-1.11428 10.0116 7.85696
11.7795 -7.04573 -9.76199
-4.14623 3.69164 11.955
-3.54179 5.6067 -2.77939
4.25188 6.40505 -18.8802
11.8072 0.365348 -8.08514
4.70005 6.3703 -13.5152
6.07942 -8.0603 10.0136
6.08641 -0.576641 -5.99205
3.13699 -4.75504 19.0094
3.8839 9.92245 -5.82782
5.99926 5.59054 11.5542
-0.212662 9.93919 -9.76079
7.92849 -3.11379 18.7959
-6.31403 -8.2585 10.0224
9.56433 10.0059 -2.20989
6.60331 9.83421 3.84984
0.747676 6.74978 -18.7863
8.75604 1.67449 10.1235
-1.66151 5.7455 -4.91285
9.81818 -1.67797 5.764
4.22494 -0.882621 -19.004
-6.50583 9.72921 9.94039
1.82409 9.94663 -9.7849
6.40138 1.78277 19.0028
2.76604 8.28985 -9.99542
-5.1942 0.381761 -15.0415
8.26409 -2.70239 16.9159
9.91188 -2.73853 -5.34155
-5.61815 -10.0031 -6.38883
0.304274 5.351 5.81077
-8.05588 6.65013 -9.84941
-8.04172 -4.51074 4.22076
-8.11442 0.771312 -6.1235
11.8105 7.07596 2.77045
-4.18195 8.00762 0.0401729
5.03357 -10.0041 -6.89311
6.71972 2.67218 -5.37823
-6.16955 -10.023 -8.10328
6.41098 -5.271 15.3998
11.8025 -4.66333 6.92916
-3.94258 -4.00784 15.4276
11.8106 -1.50788 7.9915
-5.05502 -1.44032 13.6191
-8.20422 6.44138 6.02847
-3.50422 -2.07787 5.63506
8.97858 1.75675 -10.0228
11.6767 9.81581 -8.40201
11.8053 6.41902 4.65259
-6.53546 -6.34524 10.0119
-8.20879 3.89957 -7.52905
8.47324 10.0048 -4.2019
2.6425 6.9567 -11.5572
7.42884 7.97212 -2.04357
11.8058 7.63411 7.70715
-3.2045 4.91942 16.9748
-7.98846 6.03028 0.6348
6.72013 -0.238144 -19.0039
7.3383 -4.26689 12.0203
-8.20538 7.72642 -6.17925
7.96477 -6.1617 -0.070834
5.95492 5.3167 -18.9578
-0.0025404 6.47947 -5.72228
11.8124 -6.05931 8.21694
-8.188 -3.57849 5.42075
2.02925 3.55288 -6.01121
11.5809 -9.91907 3.97656
8.37066 2.4173 12.0481
0.230369 8.35981 -5.79501
6.43633 -10.0104 -8.09896
4.45653 -9.88455 5.5011
0.677794 8.45648 -10.0027
-3.76023 -4.2579 -14.2356
8.0953 -3.06478 -13.4686
11.7271 -4.33083 9.73516
-6.309 -10.0144 8.1453
6.22878 5.42329 -15.8663
-2.77463 -6.01776 -3.87273
8.09857 4.32563 4.15011
-8.13117 -9.80027 1.74365
3.86674 -10.0078 -8.13795
11.8077 -7.96761 -0.783541
-8.20449 -4.58222 -6.29956
-4.47259 1.82196 5.72633
9.82689 10.0096 0.00651097
-4.77405 2.75068 10.1219
0.0466062 6.55257 18.8766
-2.40597 -8.1427 4.28052
-4.96822 -1.79562 -11.8102
-0.775627 -9.7008 -9.91273
-4.2308 -6.05217 1.32465
7.52655 8.00022 1.73578
-8.06579 -5.0523 -9.83671
11.7179 4.0321 4.82797
-2.16284 -6.37531 4.50278
4.11208 -9.94014 9.6499
-7.97206 9.95132 5.74812
4.40572 -4.51603 5.40952
2.89537 2.50198 5.8939
-2.87542 1.17957 -19.0049
-8.15943 -9.79697 -2.06038
7.25756 -4.59746 10.211
-6.14609 6.01056 10.0075
-5.06626 -1.40785 -17.2074
-2.94454 -0.888073 19.0051
5.85743 4.21971 4.46651
-8.20451 -6.42288 -6.06553
7.78036 8.05412 -0.209807
-5.19948 -0.274826 12.0095
8.8118 0.301181 17.5859
-0.451072 4.62553 -19.0044
4.86276 8.13784 -10.0003
-4.34314 3.80377 4.63815
11.8092 -8.35961 5.22894
4.9976 -0.977025 5.92629
-6.55707 2.01556 10.0024
0.0331078 -6.79372 16.9425
-8.21087 6.17864 4.37718
11.6137 -9.96219 -9.2744
3.47953 7.91207 5.76046
3.46995 1.279 -19.0041
6.7271 -9.8815 -3.72417
0.21586 6.83548 16.9922
-4.76545 -6.24296 10.002
5.9907 -4.43748 4.3166
2.53828 6.85948 -18.8693
8.7172 1.09409 15.871
-8.20393 6.17628 -7.85695
11.8062 -5.45309 5.28589
-1.00278 6.48096 10.3216
-7.98617 -3.60652 -4.86539
-8.11038 9.79689 9.54504
9.73167 10.0069 2.03253
11.8055 -7.99996 1.17546
-8.20889 8.07122 -4.06855
5.14359 6.15287 15.0508
9.79385 5.93327 0.92788
-6.03996 10.003 -3.26151
-3.75165 -3.97602 -18.8446
-3.59685 -4.48652 -16.6678
9.46462 10.0052 -6.01938
7.90941 6.44931 -10.0014
-1.16728 9.89925 -5.4397
1.25995 4.76418 19.0061
7.84342 -6.5037 -10.0019
7.00199 4.71817 -17.3758
5.26748 -9.87608 -5.09778
5.58179 9.84928 -9.87279
-0.871922 -6.48997 -16.7659
4.1886 -1.66569 19.0025
-1.44582 -0.554598 -19.0034
-8.04945 -5.73004 -2.2247
8.17872 -3.31308 10.0898
-3.10031 1.04209 19.0055
-2.42234 5.58627 -13.3608
8.07957 -10.0035 5.38961
-8.11124 4.2221 4.51031
4.14715 2.01628 19.0028
4.95788 7.98369 -5.08683
6.29239 -5.95764 10.005
11.8052 6.28525 -7.2129
-0.0737769 -1.93273 19.0052
11.5413 1.28776 -9.9422
6.54087 4.94554 18.7606
-3.97672 3.95857 15.4167
0.708648 -4.94269 -19.0039
2.33495 3.16558 19.0026
-8.17636 1.18467 9.75949
-2.40224 5.32882 -18.8041
9.92439 -4.27531 -4.19717
0.832778 -9.92577 9.79144
5.70346 6.12132 -10.0855
-4.30326 -6.16169 -0.464312
7.5906 -3.93602 13.8795
-8.19886 6.01778 -2.74799
2.04652 -3.05536 19.0038
4.27415 -1.30097 -5.85346
3.77502 0.486094 -5.99035
-8.133 9.78659 4.00279
6.73286 7.61951 3.40091
6.68275 9.90497 -3.80875
8.00466 -9.90903 -0.362877
11.806 8.0239 -7.7797
11.7702 -3.92394 -9.70174
4.20493 4.12929 5.48971
3.14468 6.87976 -15.2544
3.27019 -6.85978 13.1925
-3.40346 -9.92928 9.79693
-2.62338 -5.42486 -13.3739
0.571587 0.124131 19.0024
-8.07735 9.87651 7.54923
-7.91053 5.08057 3.23059
-2.87917 5.20612 11.7566
-4.46931 -3.11466 -15.4998
3.26152 -8.15874 5.81008
11.7188 -2.56785 5.76572
-8.0821 6.51278 9.88021
-6.54323 1.50436 -5.79334
11.6672 -9.79119 -7.1426
-8.21523 -1.79659 -8.03795
8.73861 1.14434 -17.1345
-2.31881 5.65439 -11.6068
6.06233 -5.26856 18.9407
11.5907 -6.00608 9.90436
9.28734 5.29185 -2.82693
8.30004 10.011 -7.84951
11.8029 3.92625 7.42227
4.26167 6.56304 17.0159
8.07103 3.33604 10.1704
-3.91368 -5.79367 -2.21612
-5.00994 1.26473 18.7946
-1.44918 -5.91946 -18.9482
-8.11915 6.0963 -1.01912
8.52147 1.99496 14.1733
-2.36569 7.79297 10.0086
0.363586 -0.880512 -5.95102
-1.90755 5.94258 -15.1714
-6.38559 -6.21972 -10.0194
3.57092 6.79615 -17.0756
-4.26691 6.08691 1.07457
5.84617 -9.85255 9.92366
2.6928 3.07825 -19.0026
7.75092 -5.87819 1.63282
1.88338 -2.72074 6.00638
-4.34596 -9.8407 0.459114
-3.50133 -4.56708 11.9435
4.39877 -6.51241 -15.968
7.79805 -9.87361 1.55888
-5.10412 5.36608 -2.69288
9.83118 5.89733 -1.07269
2.3004 -0.644046 -19.002
-2.45053 -5.65957 10.248
-5.48955 -1.18247 -10.007
6.04034 -4.13684 -4.45285
-4.22619 -3.56521 -12.2116
11.625 -9.87243 0.205872
3.46577 6.81479 13.6096
-1.69596 6.06733 12.7823
11.4843 -8.5328 -9.97144
-4.52509 3.02116 17.1086
-1.88524 -8.60967 10.0057
1.94777 -7.27518 10.0482
-7.99699 -9.93328 -0.136892
1.5153 8.27207 6.0019
-5.17246 -0.702849 -13.4321
3.35672 -9.84691 -5.89974
-1.69788 8.05855 4.8785
7.26155 -7.07334 2.45577
9.22092 10.0041 3.98255
7.52802 -9.83436 -2.06198
11.5948 5.76088 1.8728
-5.34268 0.418744 -5.99964
-2.38694 -5.6347 -17.2905
5.11662 5.95105 18.8269
-8.10856 -8.56124 -9.76768
8.10381 0.132439 19.0126
-0.822606 -6.49116 -13.2297
8.0288 -2.33721 5.53719
7.30213 4.71142 10.1031
-1.84806 -5.97653 13.6642
6.2744 -10.0055 6.39015
-6.34151 1.99794 5.66929
0.525015 -6.89004 -15.1808
-4.55414 10.0118 -4.49248
-3.03909 8.40604 3.52666
5.60347 -5.8883 -17.0123
-7.94973 8.13864 9.9747
-2.01396 9.85467 -9.79693
4.20521 -6.57621 -14.0381
2.03373 -1.18727 19.003
-0.780262 -6.50964 15.2291
-2.83431 6.63849 3.80496
-8.20681 2.57131 7.73615
-2.08957 6.1828 -10.0309
-8.20582 0.0666534 -8.03833
5.34202 6.05504 -17.2943
7.38895 4.24143 17.122
1.15009 -6.97295 14.6835
3.98418 -2.74835 5.60323
4.07598 -2.79463 -19.0053
-3.49168 -7.60858 2.82438
4.61098 6.53335 10.1832
7.21834 -4.48924 17.5255
0.733665 -6.31202 -5.91937
5.74325 -5.79714 17.2167
2.04266 9.96164 9.7031
9.36599 5.39619 2.63977
9.50244 -9.97688 9.66188
7.94032 6.15673 0.00680864
-0.840442 1.51184 -19.0057
5.08124 -9.91932 -9.78644
5.13277 2.49152 5.45315
-0.777388 -7.90985 5.4394
7.65114 10.0018 5.52194
-8.12403 -4.82921 -3.96503
0.981171 10.0088 7.91419
-8.14951 -6.85767 -9.74437
10.1834 2.7283 -5.34319
6.32386 -5.34524 13.3875
1.05128 -2.65215 -5.95559
7.92725 9.9086 -0.835507
8.39702 2.40634 17.2596
-2.98871 -7.23411 10.0013
11.6417 1.16467 -6.03428
11.7765 2.72661 -5.63238
-0.202347 6.72399 -16.491
5.58165 0.144848 19.0045
8.55924 1.82237 -11.4863
-2.36 -5.30128 18.9663
-3.93313 4.40697 10.0771
11.6643 4.5194 9.83748
2.77579 -6.93347 -13.2756
8.73305 -1.07731 16.3435
-4.2437 2.77912 -18.9542
11.7867 -5.35878 -3.47504
8.79628 -0.304864 14.5615
-4.87896 2.11451 -15.3891
9.5997 0.859546 -5.95018
9.43184 -10.0036 3.14779
-5.76773 -4.80734 3.59702
-5.11542 -2.56306 5.4278
-1.25905 -6.09881 -5.164
-4.19592 9.94853 -2.00411
1.77067 -6.99916 12.4489
-1.2321 8.18397 -10.0078
7.38868 3.89435 -18.8959
-0.382475 6.70774 -10.2788
6.38191 -1.64954 19.0091
11.8128 -8.2193 7.72729
1.74097 8.53671 10.0052
-4.32708 10.0049 5.25408
11.8072 -3.32703 7.94786
0.0403322 -1.91702 -19.0024
5.18485 0.847976 -19.0035
1.15418 -8.16734 5.98394
3.01994 -6.89487 15.1525
1.97531 -10.0139 -8.06339
3.3947 6.66038 18.8453
-5.2059 0.279713 -11.6869
0.338311 -7.94485 9.99055
-1.08279 10.0091 -7.65996
9.64859 -10.0082 7.30214
6.54788 10.0092 -8.10167
5.13581 6.15571 13.104
11.8044 -5.64116 -5.77411
6.79996 -9.79111 -9.91239
6.37294 10.0051 7.25815
-8.11657 9.78771 -5.11612
11.7541 8.12788 9.77871
8.65808 1.40525 -15.3459
1.70969 0.985561 -6.00304
11.5292 -9.64945 9.84747
-4.77325 2.33352 -5.53281
-0.29152 -2.3221 5.65475
-3.87967 -1.00502 -5.9154
11.7871 9.71063 8.35865
11.1518 9.73891 -9.99054
2.2522 9.89865 6.11143
7.94384 -4.26637 -4.21892
-3.7597 4.25724 -12.191
4.80008 -2.93912 -5.323
11.8055 -7.42512 -4.46047
7.7434 -8.01252 -0.808836
5.05254 3.12617 -19.0034
-0.747161 -6.30771 18.8657
-3.36555 4.82772 -10.1968
1.01824 -6.96054 -13.4908
0.473332 -0.0483164 -19.0018
8.7924 0.253712 -13.8613
6.28093 -6.51968 3.99723
1.03194 -8.23598 -5.94182
-5.0651 -0.429126 18.8521
-5.08075 1.2995 -13.398
-3.05751 10.0115 -6.15585
-1.98271 3.18677 -19.0043
6.71591 -8.31248 3.42288
11.7919 6.4704 -9.60122
2.86445 -9.79388 -9.93587
-8.20743 -7.85295 -7.66465
-8.20873 -3.70939 -8.02085
0.229605 9.96864 9.75977
-4.29107 6.48574 10.0012
-3.83192 5.46613 2.76191
-6.21788 -8.16557 -10.0242
-4.58498 -2.27255 18.9407
8.73817 -5.25819 -2.87744
-3.78551 4.01306 18.8341
9.70703 5.19222 10.0051
-2.71403 2.81941 5.28813
-6.75467 4.96779 -10.0143
-4.16916 -7.76502 -10.0155
6.18249 -7.87083 -10.0068
-8.12741 -2.07629 5.90571
8.48414 2.50945 -5.4519
11.8026 5.71412 6.36351
-6.4651 -3.57031 4.82076
3.68806 6.81611 -10.1562
11.806 6.14972 -4.99624
11.646 2.57538 5.64745
-8.13241 -9.7112 7.79784
-5.64325 0.341572 -9.99805
-3.05084 -9.74928 -9.92822
6.02966 -5.42848 -18.736
-1.01948 -6.65159 10.0903
11.664 -6.16015 0.066906
7.89717 9.85934 0.859625
-2.27712 1.05707 5.91431
1.86067 -2.64131 -19.0031
-4.07302 -8.02563 -1.09563
9.89306 -4.38611 10.0091
-1.10939 3.93778 5.25261
6.35478 5.31614 -12.0158
9.87872 -8.37172 10.0155
-4.93984 1.90775 15.4455
2.41246 -4.47184 -19.0043
-5.18249 -0.796948 10.2803
-6.20949 5.58047 2.20077
3.08572 -6.9058 -17.2203
-3.26638 -4.83044 13.7646
9.85769 -5.93945 0.852014
5.54531 9.83634 -4.87776
-1.83853 -0.609491 -5.98608
11.8071 8.02695 1.15835
-0.767233 2.15538 5.63204
7.5125 4.04476 -13.5015
1.79271 -7.01345 16.7943
7.15575 -4.64806 -10.1757
2.49931 -4.5415 5.96531
11.5592 -5.50024 -9.86904
8.53796 -1.52037 18.7267
11.674 -9.84612 6.22504
-6.63275 -10.0096 4.61687
-3.80905 7.69079 2.02427
-3.87766 8.51042 10.0149
6.22133 0.824298 5.95287
-8.06908 -9.89331 -4.05877
10.0646 -0.909751 -5.93385
4.3388 -4.70496 -5.43843
-8.03865 9.88633 -3.10689
11.8057 2.42899 -7.78896
-0.552017 -3.78353 -19.0068
-5.1683 8.42194 -10.0127
7.71308 5.89406 -1.74244
8.16479 -2.95087 -5.23394
6.52815 5.16059 13.4844
4.10003 -8.4197 -10.0063
-3.6965 -4.77617 10.0804
11.7242 8.25934 -9.79693
8.70315 -1.16669 12.7373
11.8062 7.61537 -3.32517
8.07532 4.06859 -4.40884
-6.29009 10.0241 8.21669
-7.90027 -2.44729 9.96949
-0.545168 0.0563984 6.00127
11.5401 9.9179 4.93591
-0.0037522 6.76562 12.1984
3.08801 -1.12635 5.92575
-2.10971 -2.66196 19.0039
2.34161 -1.03418 -5.99668
2.27746 7.00935 17.0933
9.94652 -10.0114 5.19731
-2.1606 -2.6945 -19.0045
0.319413 9.86742 6.02564
-8.01042 -0.238499 -9.9456
-8.11548 -9.79697 3.62402
6.99859 5.32577 3.20128
-3.75165 9.96681 3.11235
9.63229 10.005 5.96724
0.581614 -4.21581 5.88302
11.5969 9.91253 3.17184
11.5603 -3.81217 4.69371
-4.28346 -9.87046 -1.15144
8.31663 -1.69509 -18.9995
11.8058 -1.88132 -7.9017
11.8112 8.35613 3.73441
-1.946 -4.0955 -4.73436
8.05797 3.14777 15.6335
8.89824 8.2831 -10.0162
9.87965 -7.16304 -10.0075
9.77457 7.70868 10.0117
8.26241 -0.192617 6.00287
-4.05428 -4.12518 -10.1923
-0.224548 -6.17358 5.6485
8.22335 -3.27016 -10.108
2.41804 -9.66533 9.94901
-4.33764 9.86672 -0.408636
1.0417 -9.71925 -9.94143
5.83117 4.11312 -4.50368
7.781 3.6424 13.7207
-3.2254 -4.86632 -11.6722
6.95694 5.04391 -3.36039
-6.08314 10.0074 6.33871
1.95929 1.32946 19.0023
1.55077 -7.00081 -11.6639
8.78368 -0.0595072 -11.8652
5.29127 8.10563 4.87512
5.71495 -5.806 -14.3749
-6.26051 10.0156 -1.31142
1.486 1.44316 -19.0044
11.5261 -9.96164 8.14736
-6.05105 -10.0082 -2.86865
-5.16112 0.799011 17.0219
-6.40005 3.00079 -10.0114
1.75296 7.39859 -6.01243
0.904208 1.34441 5.95132
-3.03562 9.99937 9.43705
3.25377 -6.85431 10.6068
-4.51188 -2.89245 -5.26402
-8.08516 -0.686409 9.70072
5.16635 -8.10852 4.95598
-1.80791 6.01748 -17.0711
4.38656 -6.69642 -10.1069
-6.90102 5.4302 -2.53151
11.803 -6.84903 6.38878
1.63282 -9.94217 -6.23677
-6.04891 5.97892 0.498725
-8.05715 -5.99405 1.44935
1.41896 6.98766 13.6603
9.74239 -5.91643 -1.01222
-1.09873 -4.61072 5.26593
2.3604 4.5742 5.9868
11.675 -2.56192 9.82092
-0.574281 6.59529 14.5153
-2.55257 -5.48699 15.4426
7.25604 -9.91173 3.12826
-4.42518 -8.243 10.0144
8.79587 -0.453908 -15.7515
-3.5337 0.023472 6.00135
4.23889 -4.63709 -19.005
8.31851 2.23185 -18.7897
11.7132 6.15581 0.190687
3.94817 -8.24648 10.0029
-3.43443 -7.82714 -2.92903
-5.19457 0.919179 10.247
7.97962 1.65702 5.77046
-8.17057 9.75936 -7.06469
-3.98198 -9.87431 2.19453
8.66597 -1.58432 10.4179
-2.94095 10.0081 -7.99117
0.0990853 -9.88203 5.87343
8.2797 6.41359 10.0035
7.13261 -7.69469 -2.74519
-2.57192 5.72388 10.0917
-2.68867 -2.49456 -5.45479
6.82098 6.68692 -3.2906
3.21066 2.25017 -5.80089
5.87315 -5.78842 -10.219
-8.08908 2.92454 5.52528
-5.86243 10.0073 2.60081
-6.19288 -4.04268 -10.0073
6.99457 -5.44641 -3.16383
10.0441 -2.2883 10.0052
0.10364 -10.0085 7.81802
11.6398 -2.12427 -9.86051
-2.61541 -5.07474 -18.95
2.20277 -9.89707 6.20472
10.326 -5.36942 -2.63671
-4.42303 10.0072 7.60812
8.20282 3.45195 -10.0721
9.35299 -0.0269953 10.0085
11.8072 5.72567 8.25282
-6.28989 7.07201 -10.0206
9.42893 -5.02007 -10.0031
1.12977 6.97168 15.4156
8.76535 0.796165 13.0342
0.485852 -7.35663 -10.0103
-5.17606 1.71708 -10.1063
-0.653407 -7.96882 -5.47576
1.05592 -6.97253 -16.9629
-5.18922 5.11697 -9.99996
2.99103 -3.13212 -5.87989
8.77699 0.297613 11.4887
8.17977 -1.05333 -5.91267
3.25502 8.2691 -5.8099
-4.11537 -7.99631 0.943213
10.108 -3.03791 -10.0075
-4.15812 9.81342 1.40553
-2.74884 10.0068 6.74632
1.63729 7.01746 -16.8152
7.61314 9.94946 2.51163
-8.113 3.0414 9.78617
-7.93996 -0.70654 -5.99617
-5.07555 -1.35307 17.0957
-6.23148 5.89888 -1.08774
4.60783 6.40812 -11.7573
0.320544 2.53487 -5.81398
4.75363 2.84504 -5.29744
8.49531 2.07097 -13.2081
1.08204 -0.917343 5.98172
5.50754 10.0061 -6.62103
11.805 4.41535 -6.4256
4.68245 -6.36978 12.175
-4.39516 -3.45542 10.2538
1.3801 7.05311 -10.2464
-4.46755 -3.15999 -17.306
-4.98916 10.0049 -6.4315
-5.86091 -1.13734 -5.89201
-4.95069 1.87851 12.007
-0.800402 -2.47992 -5.5175
1.09224 -4.92404 19.0056
6.6643 1.88391 -19.0133
2.32384 -7.33097 -10.016
-0.829681 6.36477 -18.719
-1.44466 6.07618 18.7151
1.97789 9.76913 -5.97853
11.805 -7.75706 -2.68439
-5.41093 -2.22514 10.0109
-1.22078 -6.31478 -14.7957
7.886 -3.28644 -18.811
-7.93663 -9.89272 -6.2606
1.95192 6.44584 6.01755
11.6999 -5.99609 -1.68297
3.3287 -6.84257 -11.5259
6.75452 -1.11643 5.90451
-4.97705 -0.609573 5.98735
5.00801 -6.26442 5.07131
-4.49002 3.37221 -10.1083
8.77429 -0.865344 -17.4685
7.99255 -7.73206 10.0063
