-4.70596 -3.77661 4.66574
-8.11053 -6.19176 -0.377416
10.1906 3.9608 -10.0088
-6.69132 -4.96061 -3.35908
-4.23257 -10.0091 7.77979
4.81487 -6.31962 16.6023
-5.1341 -10.0117 2.78578
7.2695 -4.40782 -17.5657
10.947 10.021 2.17147
-2.86397 -1.62236 -19.0057
-6.81655 10.0141 0.58517
9.14622 3.0215 5.18155
-5.88188 -10.0045 -0.979669
7.82806 -10.0087 -8.60698
8.02909 1.16426 19.0044
10.5504 -10.0128 -5.91541
-8.21204 -1.57514 8.38579
-1.89679 -5.9189 -11.2698
-4.75903 -10.0104 -4.70486
-7.75814 1.42041 -9.98489
11.7262 2.8521 -9.76214
1.82954 7.00849 -15.1736
11.784 9.66543 -4.3982
7.16959 2.7216 19.0225
6.40776 8.37421 -3.82713
4.04131 5.67438 5.56668
11.7765 4.80494 -4.04476
5.66422 5.90168 -4.60501
8.34468 10.0049 8.08286
-8.20562 -7.62665 1.01578
3.26073 -6.86518 17.6549
-4.17179 9.91236 -9.81691
-6.16997 0.0981498 10.0006
-4.34558 -3.36501 16.3153
-3.03857 -9.83109 -3.77591
4.75336 -3.15526 19.0035
7.58673 -8.44019 1.51104
6.99965 10.003 -6.15701
-8.19171 1.56481 6.27972
-6.29463 0.342475 6.00079
-2.44604 -3.119 5.12705
-7.71199 -9.9127 -9.63996
-1.75361 1.70052 -5.74829
7.72468 5.7869 1.93553
-6.18976 -5.57083 2.20172
-5.91315 -10.0074 6.1809
-8.20755 -5.60167 -8.05279
5.70529 -6.06233 -4.55369
11.6715 1.31409 6.04918
11.3394 -9.97446 2.52468
-8.17786 -5.58181 3.06478
11.0505 5.34417 -2.71269
10.2524 3.19156 10.0109
-8.20865 7.7235 4.23454
8.49801 0.304702 -18.9041
7.9726 -3.31891 -15.6984
-8.12045 3.09392 -5.43555
-1.72852 -9.70958 4.83938
-6.111 4.48463 -3.9947
6.01468 -5.57985 11.4381
4.74024 -6.34707 -12.0791
7.34712 4.27489 -15.5811
-8.21121 8.07285 2.10525
11.7925 -6.1775 2.06806
-8.20739 -8.10548 -5.30928
-8.11106 4.47132 -4.33527
6.70441 8.42335 -10.0092
-8.20552 -8.51864 5.92897
-4.69386 -2.62708 -14.0725
-4.11012 -10.0097 4.4104
-8.21223 8.09812 6.23066
-5.19679 0.441806 -17.4332
-1.43566 2.34869 19.0034
7.82614 -6.15939 -1.03533
11.5974 -7.61514 9.89212
-4.31925 4.20071 -4.27427
-1.08109 -6.91817 -10.0225
-4.89536 -4.93908 -3.39444
-2.27934 -5.69642 -15.6951
11.8053 8.13957 -0.791006
3.95475 -10.0112 6.85274
-1.10848 -6.37919 17.2714
10.0907 -10.0061 0.641695
-2.66802 9.97826 4.43906
2.50234 -6.51981 19.0139
11.6954 9.6389 9.79693
8.16108 2.9228 -14.9978
-3.8852 -5.26764 2.92968
3.90734 6.68057 15.0467
4.95109 -6.24896 14.6777
7.26566 9.94519 9.64832
-2.07322 -7.83764 -4.57934
0.914811 3.38041 5.93958
-8.12068 9.82173 -1.30877
-1.67812 9.88104 9.86647
2.12521 -10.0165 7.57964
-8.20537 -6.2273 -4.33637
-8.00574 -4.21834 9.92331
-8.22198 1.97998 -6.6127
11.8085 1.80239 7.88526
-5.12571 -9.9154 9.75826
1.89398 6.99431 11.6354
-1.15978 0.485962 19.0023
-0.0399487 7.75781 5.70421
11.6326 9.87313 -6.55094
-5.12896 -1.00404 -15.4702
11.7599 9.67672 5.92839
0.579877 9.8879 -6.06283
2.76873 6.93212 -13.2118
-2.18231 -10.0084 -8.52702
9.67153 4.2958 -4.17587
4.84401 6.30329 -15.6587
7.04094 4.71178 -10.2017
11.7339 -5.27866 3.37129
-2.98683 -4.39781 4.11481
11.4058 5.52499 -9.99031
-8.20618 -7.40511 7.63058
10.0783 -5.56481 2.22682
-8.20795 -8.18703 2.44688
7.28718 4.32611 -11.7801
11.7995 9.4983 -2.72719
11.5906 9.93906 0.498947
-5.10986 -2.9289 -10.0142
-2.50402 4.68317 -4.19746
10.1783 10.0307 8.65284
3.89465 6.30531 -5.62274
6.35375 -9.91573 4.3601
-0.707229 -6.5654 -17.7646
-8.20814 8.10911 -8.38637
11.5262 -4.10393 -4.42339
-3.01741 5.08273 14.9003
-3.38011 8.38307 -10.0157
11.5086 -9.95123 -1.28169
4.25641 -5.98388 -5.47902
-6.40566 3.26271 -5.04595
7.25245 9.93871 -9.75017
-3.40134 2.95596 19.0095
8.21537 -2.79357 12.7189
-4.58889 2.89609 -17.509
5.76085 1.43973 -5.83334
-3.64835 -10.0116 -6.07603
5.70557 9.98143 4.9784
-3.46248 4.64211 -18.0009
-1.88367 -10.0088 -6.72897
11.8074 7.67186 5.8558
-6.42597 -10.0074 -4.91938
-8.20408 5.85293 -6.27258
-0.699886 -3.35338 19.0043
-8.20409 -6.52117 5.61967
2.1987 4.73033 -19.004
-4.88897 -2.07464 15.4439
-8.21078 4.02065 6.32478
0.967078 6.96182 -13.0924
2.32564 0.114516 6.0087
9.06897 9.84794 -9.88265
-8.1627 9.65241 0.795399
-6.16751 9.94995 -9.72893
-7.02231 -1.72796 5.73126
-3.59743 -10.0063 6.01144
-8.15201 4.70132 9.80236
9.78078 -10.0086 -1.73679
10.2311 10.0256 -8.17886
0.448967 -6.84536 10.9848
5.63581 9.95155 9.73247
-2.74813 -6.14585 -9.99975
11.6261 6.15069 9.89273
6.19604 -3.93227 -19.007
-8.20659 8.117 -1.86091
11.8061 -8.00366 -7.86889
4.36618 -6.52769 -18.2428
-8.20422 6.7363 -4.75995
-6.34089 -5.99573 0.316551
7.28672 -4.33295 -11.6814
-5.12926 0.990991 14.5959
-0.743505 4.41895 19.0059
7.35434 8.32921 10.0106
11.8036 -6.97502 4.25628
8.92459 -5.44851 10.0032
-7.86306 -3.38387 -9.96996
3.99592 9.55803 9.98153
-7.81291 2.84337 -9.95733
-2.05034 -1.0999 5.90187
7.0836 3.47448 4.88836
-8.17676 -7.90977 9.69949
11.5969 -2.74939 -5.42827
6.0876 -7.73312 -4.19084
-4.12036 -10.0079 -7.91208
6.25299 -10.0106 8.27451
-2.49976 4.47883 4.28691
-8.23255 8.40548 8.18057
-3.51626 9.93666 -3.33886
9.86392 1.66777 5.75375
9.15899 -9.8108 -9.90349
7.94888 -10.0023 -6.82302
4.2458 0.915385 5.94423
3.37659 4.88202 19.0039
-7.86929 -9.95058 5.35296
0.382873 6.91931 10.2879
-8.20919 -7.80475 -3.45466
6.77263 6.4795 9.99542
11.8056 -7.89673 -6.03352
6.31822 5.3534 -14.1752
4.08909 10.0199 -8.70304
11.424 1.04466 9.97469
9.45851 -4.83194 3.54212
10.0594 7.18989 -10.0084
-4.49425 3.05805 -13.6079
-2.98842 5.12654 -16.1575
11.8108 8.15653 -5.47129
-2.04838 -10.0063 6.90547
4.74662 3.52821 19.0047
11.8248 -9.05033 -2.8926
-2.51525 9.41768 -4.16325
-2.78733 6.90797 -3.86611
-7.98334 9.98156 2.80618
8.6598 -1.39985 -13.1695
-6.27099 -10.0082 1.37853
11.7831 2.69076 9.60315
-4.84762 2.16694 -11.7619
-8.21803 -3.44545 8.32626
-0.289749 -4.43604 -5.62002
8.54199 -10.0042 -5.25362
-8.21985 0.372915 7.88886
-7.60362 8.22612 -10.0137
-8.21646 6.11409 2.46611
11.8076 4.71893 -8.47367
-0.236546 0.962773 -5.93355
-6.35368 4.29351 10.0116
-4.69165 2.6285 13.4964
-8.21077 7.87539 0.0033859
-1.45385 6.2041 15.5445
8.88546 0.529503 -10.2151
-1.68701 -9.75204 -4.9458
0.716895 -6.72571 -18.9263
-8.19598 -2.09525 -6.2156
11.8043 -3.33554 -7.14672
2.93389 -5.86668 5.89207
-5.23588 8.21479 10.0089
6.62444 -3.13354 19.0158
-0.269776 -9.8926 9.88345
11.8098 -8.38341 3.40156
8.48199 -10.0187 8.05658
10.7679 -10.0219 -3.64491
11.8132 -0.0554881 7.82083
-8.2186 -8.46122 -0.403507
-5.94688 4.72571 3.70393
0.389223 2.66547 19.0027
-3.48354 0.705419 -5.97629
7.59184 -3.94526 15.9836
9.6996 -10.0134 -7.78431
-3.28594 2.64905 -5.38809
2.43812 -7.15365 -5.9724
11.8037 6.2974 -1.61123
7.53241 -5.27432 2.93044
-7.03629 10.0318 -5.34677
11.7125 5.16059 3.62984
-4.61705 -2.75283 11.7371
6.87371 -4.82944 -16.0195
7.90504 9.98864 -2.09332
3.96457 9.01734 -10.0062
0.918833 10.0102 -7.93705
-8.20949 4.91924 7.96953
8.90617 5.53523 -10.0029
10.3472 4.26454 4.20282
2.13728 5.20342 -6.01104
11.8028 -5.90268 -7.65181
-3.31731 -4.4086 -4.07393
11.7869 -9.59765 -4.91356
-2.66849 4.87508 18.9058
-4.3764 3.30747 -15.7883
7.1823 4.4725 12.2983
4.20787 -7.69013 -5.49605
0.0201693 -9.94473 -6.00648
5.08445 -6.5691 10.025
-5.47754 -9.72489 -9.95799
-4.58538 -10.0136 -2.66159
-8.2115 -7.78055 4.10105
-6.52375 10.0175 -7.67225
3.95615 4.5352 -5.60181
-5.02524 9.96317 9.56929
8.36777 -2.47236 -17.1785
8.43871 -8.27008 -10.0076
1.51934 7.00558 18.2115
11.3387 9.99263 -1.36704
-8.08841 -9.79697 9.8019
9.4002 9.5221 9.98032
-6.11355 -4.62805 10.0048
-0.46801 -10.014 -8.01185
-7.97115 9.96537 -9.38393
1.32299 -4.39972 -5.98173
-6.33593 -2.25601 -5.55852
2.63924 10.011 7.95082
4.22923 6.58295 11.8514
9.88397 -6.87036 10.0102
7.15203 -4.5155 -14.1801
-1.63236 3.30899 -5.05011
-1.10468 6.37354 -12.7703
6.19695 5.46678 17.478
0.760809 3.31223 -19.0027
11.6649 -1.13602 6.04084
7.6207 0.89861 -5.94221
5.36418 8.12893 10.0072
2.75651 -6.57958 -18.9691
-1.2163 9.611 5.24193
8.64229 -1.48956 -15.2254
-4.02378 -3.02349 -18.9898
11.613 -0.755554 9.87329
6.05424 -2.74734 5.32779
-8.01817 -9.91808 -7.69461
-4.50734 -6.18285 -10.0048
4.04672 5.31256 -19.0144
6.90636 4.79397 15.8847
-4.6834 -0.62476 -19.0069
-3.52923 -3.64633 19.003
2.84482 7.26614 10.0057
-4.76335 1.49701 -18.9684
1.56699 -6.70121 6.00329
-3.70279 4.33222 13.1972
-8.21159 -7.48937 -1.85285
2.33651 -6.98448 -15.2598
10.2346 10.0105 -4.72123
-5.77647 -3.80383 -4.64537
-8.20828 -5.98951 9.35152
4.48659 10.0155 8.01587
10.3553 -0.0823231 5.99511
8.21847 -2.77053 -11.925
-3.25662 6.78165 -9.99965
-3.72057 4.3111 -14.6805
2.82376 10.0204 -7.53249
8.72696 -1.44972 -10.295
4.60949 -6.18098 18.905
-5.18912 -0.374155 15.4857
-8.21287 2.24049 -8.38594
8.79428 -10.0068 -3.5842
-4.19133 6.26204 -0.880575
5.65692 6.47176 4.6005
-8.21546 6.64359 8.14616
-3.68003 8.02627 -2.42849
5.89108 -1.99044 -19.0061
-7.50161 -1.64387 -9.99498
9.40557 -3.51887 4.85441
-3.37222 -4.73817 17.6972
-1.68202 8.03518 -4.89019
6.26038 -5.39781 -12.5463
-4.58519 10.0131 -8.06716
2.57304 -5.36626 -5.95678
-0.727594 8.46398 10.0076
-8.17322 4.40907 -9.51282
8.34089 -2.50253 14.547
3.20694 -0.0772967 19.0017
6.41889 -2.14733 -5.60808
-5.94689 -5.77104 -1.63382
4.25905 9.96805 5.85367
-1.59736 -6.11904 11.9764
-8.20646 -5.04634 7.30678
-1.57643 -10.0123 8.59169
7.66805 -4.0587 4.41969
-2.41022 -8.32593 -10.0073
6.29125 -10.0098 -5.57097
0.904688 -6.67913 18.9396
-6.06113 10.0064 4.28535
-2.90867 -9.17909 3.70005
10.7782 -0.633201 -10.0165
-0.431112 4.45072 -5.57382
-0.0791431 -6.74607 -11.362
8.01227 3.26735 -17.0647
-8.09527 -0.197998 6.18734
11.801 -0.928992 -6.33957
-0.0256823 -6.76064 12.9904
-1.27914 5.2879 5.14932
-5.67456 3.33033 4.9942
-4.37055 -3.3115 13.7614
0.0996495 6.79681 -14.5707
7.76949 -9.96514 9.72223
-0.989704 10.0132 7.99207
11.7834 -6.97171 -9.62774
-4.2758 3.46861 11.5612
-3.60814 5.72123 -2.64375
3.88638 6.69634 -18.2539
11.8087 0.952921 -7.71682
4.7585 6.34344 -13.4996
6.25031 -8.72226 10.0169
6.11623 -0.349141 -6.00058
3.26954 -4.55294 19.0069
4.18356 9.82771 -5.66784
5.9117 5.64384 11.1622
-0.240926 9.94123 -9.75297
8.03169 -3.09401 18.5966
-6.28986 -8.60332 10.0199
9.71464 10.0048 -2.8708
7.23983 10.0066 4.1398
0.740483 6.72806 -18.8221
9.03597 1.88939 10.0116
-1.2808 6.27951 -5.14989
9.90238 -1.87062 5.70399
4.14247 -0.972605 -19.0046
-6.65158 9.36575 10.0149
2.21451 9.93857 -9.64647
5.63244 1.59412 19.0047
2.48739 8.29151 -9.99389
-5.18908 0.446389 -14.8318
8.38481 -2.40652 16.4375
9.50624 -2.62204 -5.40179
-5.83279 -10.0056 -6.67423
0.298399 5.69308 5.80955
-8.09677 6.68048 -9.78744
-8.21897 -4.86528 4.55123
-8.08681 0.569928 -6.10966
11.8218 6.5766 2.24005
-4.18565 7.87195 -0.167427
4.53453 -10.0091 -6.48222
6.62535 2.85798 -5.28233
-6.04456 -10.0195 -8.46334
6.38656 -5.29334 15.6382
11.8038 -5.03969 6.71794
-3.41814 -4.67522 15.8751
11.8098 -1.83635 7.99078
-5.03767 -1.52595 13.5993
-8.20321 6.11363 6.18858
-3.78013 -2.05829 5.64702
9.83015 1.89549 -9.99871
11.7955 9.50845 -8.50819
11.8067 6.79291 4.22116
-6.8873 -6.54542 10.0137
-8.2067 4.1597 -7.22013
8.46948 10.0042 -5.16609
2.16727 7.00239 -11.5311
7.28243 8.57117 -2.41637
11.8076 7.85755 7.72907
-3.16981 4.94574 16.6233
-7.91379 6.01058 0.684615
6.76335 -0.319086 -19.0039
7.46616 -4.08979 11.8518
-8.20388 7.85703 -6.49965
7.76539 -7.02863 0.435304
5.99216 5.16998 -18.9748
0.526141 5.86282 -5.87514
11.806 -6.77873 8.1719
-8.20909 -3.41979 5.7739
2.06498 3.33192 -6.00889
11.6331 -9.87815 4.39174
8.32288 2.53633 12.051
0.0971048 8.09045 -5.753
6.00108 -10.0097 -7.72858
4.66165 -9.83816 5.3635
0.632367 8.68071 -10.0075
-3.73379 -4.29129 -14.5993
8.03044 -3.19839 -13.7614
11.8131 -5.09048 8.54963
-6.51283 -10.0266 8.45928
6.14446 5.49207 -16.0863
-2.7743 -6.06334 -3.87328
8.48905 4.30443 4.17527
-8.09856 -9.84516 1.20863
3.42829 -10.0145 -8.00146
11.8097 -8.04858 -1.04326
-8.20483 -4.40761 -6.24285
-4.41626 1.79652 5.73403
9.61492 10.0114 -0.333961
-4.8247 2.75707 10.1019
-0.336367 6.54845 18.8454
-2.7287 -7.39206 3.93519
-4.73132 -2.49376 -11.7718
-0.919904 -9.68923 -9.93403
-4.27604 -6.00226 1.32994
7.29445 7.49265 2.40153
-7.89533 -5.23335 -9.92374
11.8092 4.42177 5.12706
-2.40198 -5.817 4.29149
3.65986 -10.0059 9.06733
-7.563 10.0105 6.13007
4.42679 -4.50824 5.39971
2.8582 2.34382 5.90016
-2.76675 1.08689 -19.0047
-8.1826 -9.6826 -2.11281
7.12054 -4.7434 10.2162
-5.75844 6.35887 10.0068
-5.06431 -1.4444 -17.5486
-3.39602 -1.49275 19.0084
5.50442 4.31012 4.71883
-8.20399 -6.20928 -6.32924
7.70928 7.83295 -0.8862
-5.18742 -0.478565 12.3886
8.77535 0.83075 17.5125
0.0754315 4.96789 -19.0053
5.38382 7.3881 -9.98754
-4.20917 4.18272 4.28795
11.8142 -8.53957 5.61556
5.31786 -0.861731 5.94871
-6.57107 2.00989 10.0029
0.606147 -6.91476 17.2287
-8.21723 5.80678 4.23294
11.1358 -9.9752 -9.65522
3.54253 7.70501 5.73964
3.85798 1.01487 -19.004
6.65819 -9.84556 -3.73774
-0.157963 6.73875 16.7199
-5.08933 -6.55945 10.0043
6.0188 -4.56298 4.26851
2.41376 6.71043 -18.959
8.71388 1.1202 15.6037
-8.21312 5.96287 -8.124
11.8078 -5.25364 5.13758
-1.30155 6.26068 10.8978
-7.84669 -3.30731 -5.02043
-8.12988 9.75615 9.54837
9.13994 10.0056 2.14546
11.8096 -8.15547 1.7068
-8.20829 7.88362 -3.5252
5.54813 5.91606 15.3701
9.5665 5.9495 0.745059
-6.53959 10.0133 -3.0023
-3.49801 -4.60487 -17.7824
-3.54687 -4.53333 -16.1476
9.62386 10.0064 -6.59678
7.24847 6.53081 -9.99749
-1.13914 9.98382 -5.62457
1.25311 5.44024 19.0092
8.40599 -6.19281 -10.0019
6.90918 4.81455 -17.5343
5.10854 -9.25036 -4.98325
5.33247 9.80011 -9.86652
-0.653173 -6.56477 -16.0644
3.90684 -1.74668 19.0026
-1.49264 -0.452024 -19.0033
-8.09091 -5.73866 -2.33091
8.27835 -3.48243 10.044
-3.0606 0.636214 19.0035
-2.93116 5.16442 -13.6318
7.99572 -10.0031 5.93665
-7.88836 4.17949 4.3467
3.69889 1.85358 19.003
5.27073 7.70575 -4.88673
6.85197 -6.37474 9.99313
11.8046 6.19373 -7.03514
-0.299481 -1.07688 19.0024
11.7885 0.832202 -9.74567
6.76708 4.45925 18.9396
-4.09455 3.78242 15.1082
1.25018 -4.98746 -19.0048
2.05114 3.59731 19.0029
-8.18851 1.19328 9.66108
-2.24978 5.31996 -18.9006
9.70051 -4.20448 -4.26785
1.20497 -10.0087 9.35945
5.56356 5.89828 -10.5058
-4.50687 -6.03568 -0.199933
7.42753 -4.16121 13.9058
-8.1784 5.79115 -3.05932
2.11611 -3.13303 19.004
4.38719 -1.39727 -5.83028
4.08472 0.425033 -5.99934
-8.11319 9.79638 4.74804
6.37059 8.20601 3.87346
7.12207 9.9898 -3.66355
8.00466 -9.90399 -0.27397
11.806 8.02732 -7.34961
11.8253 -4.13289 -8.86045
3.83678 3.81042 5.641
3.51194 6.79762 -14.6717
3.22358 -6.8685 13.1151
-3.15157 -9.97728 9.56477
-2.53614 -5.49436 -13.6565
0.865688 0.52184 19.0019
-8.09964 9.84948 7.51614
-7.04041 5.4258 2.57537
-2.84028 5.24245 11.921
-4.67026 -2.67302 -15.9642
2.93833 -8.29787 5.87462
11.7878 -2.88569 5.70996
-7.73494 6.27737 9.98531
-6.72925 1.4812 -5.79695
11.755 -9.77017 -7.59205
-8.21736 -1.83301 -8.42776
8.67242 1.42953 -17.6525
-2.5981 5.44019 -11.9505
5.96839 -4.91132 19.0044
11.4948 -5.65266 9.95984
8.75418 5.24135 -2.90834
8.27809 10.011 -7.85817
11.803 3.72694 7.36986
4.5507 6.44552 17.0584
8.05398 3.35129 10.1999
-3.90585 -5.85068 -2.11564
-4.93449 1.62141 18.8545
-0.979026 -5.51418 -19.0118
-8.13338 6.13759 -1.32373
8.60543 1.66561 13.9822
-1.91397 7.20288 9.99745
0.441258 -0.767099 -5.96534
-1.66177 6.09009 -14.7513
-6.01775 -7.00323 -10.0181
3.28124 6.86523 -16.5431
-3.94753 6.7659 1.68351
5.15789 -9.94841 9.75825
3.18395 2.93524 -19.0032
8.55269 -5.88791 1.09146
2.21794 -2.27875 5.99944
-4.4398 -9.85433 0.326565
-3.3514 -4.73465 12.0792
4.08922 -6.6283 -15.8449
8.24437 -10.017 1.36701
-5.23529 5.48317 -2.45493
9.89274 5.89346 -1.09464
2.27432 -0.502775 -19.002
-2.2774 -5.72295 10.3648
-5.1853 -1.23282 -10.1901
6.00451 -4.30016 -4.40143
-4.01192 -3.90643 -12.7532
11.738 -9.64479 0.426505
3.63907 6.77062 13.282
-2.08505 5.82586 13.6362
11.7602 -8.62937 -9.8044
-4.58328 2.92127 17.6985
-1.8092 -8.95032 10.0102
2.17661 -7.01878 10.3689
-7.74932 -9.97987 -0.539452
1.69245 8.09842 6.01263
-5.12144 -1.06451 -13.1066
3.13917 -9.59757 -5.88421
-1.62885 7.20097 4.93454
7.28153 -6.74886 2.40028
9.21293 10.0075 4.36935
7.68653 -9.96473 -2.13355
10.6638 5.54024 2.2801
-5.23103 0.705378 -5.97958
-2.17422 -5.7941 -17.6411
5.12053 5.89882 18.8805
-8.21561 -8.40674 -9.04794
8.38715 -0.362412 19.0019
-0.805109 -6.49679 -12.7978
8.00538 -2.41224 5.50301
7.21435 4.81539 10.0842
-2.0991 -5.82048 13.8635
6.13703 -10.005 6.53611
-6.21358 1.91163 5.69522
0.533289 -6.89383 -14.7597
-5.21334 10.0105 -4.48921
-2.91065 8.11961 3.7
5.65028 -5.85651 -16.8214
-7.97601 7.84317 9.97107
-2.03011 9.88879 -9.72414
4.53606 -6.4417 -13.9499
1.38739 -1.58109 19.0041
-1.02697 -6.4032 15.1622
-2.93446 6.19772 3.67421
-8.20444 2.74153 8.02156
-1.31291 6.34225 -10.2962
-8.21087 -0.120259 -7.62276
5.28738 6.08836 -17.731
7.52908 4.04772 17.2996
0.585836 -6.90215 15.1431
4.15424 -2.85302 5.53772
3.99251 -2.99377 -19.0056
-3.59805 -7.21757 2.61841
4.5235 6.6141 10.133
7.23965 -4.47377 17.7818
0.606853 -6.44085 -5.89117
5.92846 -5.66837 17.5968
2.26206 9.93342 9.76593
8.98237 5.26426 2.88212
9.95121 -9.98287 9.56683
7.81002 6.51165 0.379349
-0.440044 1.77355 -19.0048
5.08216 -9.97366 -9.54678
5.33154 2.41498 5.48766
-1.40826 -7.42227 5.08014
7.73165 10.0041 6.1374
-8.13501 -4.65232 -4.10233
0.874228 10.0089 7.66241
-8.15622 -6.89114 -9.70277
10.3405 2.97709 -5.20109
6.30716 -5.35784 13.4644
0.513281 -2.62188 -5.86645
7.83826 9.79794 -0.58051
8.30925 2.62997 17.8786
-3.13118 -7.26033 10.0019
11.5244 1.07703 -5.94141
11.7973 2.89008 -5.67319
0.175329 6.8208 -16.5448
5.57724 -0.141776 19.0038
8.41866 2.28139 -11.6728
-2.30035 -5.17798 18.9929
-4.17593 4.43397 10.0057
11.7131 4.5148 9.77505
3.01092 -6.89911 -13.2914
8.79039 -0.650851 16.4905
-3.70304 3.33259 -18.9861
11.7934 -5.51949 -3.63658
8.77804 -0.619652 14.4781
-5.02377 1.60763 -15.9123
9.41686 0.956439 -5.93711
8.9733 -10.0043 3.31321
-6.13412 -4.75498 3.6681
-5.62116 -2.52753 5.4411
-1.17926 -6.18668 -5.21054
-4.61817 10.0124 -2.3421
1.72556 -7.00341 13.3492
-1.09881 8.01203 -10.0017
7.42858 3.86586 -18.8727
0.171189 6.82002 -11.1327
6.62389 -1.41828 19.0086
11.8195 -8.47828 7.85958
1.27738 8.36456 10.0025
-4.33836 10.0052 5.07471
11.8054 -3.60714 7.96359
0.284241 -1.60326 -19.0023
5.56595 0.719711 -19.0033
0.279558 -7.79834 5.81123
3.25617 -6.85803 15.3784
1.23079 -10.017 -8.2725
3.18091 6.78709 18.7239
-5.21082 0.0215245 -11.5326
0.612062 -8.19114 10.0002
-0.996462 10.0095 -7.71431
9.79574 -10.005 6.86867
6.2456 10.0104 -8.14322
5.54059 5.91829 13.3187
11.8059 -5.52598 -5.87218
6.80786 -9.72829 -9.93391
6.22173 10.0045 7.37705
-8.20495 9.1788 -5.13726
11.7724 7.93156 9.68685
8.61989 1.6069 -15.8474
1.63422 0.954023 -6.00205
11.6631 -9.46625 9.73235
-4.89819 2.49191 -5.46498
-0.675474 -2.36977 5.56478
-3.54004 -1.22048 -5.87787
11.6261 9.92364 7.65433
10.9381 9.77486 -9.93698
2.47595 9.8623 6.08288
7.94106 -4.59311 -3.8564
-3.93019 4.0143 -11.8555
4.87149 -2.94411 -5.30464
11.8058 -7.47583 -4.36808
7.71943 -8.14158 -0.988136
4.88432 3.32211 -19.0037
-0.841364 -6.06037 18.9838
-3.03545 5.13933 -10.2502
1.13907 -6.97616 -13.2024
0.312395 0.288195 -19.0047
8.79597 0.34497 -14.3514
6.229 -6.36612 4.05049
1.39242 -8.4528 -5.97529
-4.94895 -0.346327 18.9417
-5.09078 1.23762 -13.3548
-3.27364 10.0129 -5.82509
-1.558 3.28508 -19.0043
6.51958 -8.1808 3.68091
11.8294 6.93975 -9.09657
2.66058 -9.93996 -9.79693
-8.20584 -7.86254 -7.31444
-8.21194 -3.57569 -7.99948
0.326539 9.97121 9.70885
-3.81405 6.83476 10.0017
-4.24615 5.34677 2.73728
-7.00437 -8.31547 -10.0356
-4.71743 -2.57144 18.4476
8.76792 -5.41688 -2.56131
-3.8218 4.20643 18.1093
9.3411 5.24124 10.0042
-2.92564 2.98893 5.19456
-7.09622 5.3928 -10.0183
-4.34256 -8.24896 -10.0092
6.45174 -7.76914 -10.0059
-8.21769 -1.9431 6.65705
8.57795 2.61493 -5.40397
11.8024 5.88004 6.3367
-7.11601 -3.68509 4.71864
3.62232 6.99791 -10.0721
11.8047 6.37383 -5.05189
11.5807 2.88326 5.36005
-8.13329 -9.78104 7.55455
-6.15833 0.107132 -9.98485
-3.37344 -9.9901 -9.74994
5.90021 -5.59743 -18.6718
-1.00058 -6.91798 10.0032
11.8181 -6.82758 0.374658
7.7413 9.55489 0.955825
-2.30355 1.3854 5.83445
2.03117 -2.69051 -19.0042
-4.13758 -7.67872 -0.783404
10.4855 -4.17008 10.0117
-0.942634 3.47461 5.35254
6.03811 5.57258 -12.3977
9.54368 -8.63731 10.0143
-4.72482 2.54702 15.9624
2.89131 -4.56846 -19.0034
-5.15741 -1.09173 10.2924
-5.61704 5.79712 1.54424
2.57135 -6.97008 -17.3387
-3.44247 -4.64016 14.2506
10.6469 -5.95845 0.614152
5.68157 9.7991 -4.68843
-1.81145 -0.224258 -5.99901
11.81 8.27181 1.5405
-0.644878 1.86418 5.72155
7.62521 3.89137 -13.4262
1.93273 -7.00766 16.342
6.8127 -5.26334 -10.0725
2.32905 -4.24212 5.97933
11.5246 -5.32588 -9.91004
8.62141 -1.63914 18.3415
11.4956 -9.97693 6.37464
-6.23855 -10.0097 3.99457
-3.91059 8.67851 1.72619
-3.26811 8.73327 10.0162
6.33459 0.755633 5.96403
-8.16614 -9.74428 -3.9067
10.1827 -0.862812 -5.93854
4.08288 -4.3165 -5.54768
-8.12715 9.76156 -3.30097
11.805 3.04013 -7.76583
0.174626 -3.56619 -19.0027
-5.26535 8.09282 -10.0114
7.8559 5.9931 -1.39714
7.6905 -3.27965 -5.02166
6.93219 4.76004 14.2679
4.10147 -9.02144 -10.0073
-3.60621 -4.98566 10.035
11.4417 8.24514 -9.98037
8.711 -1.12215 12.4972
11.8067 7.37077 -3.26644
7.65628 4.10654 -4.37457
-6.47688 10.0252 8.27425
-7.66876 -2.24903 9.99816
-0.626515 0.0493599 6.00107
11.0381 10.0163 4.48542
-0.5323 6.60572 12.4282
3.68802 -1.19832 5.88522
-1.86021 -1.8267 19.0026
2.37965 -1.05242 -5.99425
2.74235 6.94578 16.4442
9.85428 -10.0082 4.84764
-1.52534 -2.88621 -19.0051
0.402001 9.84697 6.00253
-8.18516 0.0874553 -9.56692
-7.963 -9.90109 3.18089
6.80403 5.24923 3.41426
-3.88776 9.97991 2.9243
9.76599 10.0045 6.56235
0.577354 -3.6325 5.88311
11.7684 9.5342 3.03621
11.3053 -3.95163 4.54091
-3.97698 -9.4108 -1.64438
8.08889 -1.82508 -18.9979
11.8086 -1.13952 -8.45664
11.8157 8.47784 4.12094
-1.70534 -4.08123 -4.88144
8.14001 2.97663 15.7489
8.53697 7.931 -10.0144
10.1142 -7.16429 -10.0102
10.2138 7.20791 10.0145
8.5295 0.0480342 6.00251
-3.82795 -4.37917 -10.2352
0.0606013 -5.54326 5.74082
8.13709 -3.61686 -10.0719
2.39772 -9.39141 9.9961
-4.15461 9.58409 -0.913714
0.880041 -9.63219 -9.97221
5.58507 4.10775 -4.66477
7.90945 3.41993 13.9432
-3.07745 -5.01818 -12.0608
6.8779 5.13798 -3.3358
-5.53084 10.004 6.72445
2.03056 1.69622 19.0022
1.66146 -7.0044 -11.4743
8.79154 0.204101 -12.1325
4.91032 8.35337 5.11757
5.80091 -5.74851 -14.7223
-5.94901 10.0102 -0.985262
1.76429 1.59895 -19.0029
11.3922 -9.98494 8.14062
-6.47555 -10.0114 -2.9039
-5.13867 0.950775 17.0617
-6.25325 3.56394 -10.013
1.95844 7.34456 -6.01177
1.09852 1.34184 5.97034
-3.29195 10.0109 9.10448
3.81922 -6.7071 11.2006
-4.36415 -2.93191 -5.24276
-7.89987 -0.518976 9.90172
4.94037 -8.04547 5.10405
-1.5383 6.17284 -16.7986
4.23282 -7.11271 -10.0123
-6.97406 5.26585 -2.86771
11.8032 -7.03668 6.23037
1.76755 -9.98668 -6.53992
-5.56729 5.98941 0.133414
-8.05525 -5.98606 1.50653
1.92152 7.0024 13.6374
9.71319 -5.94645 -0.848921
-1.23142 -4.47433 5.18314
2.15975 4.56962 6.01287
11.6771 -2.79669 9.77485
-0.0355847 6.75803 14.0214
-2.27239 -5.70256 16.3079
7.16711 -9.72803 2.84145
-4.1396 -8.51868 10.0103
8.80294 -0.107869 -16.4973
-3.27174 0.0357056 6.00318
4.50836 -4.99072 -19.0058
8.07055 2.01979 -18.9735
11.6804 6.13019 0.415026
3.98615 -8.07417 9.9999
-3.4196 -7.89548 -2.95464
-5.08956 1.18481 10.6831
7.65295 1.88088 5.70441
-8.17414 9.71824 -7.1375
-3.8311 -9.64591 2.19494
8.51323 -1.97917 10.7076
-2.785 10.0091 -7.75754
-0.272041 -9.79079 5.67101
8.71566 7.31102 10.0055
7.15834 -8.0441 -2.69069
-2.87377 5.40534 10.122
-2.5732 -2.7876 -5.31053
6.94213 6.81494 -3.09505
3.01207 1.77722 -5.85786
5.44965 -6.06041 -10.2899
-7.80681 2.79696 5.39612
-6.09574 10.0072 2.3753
-5.96186 -4.80863 -10.0054
7.04518 -5.93264 -2.92027
9.96881 -2.18577 10.0043
0.00200613 -10.011 7.4727
11.7218 -2.64916 -9.75216
-2.65953 -4.67509 -18.9856
1.70261 -9.47303 5.98565
10.5347 -5.30461 -2.74878
-3.89232 10.0047 7.21436
8.31054 3.258 -10.0382
9.28676 -0.336975 10.0153
11.8072 5.68725 8.15999
-5.67241 6.50036 -10.0064
9.85211 -4.7734 -10.0087
1.19898 6.97615 15.4462
8.78709 0.498192 12.707
0.486135 -7.49214 -9.9942
-5.38447 1.56752 -9.99815
-0.449252 -8.12601 -5.56646
0.915087 -6.96108 -17.0069
-4.71153 5.08885 -9.99329
2.69542 -2.98057 -5.932
8.74803 0.756086 10.8056
8.17822 -1.19505 -5.88748
3.57862 8.09324 -5.71944
-4.07827 -8.11889 1.12078
9.99986 -2.78692 -10.0044
-4.56095 9.97193 0.889225
-2.24089 10.0044 6.80504
1.71898 7.01576 -17.2926
7.23432 9.62038 2.64149
-8.02335 2.97549 9.87528
-7.55616 -0.655405 -5.97328
-5.124 -1.08612 17.3625
-6.59849 5.89263 -1.07434
4.05118 6.63361 -11.7246
0.415455 2.80483 -5.83754
4.44443 2.64894 -5.41983
8.55949 1.85663 -13.4587
0.742273 -1.10699 5.93827
5.08838 10.005 -6.88107
11.8056 4.55951 -6.18262
4.91439 -6.26466 12.7511
-4.3359 -3.80521 10.0796
1.28057 7.14944 -10.0672
-4.44003 -3.22318 -17.4165
-5.0349 10.0038 -6.30359
-5.47628 -0.953666 -5.93222
-5.08142 1.31431 12.6369
-1.20696 -1.85917 -5.7021
0.890335 -4.62131 19.0059
6.26814 2.40462 -19.0077
2.29199 -7.68734 -9.98956
-0.936812 6.41462 -18.5232
-1.82901 5.9981 18.1089
2.3124 9.64272 -5.96886
11.8239 -6.83588 -2.51385
-5.50935 -2.54297 9.99492
-1.12228 -6.35827 -14.3943
7.80005 -3.4218 -18.822
-7.99699 -9.86843 -5.91031
2.04866 6.33792 6.01701
11.6086 -5.9871 -1.16433
3.196 -6.84979 -11.0747
7.12293 -1.06773 5.91498
-4.94205 -0.607333 5.98753
4.5538 -6.336 5.34225
-4.55219 3.28749 -10.1155
8.76041 -0.971154 -17.9384
7.93664 -7.7694 10.0068
