0.330078 0.421095 -0.411015
-0.716466 -0.381613 -0.537062
-0.900237 -0.246186 0.00646051
-0.546525 -0.00984243 -0.6443
0.639188 -0.00417152 0.0622346
-0.249602 -0.612132 -0.899855
-0.690237 -0.12336 -0.848925
-0.95554 -0.472717 0.095141
0.0910561 0.337332 -0.871354
0.274188 0.264132 -0.991315
0.598082 0.158666 -0.0343757
0.620771 -0.331999 0.0762565
-0.323722 0.0799857 0.207202
0.466662 -0.621635 -0.637276
0.747635 0.10441 -0.411054
-0.281011 -0.0274002 0.23645
-0.905875 -0.290785 -0.0481166
-0.130877 0.388709 -0.680331
-0.608694 0.674488 0.8874
-0.448592 -0.618022 -0.313743
0.800444 -0.0244746 -0.316393
0.570876 -0.574226 -0.481955
-0.506187 0.0668117 -0.668021
0.108806 -0.620063 -0.833583
0.437096 0.370082 -0.449561
-0.805539 0.409037 0.758959
-0.772474 0.0517837 -0.469075
-0.00529497 0.453358 -0.669382
-0.901874 -0.280809 0.570121
-0.92825 -0.502316 0.302006
0.629198 -0.19101 0.0934368
-0.589632 0.431453 0.623369
0.800465 -0.388377 -0.794767
-0.208619 0.311296 -0.26412
-0.281781 -0.539833 -0.669977
-0.66822 0.64968 0.929167
-0.0821232 -0.0549295 0.203977
0.737521 0.0155097 -0.10198
-0.170696 0.371409 -0.877728
0.704462 -0.260527 -0.0157695
-0.743634 -0.725613 0.182675
-0.752841 0.0400581 0.376974
-0.542487 -0.419694 -0.807114
-0.472871 -0.0555859 -0.985707
0.567066 -0.553882 -0.543652
-0.0558948 0.154209 0.805444
0.0464764 0.237041 0.0208568
-0.398094 -0.187202 0.379066
0.724406 -0.0395896 -0.0500578
0.617687 -0.339824 -0.921723
-0.766499 0.202209 0.71179
-0.206334 0.374295 -0.499063
-0.698029 0.0759556 0.16738
0.511237 0.338349 -0.438693
0.883061 -0.190744 -0.857541
-0.723052 0.43913 0.60041
0.348043 -0.706461 -0.589031
0.0150106 -0.509341 0.0561794
-0.214403 -0.0662598 0.220575
0.107134 0.110409 -0.927493
-0.362068 -0.586464 -0.236114
0.0555589 0.487042 -0.467047
-0.396474 -0.0789026 0.313927
0.670651 0.186389 -0.601527
0.0478558 -0.628346 -0.822559
-0.394277 -0.451166 -0.977985
-0.842495 0.0240938 -0.0626565
-0.759463 0.231305 0.542708
-0.452684 0.107668 -0.832433
0.117611 0.181058 0.111237
-0.599205 0.745438 0.90569
-0.21309 -0.523025 -0.628017
-0.819616 0.0677036 -0.107624
-0.520511 -0.436122 -0.976699
-0.328243 -0.106157 0.681326
-0.465907 -0.353364 0.565617
-0.892407 -0.435965 0.0500768
0.634477 0.207313 -0.664861
-0.0703778 0.297619 -0.102211
0.71673 0.161852 -0.272919
0.502944 -0.479755 0.00455135
-0.342374 0.245135 -0.36018
0.213639 -0.657974 -0.810025
-0.352371 0.135533 -0.796432
0.247778 -0.0628639 0.263775
-0.484893 -0.542665 0.196168
0.315776 -0.074735 0.262227
-0.693767 0.324684 0.798054
0.178888 -0.0370816 -0.939124
-0.900703 -0.18402 -0.378955
0.345049 -0.72389 -0.338457
-0.138919 -0.245571 0.193854
0.542395 0.225796 -0.821884
-0.708652 -0.149999 0.61045
-0.0188904 -0.0939601 0.225236
0.0286154 0.0997931 0.677393
0.313446 0.104649 0.185456
-0.298577 -0.100233 0.558018
-0.00610732 0.282509 0.822188
-0.226452 -0.360194 -0.980822
-0.587608 0.664787 0.743211
0.347734 0.385756 -0.732466
-0.85776 -0.568681 0.0210118
-0.150816 -0.0167496 0.187538
0.69327 0.13609 -0.147011
0.249916 0.358442 -0.173543
-0.049028 -0.370111 -0.935072
-0.142548 0.456781 -0.288766
0.212429 -0.702676 -0.192444
-0.295933 -0.0552896 0.509118
0.319022 0.393754 -0.657489
-0.662993 -0.584525 -0.329933
0.232472 0.432017 -0.545082
-0.114988 0.0521653 0.167744
-0.947986 -0.15804 0.0701824
0.564326 0.271641 -0.228891
-0.223066 -0.412178 0.122388
0.417952 -0.675412 -0.33446
-0.975047 -0.227765 0.269606
-0.688209 -0.526811 -0.43021
-0.688119 0.0223189 -0.549364
0.475466 -0.581641 -0.773496
-0.746935 0.190972 0.582853
-0.0624038 -0.602307 -0.621213
-0.804103 0.00571614 0.419929
0.367699 0.399754 -0.460215
-0.316003 0.182467 -0.539167
-0.84397 -0.493106 0.0166824
0.275597 -0.529585 -0.996063
0.372507 -0.294717 0.242077
-0.440368 0.162146 -0.524999
-0.942022 -0.277634 0.391236
-0.301373 -0.571072 -0.208903
-0.14406 -0.510693 -0.58705
-0.0679602 -0.666654 -0.492127
-0.428976 -0.0530685 0.377176
-0.0582512 0.484595 -0.538882
-0.0689374 0.00785313 0.642928
-0.916264 -0.267736 -0.300144
0.025139 -0.68681 -0.658653
-0.544466 -0.588716 -0.148719
0.380875 -0.698582 -0.394629
-0.890164 -0.129422 0.0141532
-0.0132278 0.193699 0.85227
-0.0157907 -0.220285 -0.9377
-0.817146 -0.66812 0.364508
-0.201915 -0.283472 0.198147
-0.238214 0.202978 -0.931366
-0.492499 0.215448 -0.428095
-0.471009 -0.402963 -0.627861
0.136268 0.422931 -0.707657
0.220128 -0.497371 0.116675
-0.0900547 -0.423937 0.113033
-0.324032 0.367475 -0.937664
-0.883397 -0.0656724 -0.345306
0.0943061 0.133893 0.153347
0.143554 0.302101 -0.130575
0.00359095 0.25376 -0.00982329
-0.66627 0.172849 -0.119837
-0.528678 -0.410985 0.584071
0.402115 -0.628319 -0.18475
0.278476 -0.235361 -0.996822
-0.240184 0.380871 -0.896834
0.224448 -0.597685 -0.862836
-0.406434 -0.116924 0.381859
0.160866 -0.75049 -0.398458
-0.960167 -0.372025 0.295575
0.0137402 0.202262 -0.930257
-0.864895 -0.661753 0.315539
-0.671458 -0.650211 0.399653
0.208386 0.412991 -0.19991
0.00890785 -0.697403 -0.208572
-0.741259 0.396363 0.534256
0.429896 0.168752 0.0939693
0.280219 -0.686513 -0.769483
-0.293038 -0.569628 -0.46464
-0.897368 -0.19145 0.00816357
-0.22532 0.00164712 -0.932306
0.00343187 0.39014 -0.803042
0.22146 -0.434922 -0.931902
0.0656752 -0.657178 -0.164791
-0.505145 0.109728 -0.876901
-0.387733 0.261401 -0.185851
-0.844525 -0.161675 0.580988
-0.63842 0.0676423 0.417692
0.918365 -0.236901 -0.815362
-0.0372133 0.0675591 -0.929576
-0.741686 -0.232389 0.613743
0.569121 0.301313 -0.442886
0.809978 -0.240226 -0.453546
-0.614965 0.00889598 -0.983033
0.551262 0.0956841 0.0769616
-0.867428 -0.0753727 0.0244628
0.646878 0.0950373 -0.856974
-0.893621 -0.358879 0.557793
0.72615 -0.312711 -0.0747281
-0.441981 -0.19464 -0.97355
-0.686709 0.044501 -0.971934
-0.0653212 -0.704744 -0.880813
0.261206 -0.20118 0.270216
-0.22776 0.11615 0.133497
-0.681018 -0.0270101 0.623597
-0.355576 -0.568324 -0.494493
0.399772 0.291589 -0.116353
-0.616103 -0.535351 -0.469506
-0.100916 0.488966 -0.483235
0.129347 -0.31627 -0.9377
-0.897316 -0.0215485 -0.172654
0.550788 0.149367 0.0179424
-0.606987 -0.115913 -0.644903
-0.700242 -0.533607 -0.082417
0.80466 -0.338001 -0.847323
0.650431 0.108156 -0.762525
-0.264029 -0.250316 0.223514
-0.626588 0.554728 0.825154
-0.249978 0.149216 -0.640358
-0.444109 0.11314 -0.680076
0.789425 -0.307123 -0.461426
-0.940891 -0.372976 0.491599
0.0474511 0.324542 0.972517
-0.6668 0.00770589 -0.859447
0.985443 -0.225171 -0.599774
0.309972 -0.331439 0.241786
-0.452956 -0.230179 -0.710686
0.499281 -0.5189 -0.807757
-0.477133 -0.413858 0.547014
0.266429 0.424442 -0.601176
0.213509 -0.730692 -0.643393
0.10214 -0.18218 0.255246
-0.882672 -0.393058 -0.280732
0.468911 0.333224 -0.7656
-0.572985 0.0966224 -0.906838
0.576942 -0.508491 -0.742392
-0.413085 -0.00372313 0.48819
-0.0833534 0.458199 -0.591032
0.27324 0.202352 -0.988762
-0.174798 0.219816 -0.927844
0.0253881 0.0529407 -0.929119
0.527072 0.286299 -0.721183
-0.957363 -0.225016 0.0604386
0.141 0.375969 -0.832901
0.428093 -0.564434 -0.900757
-0.570652 0.100971 -0.97327
-0.485985 -0.473101 0.327455
0.957508 -0.290228 -0.627388
-0.766782 0.371748 0.801388
0.6933 -0.376173 -0.0842936
-0.610394 -0.00391499 -0.824306
-0.0754251 0.496186 -0.413826
-0.467664 -0.254601 -0.82376
-0.512894 -0.0848501 0.639976
-0.210207 0.41566 -0.427652
-0.173229 -0.338594 -0.941622
-0.313145 0.19804 -0.978489
0.481354 -0.00217202 0.184452
0.823909 -0.12976 -0.498817
-0.158638 0.395527 -0.24241
-0.449165 -0.429962 -0.697294
-0.304558 0.210832 -0.466217
-0.655233 -0.463981 -0.959242
0.756725 0.102021 -0.274607
-0.493019 -0.343772 -0.80907
-0.172607 -0.489826 0.0162222
-0.700054 0.245965 0.766918
-0.733887 0.344506 0.593538
0.142052 -0.740609 -0.532719
-0.747179 0.04077 0.457875
-0.0779774 0.349435 -0.966338
-0.881397 -0.143758 0.529594
0.459951 0.359196 -0.386861
0.0509612 -0.290443 -0.937702
-0.644974 -0.60112 -0.264616
-0.804188 -0.687481 0.161163
-0.194256 -0.409355 -0.940308
-0.433567 0.1888 -0.46314
-0.807051 0.470174 0.79012
0.669673 -0.148068 0.0450687
0.838563 0.0908056 -0.718465
-0.795282 -0.72883 0.230031
0.16252 -0.462417 -0.935455
-0.510551 0.175504 -0.493486
-0.911736 -0.158504 -0.0481717
-0.145594 0.196742 0.0494216
-0.709087 0.270131 0.49542
-0.155659 -0.384999 0.127656
-0.839171 -0.091561 0.548471
-0.909665 -0.132944 -0.326907
0.142962 0.404066 -0.774269
-0.678615 0.104212 0.0406347
-0.725985 0.633419 0.865393
0.13557 0.459626 -0.254216
-0.0147995 -0.0840421 -0.93454
-0.109591 0.104877 0.838407
0.337436 0.355179 -0.814256
0.452963 0.0616296 0.165964
-0.579853 -0.634978 0.124723
-0.657875 0.116903 -0.497327
-0.66143 -0.571146 -0.134832
-0.383145 0.265075 -0.878209
-0.320752 -0.404726 0.127078
0.0637412 -0.568094 -0.984804
0.301145 0.413729 -0.547735
-0.82496 0.0710662 -0.344867
0.410446 -0.237644 0.239462
0.410486 -0.643055 -0.668975
0.207098 -0.0854207 -0.987389
-0.587166 0.367308 0.587478
-0.722519 -0.0351454 -0.891989
-0.122131 0.363458 -0.744752
-0.210103 0.221226 0.0075573
0.666978 -0.296286 0.0362871
0.152109 0.040146 -0.929263
0.344579 -0.567921 -0.983764
-0.664673 -0.496819 0.560585
-0.600863 0.721112 0.709551
-0.525978 -0.129213 -0.734197
0.647474 0.251816 -0.353149
-0.594382 0.0385059 0.56617
-0.21238 -0.597767 -0.240427
-0.605827 0.457028 0.763253
0.272094 -0.746371 -0.350104
-0.543556 0.162639 0.0689926
0.424048 -0.165248 0.236814
-0.858245 -0.154088 -0.441409
0.860046 -0.336494 -0.794589
0.192873 -0.735671 -0.576588
0.0409914 0.175587 0.108382
0.808893 -0.204166 -0.380258
-0.78272 0.11439 -0.131663
-0.672813 -0.497443 -0.485943
0.801575 -0.275021 -0.388939
0.428212 -0.447332 0.115529
-0.775837 0.0232531 0.0670976
-0.213075 -0.597937 -0.833407
-0.110996 0.224803 -0.934279
-0.499914 0.129225 0.132968
-0.17163 0.438809 -0.48823
0.396405 -0.412732 0.172439
-0.922517 -0.0761807 -0.282956
0.471151 0.365152 -0.568491
-0.575067 0.378618 0.660985
-0.586217 -0.548613 0.401148
-0.650916 0.0841218 0.103762
-0.815803 -0.140022 -0.49965
0.446592 0.33776 -0.261403
-0.12903 -0.138817 -0.937223
-0.901526 -0.259271 -0.371644
0.408479 -0.606053 -0.11748
-0.783422 -0.505836 -0.158873
0.481542 -0.521611 -0.942304
0.0379398 -0.0251135 -0.933046
0.157666 -0.700264 -0.702926
-0.912801 -0.402647 0.367642
0.431015 -0.271833 -0.994775
-0.93479 -0.155785 -0.114582
-0.829168 -0.210454 -0.493332
-0.372247 -0.380575 -0.98413
-0.139177 -0.531941 -0.957712
0.164244 -0.608591 -0.850789
0.532659 0.1677 -0.851571
-0.78058 0.0873774 -0.400575
-0.88817 -0.33104 -0.327489
0.53502 0.201323 -0.0470822
-0.650169 0.554075 0.572586
-0.542898 -0.579803 0.168915
-0.699275 0.592817 0.593692
-0.106548 -0.656227 -0.284378
-0.857497 -0.409758 -0.0751189
0.420652 0.121677 0.1424
-0.5414 -0.266956 0.607005
-0.503653 -0.180796 -0.789959
-0.740228 0.26331 0.612713
-0.750788 0.0555913 0.304447
-0.381106 0.16986 -0.569674
0.527607 -0.365429 0.13908
-0.471601 -0.280955 0.581081
0.114887 -0.748052 -0.46805
0.0539996 -0.749843 -0.336043
-0.67058 -0.52253 -0.00950217
-0.59914 -0.580568 -0.898132
-0.237568 0.343726 -0.441433
-0.493595 0.0995556 -0.604064
-0.106357 -0.599554 -0.21803
0.126037 0.481774 -0.394509
0.411783 -0.548798 -0.0602398
0.91599 -0.299351 -0.769811
-0.173608 -0.0163593 0.581617
-0.458616 -0.35881 0.49152
0.175226 0.144457 0.145537
-0.769266 0.0529196 0.141035
0.63502 -0.458029 -0.75101
0.809094 -0.0860479 -0.34198
0.6141 0.1089 -0.7977
0.631201 -0.499787 -0.688472
-0.208853 -0.662238 -0.890794
-0.80701 -0.366377 0.590103
-0.196826 0.291782 -0.63606
0.410942 -0.330134 -0.994552
-0.570203 -0.0833841 0.593975
-0.320213 0.150772 -0.60802
0.652868 -0.437626 -0.0949582
0.717573 -0.179954 -0.948263
0.216876 0.175374 -0.936606
-0.434673 0.208244 0.0260288
0.310608 0.248032 0.0340707
0.627052 0.25506 -0.428391
-0.451091 -0.486249 0.245758
0.0676296 -0.0926126 -0.935116
0.356195 0.0317547 -0.996474
-0.207352 -0.349747 0.166717
-0.631027 0.368792 0.528226
0.136687 -0.494139 0.117127
-0.086952 -0.0706178 -0.933899
0.347085 0.282885 -0.976526
-0.802502 -0.626274 0.0269059
-0.959063 -0.162121 0.286235
-0.827244 0.0873899 -0.1814
0.757249 -0.376804 -0.455378
-0.753306 0.308235 0.538662
-0.952725 -0.580395 0.216347
-0.860245 -0.51615 0.487702
0.493335 0.352762 -0.505339
0.673474 -0.220035 0.0376035
-0.0255377 0.234121 0.749344
-0.692802 -0.689927 0.332844
0.41505 0.312519 -0.197129
-0.351735 -0.561035 -0.843918
0.503835 -0.070365 0.188808
-0.112986 -0.526858 -0.698857
0.015505 0.191992 0.788163
0.0826025 0.300296 0.890754
0.630623 0.161349 -0.726017
-0.026093 -0.168313 0.227909
-0.617138 -0.521122 -0.862898
0.340941 0.406859 -0.33511
0.902065 -0.34366 -0.635134
0.545853 0.0485663 -0.945938
0.0889511 -0.721554 -0.645166
0.732755 -0.257019 -0.926895
0.152163 -0.624224 -0.908456
0.65641 -0.0740873 0.0572443
-0.447435 -0.453148 -0.606757
0.637473 -0.370074 0.0279499
-0.500628 -0.546435 -0.803466
-0.898158 -0.0144203 -0.245884
-0.475349 -0.00417723 0.371142
0.75329 -0.284225 -0.134455
-0.616732 0.196441 -0.146634
-0.575935 0.0343541 0.496108
-0.774494 0.131275 0.600974
-0.174073 -0.59116 -0.981757
-0.443019 -0.305112 0.43673
-0.377364 0.223971 -0.0142516
-0.474141 -0.03689 0.668809
0.759921 -0.0542335 -0.113482
-0.118482 0.065109 0.906046
0.410187 0.0204179 0.209367
0.426929 0.387043 -0.515388
0.530964 0.238406 -0.106067
-0.311045 0.114241 0.697829
-0.501337 0.0698077 -0.806193
0.705476 -0.100256 -0.95661
-0.573786 -0.173682 -0.826735
0.609605 0.111206 0.0169269
-0.75627 -0.507742 -0.091648
-0.49753 0.12685 -0.547446
0.684207 -0.0271769 0.00787174
0.803235 -0.235576 -0.319897
-0.496952 -0.246564 -0.983967
-0.0670162 0.249147 0.820599
-0.0621112 0.386491 -0.777711
-0.607714 0.162542 0.660171
0.498786 0.154138 0.0668231
-0.248363 -0.501722 -0.00632329
-0.289855 0.0254768 -0.951189
-0.248129 -0.587298 -0.337503
-0.36937 -0.217201 0.307195
-0.778538 0.140733 -0.200933
0.273905 -0.421287 -0.935706
-0.945602 -0.276745 -0.216158
-0.733822 -0.645677 0.430813
-0.883712 -0.023767 -0.0965682
-0.190366 -0.531013 -0.0476242
-0.215224 0.19768 -0.763359
-0.75032 0.0695993 0.0221103
0.769393 -0.343209 -0.519107
-0.643842 0.299488 0.500233
-0.626746 0.0641271 -0.879544
-0.533455 -0.509512 0.500194
-0.138772 0.233897 0.00623993
0.543617 -0.0250214 0.148668
0.82062 -0.067577 -0.51173
0.153313 -0.736238 -0.240298
-0.836385 -0.577414 0.452138
0.177872 0.274582 -0.989456
0.0818758 0.190727 -0.930525
0.2081 -0.70591 -0.757118
-0.619094 -0.149111 0.605342
-0.913518 -0.508846 0.043057
0.317566 0.359589 -0.196841
0.890941 -0.0843992 -0.512167
-0.577774 -0.620797 -0.268526
-0.137862 0.207833 0.822564
0.0253958 0.103872 0.148332
-0.339633 0.0207538 0.791262
0.386986 -0.0989922 0.24809
-0.467829 -0.358932 -0.727562
-0.448382 -0.510042 0.0150721
0.582703 -0.240644 0.135206
0.699703 -0.101178 -0.00191095
0.23355 -0.748316 -0.409786
-0.119394 0.348652 -0.817043
-0.754908 0.530393 0.885009
0.27661 -0.557152 -0.0828527
0.455317 -0.678885 -0.404276
0.275012 0.378695 -0.784522
-0.272683 -0.377768 0.162435
-0.562164 -0.353205 -0.847374
-0.834154 -0.406509 -0.398962
-0.890613 -0.0112538 -0.315474
-0.243605 -0.526792 -0.804571
0.273582 -0.665308 -0.172594
-0.34903 0.256454 -0.133038
0.767848 -0.000649271 -0.166874
-0.793482 -0.541719 0.511486
0.238337 -0.334111 0.243734
-0.342631 0.212561 -0.817357
-0.218017 0.178969 0.0778819
-0.63273 0.741666 0.807751
0.557925 -0.482318 -0.0290939
-0.272936 0.203486 0.050164
-0.452517 -0.480233 -0.9767
-0.0482808 0.276799 -0.0329808
0.560745 0.252832 -0.76397
-0.227262 0.377283 -0.366371
0.691255 -0.46036 -0.206768
0.116673 -0.633473 -0.974516
0.525948 -0.580987 -0.588416
-0.667533 0.203639 -0.297967
-0.423541 -0.325896 0.364932
0.174833 -0.319979 0.2472
-0.865923 -0.678002 0.198621
-0.417171 -0.534936 -0.508468
-0.257764 0.214238 -0.511293
0.337207 -0.628701 -0.166182
0.266082 0.446783 -0.427985
-0.602437 -0.604796 -0.34022
-0.40532 -0.603126 -0.176831
-0.735095 -0.253242 -0.581128
-0.156128 0.0313711 0.873934
0.538759 -0.439185 0.0468881
-0.763775 -0.59664 0.478168
0.0720124 0.384179 -0.826686
0.0407082 0.337426 -0.923024
0.094484 -0.758189 -0.394215
0.446813 0.207402 -0.922644
-0.778651 0.443481 0.826117
0.253963 0.261116 -0.0208972
0.781484 -0.250006 -0.193443
0.0479579 -0.496646 -0.931901
-0.533244 -0.141849 -0.675002
-0.61095 -0.0425898 -0.629756
-0.286549 0.159072 0.104998
-0.13896 -0.463278 -0.93
-0.0752291 0.270775 -0.988572
-0.439211 -0.0965956 0.685991
-0.0247121 -0.397983 0.155211
-0.64577 -0.467314 -0.896484
0.00967541 0.424583 -0.73505
0.803813 -0.035126 -0.397614
-0.198304 0.0926308 0.587176
0.606579 0.0598554 0.05965
-0.412604 0.0109217 -0.984919
-0.439339 -0.491891 0.160685
0.00121344 -0.544733 -0.00479755
-0.296448 0.0654968 0.819386
-0.411829 0.253621 -0.331851
-0.615677 -0.70294 0.126538
0.874178 -0.106598 -0.86259
-0.614976 0.0806478 0.157186
-0.662959 -0.158115 -0.631047
0.427723 0.0598764 -0.987274
0.262666 0.0922658 -0.9364
0.37113 -0.672011 -0.71791
0.579306 -0.560225 -0.204192
-0.738418 0.171386 -0.327556
-0.73858 -0.605528 0.00891921
-0.0469033 -0.711287 -0.272223
-0.95552 -0.550551 0.0915149
0.28236 -0.707871 -0.227338
-0.578651 0.159918 0.5945
0.798982 -0.132321 -0.228711
-0.769573 -0.189258 -0.546284
-0.928887 -0.0697447 0.151436
-0.615321 -0.567742 -0.960175
0.95856 -0.24863 -0.746648
-0.627555 -0.569127 -0.403722
-0.536491 0.0469184 0.342013
0.599006 -0.482908 -0.0967278
-0.633681 0.206323 0.717417
-0.62257 0.176535 0.473402
-0.516017 -0.503451 -0.9767
-0.27699 0.150288 -0.927635
-0.0142541 0.179294 0.675827
-0.670463 -0.70128 0.0680769
-0.658068 -0.351913 0.611353
-0.301441 0.098337 -0.934234
0.79694 -0.0127778 -0.54702
-0.533383 -0.626352 -0.895885
-0.136098 0.115956 0.615637
0.65575 0.0459007 0.0119348
0.138039 -0.746498 -0.314771
-0.374479 0.0668166 0.69145
-0.298692 0.232109 -0.00451522
0.00168314 0.492396 -0.411297
-0.952358 -0.28768 0.458694
0.709536 0.0690806 -0.877748
-0.470395 0.0271179 0.307909
-0.0992947 -0.316426 -0.937642
-0.428217 0.14827 0.136023
-0.403064 0.251624 -0.0842012
0.482178 0.0821158 -0.940039
0.484957 0.345456 -0.700528
-0.863668 -0.641389 0.0569364
-0.26539 -0.585 -0.266142
-0.497807 -0.601108 -0.843149
-0.644398 0.399817 0.79567
-0.0448331 0.0852635 0.162599
0.175632 0.328046 -0.870609
0.872003 0.0563879 -0.766293
-0.603996 0.0980932 0.616145
0.948234 -0.255759 -0.552978
0.339334 -0.192093 -0.990925
0.697191 0.0845471 -0.0944454
0.62033 -0.380617 -0.863282
-0.600984 -0.584336 0.306335
-0.404685 -0.064961 -0.988018
-0.547848 -0.295885 -0.981447
-0.621533 -0.483531 -0.526447
0.311842 -0.143578 0.26878
-0.680817 0.153168 -0.0654572
-0.597455 0.11209 0.464502
-0.668336 -0.0104153 -0.595612
0.19447 0.428223 -0.669082
-0.214344 0.186477 -0.6974
0.307644 -0.473191 -0.988728
-0.830865 -0.477453 0.535964
-0.653129 -0.404076 -0.951243
-0.127663 -0.0299762 0.639452
0.685811 -0.391976 -0.755507
-0.642439 0.206521 -0.223405
-0.203338 0.265724 -0.981699
-0.00788432 -0.618291 -0.79412
-0.700314 0.346937 0.507099
0.458647 -0.615957 -0.215443
0.264219 0.341067 -0.843907
0.0305735 0.495409 -0.312448
0.199771 -0.146756 -0.987128
-0.203393 0.149992 -0.924064
-0.381948 -0.491946 0.0346528
-0.996602 -0.314727 0.177132
-0.388579 -0.610841 -0.286896
0.436621 -0.504927 0.00217684
0.11099 0.353539 0.829107
0.806059 -0.154596 -0.306646
-0.486264 -0.17974 -0.705326
-0.577727 -0.454666 -0.567811
-0.607379 -0.63638 0.258789
-0.224489 0.253846 -0.568472
0.524513 -0.604211 -0.221172
0.705695 0.105974 -0.810151
-0.00523872 -0.0249631 0.214178
-0.0105767 0.286015 0.948165
-0.271248 0.0790982 0.571589
0.522562 0.27472 -0.166097
-0.15626 0.169861 0.875709
-0.525021 -0.337954 0.596401
-0.250305 -0.0224743 0.688427
-0.838293 -0.0555863 0.430745
-0.930346 -0.331698 -0.170148
0.606325 -0.556616 -0.333688
0.812983 -0.168076 -0.444011
0.366153 -0.438484 -0.993819
-0.520262 0.249807 -0.170483
-0.690707 -0.605794 0.473758
0.655615 -0.150482 -0.977976
0.679419 0.149462 -0.667784
-0.12106 -0.522991 -0.0187668
0.274367 -0.387238 0.211265
-0.68584 0.540885 0.869449
-0.923707 -0.0889216 0.27939
-0.402356 0.178831 0.079117
-0.00991458 -0.511377 -0.930575
-0.197536 0.375232 -0.968059
0.115786 0.333564 -0.924856
0.280628 0.430724 -0.28902
-0.591732 -0.515942 0.538138
-0.55632 -0.569512 0.246257
0.282574 -0.00306183 0.248682
-0.656992 -0.691605 0.261383
0.206069 0.443131 -0.265449
-0.5808 0.748611 0.778429
-0.206717 0.0221942 0.736704
0.383238 0.356795 -0.232423
-0.719318 0.187105 0.483519
-0.287622 -0.558654 -0.12864
-0.579975 0.181637 0.00163418
0.042361 0.304868 -0.983634
-0.266431 -0.529443 -0.06746
0.0804866 -0.649524 -0.892646
0.962379 -0.0234589 -0.680398
-0.637354 0.0292342 0.620561
-0.59343 -0.186254 -0.658669
0.23755 0.242339 0.0601438
0.527633 0.324978 -0.366147
-0.867227 -0.677744 0.125105
0.510667 -0.386984 -0.962741
0.676445 -0.498275 -0.44836
0.662524 0.0477579 -0.922504
-0.148648 -0.493417 -0.65736
-0.859413 -0.109997 0.47075
0.0400119 0.274622 0.762435
0.496873 0.190537 0.00487246
0.878486 0.0698737 -0.67243
-0.470221 -0.560797 -0.97792
-0.581754 0.694034 0.823132
0.35187 -0.577065 -0.919236
0.364716 0.413325 -0.529482
0.827448 -0.350723 -0.61619
-0.141458 -0.314743 0.16064
0.232126 0.114159 0.176208
0.687558 -0.475813 -0.515991
-0.577249 0.235604 0.574795
0.712389 0.125011 -0.61215
-0.628659 0.338017 0.763096
-0.614779 0.13688 0.0547902
-0.79217 -0.515169 -0.28667
-0.0589088 -0.639583 -0.984383
0.781281 0.0234691 -0.373534
0.444674 0.290807 -0.827397
-0.687767 0.693525 0.889772
-0.529541 -0.417361 -0.602816
-0.670888 0.131221 0.452135
-0.131213 -0.702439 -0.887107
0.512904 0.316736 -0.588636
-0.137161 0.263667 -0.982927
0.0203366 0.480619 -0.541215
-0.712386 0.0766573 0.245883
-0.912947 -0.0424829 0.233231
-0.679714 -0.64211 0.0294655
-0.781486 0.000959215 0.499634
0.410605 0.385791 -0.589788
-0.310802 0.128498 -0.676934
0.116828 -0.113171 0.254896
-0.582657 0.047307 0.431216
-0.401242 -0.177215 0.516029
-0.158907 0.0614023 0.795717
0.791208 -0.277551 -0.259842
-0.450005 -0.408083 0.35528
0.224425 -0.580716 -0.123323
-0.01683 0.330979 -0.970215
0.28878 -0.72661 -0.289963
0.543094 -0.0108621 -0.981718
-0.726118 0.473955 0.855414
0.746612 -0.170095 -0.0812789
-0.0774093 -0.211379 0.21037
-0.840984 -0.456848 -0.292203
-0.651027 -0.231677 -0.635901
-0.821798 -0.283159 -0.48094
-0.687823 -0.732432 0.127098
-0.210669 -0.540505 -0.559652
-0.936119 -0.280998 -0.1187
-0.491783 -0.530946 0.120237
0.69407 -0.419331 -0.147785
0.0594009 -0.714741 -0.527159
-0.584454 0.171133 0.526346
-0.630885 0.0754908 -0.544847
0.810322 -0.0904113 -0.438177
-0.606742 -0.0743702 -0.982371
0.67717 -0.302666 -0.932266
0.688032 -0.334896 -0.0191417
0.607389 0.263384 -0.499226
-0.666803 -0.209263 0.6148
-0.486703 0.0103406 -0.984391
-0.464193 -0.02091 0.449626
-0.489283 0.0655858 -0.736104
-0.572536 0.301621 0.628848
-0.433616 -0.241615 0.47842
-0.289654 0.119651 0.166994
-0.0328139 0.352676 -0.905542
0.678006 -0.44548 -0.697961
-0.591172 -0.419799 -0.976209
-0.155559 0.197436 0.750218
-0.638793 0.273373 0.749793
-0.119634 -0.391885 -0.934714
-0.851688 -0.414854 0.559231
-0.424773 0.226784 -0.396323
0.414045 -0.672385 -0.596596
-0.176367 0.266411 -0.0443938
-0.920123 -0.0880068 -0.140846
0.74057 0.0937586 -0.559685
-0.67336 -0.0851072 -0.612084
-0.0672743 0.0752776 0.61043
-0.251812 0.110212 0.833623
-0.15895 -0.656529 -0.837154
-0.714713 -0.444304 0.584189
0.0676947 0.00812194 0.223643
0.78827 -0.0739385 -0.185044
-0.0636764 0.0139979 0.190799
-0.572919 0.0749061 0.223071
0.486012 0.107724 0.115746
0.338265 0.0395942 0.222858
-0.888208 -0.400669 -0.146613
-0.729907 0.113152 0.473882
0.458565 0.223319 -0.048967
-0.927592 -0.441211 0.323181
0.570029 0.274516 -0.574459
-0.282266 -0.576816 -0.398897
0.914146 -0.307648 -0.575731
-0.457726 -0.398532 -0.978
-0.572741 -0.531589 0.330541
0.645076 0.225712 -0.548355
-0.715845 0.514698 0.709346
0.995208 -0.166416 -0.651603
-0.729328 0.470033 0.541895
0.0860551 -0.528578 0.0515173
0.765944 -0.31951 -0.198985
0.806413 0.0868536 -0.788417
-0.180903 -0.555283 -0.373396
-0.934626 -0.347005 0.421958
-0.939225 -0.139849 -0.257841
-0.628199 -0.597823 0.444602
-0.774925 0.149372 -0.267581
-0.273601 0.27355 -0.3421
-0.712041 -0.7248 0.238354
-0.183205 0.0018596 0.672069
-0.208879 0.0342861 0.553966
-0.515171 0.103317 -0.982679
-0.446907 -0.501861 -0.553916
-0.894396 -0.0661251 0.336646
-0.673887 0.681412 0.826384
-0.729125 -0.369694 0.605338
-0.399456 -0.12607 -0.965277
-0.315753 -0.150659 -0.965282
0.283431 -0.597658 -0.138843
-0.990765 -0.246678 0.194725
-0.691453 0.177023 -0.186259
0.174913 0.35826 -0.158057
0.11306 -0.509881 -0.957119
-0.854696 -0.694464 0.257069
0.63069 -0.26293 0.0885318
0.575773 0.262897 -0.65868
-0.175546 0.456016 -0.37224
-0.0337603 -0.685807 -0.548345
-0.55642 -0.586204 -0.388774
-0.207195 -0.501446 -0.763796
0.177344 -0.456701 0.163475
-0.586151 -0.25567 -0.651655
-0.664122 0.0758744 0.295812
-0.695921 -0.442774 -0.51681
-0.395125 -0.507967 -0.592051
0.32052 0.324828 -0.884574
0.693019 -0.485416 -0.269229
0.016189 0.342401 -0.8599
-0.361263 -0.0542859 0.256118
-0.422632 -0.0281006 0.719654
-0.460757 -0.296288 -0.76592
0.179102 -0.257755 -0.941905
0.609601 -0.27802 -0.961992
0.411709 -0.20678 -0.984147
-0.7633 0.142984 0.538848
0.30926 -0.721896 -0.408349
-0.23494 -0.0397803 0.548614
-0.359604 -0.0531089 0.470571
0.372671 -0.512666 -0.00826408
0.231296 -0.73689 -0.528021
0.079878 0.42985 -0.197327
-0.64714 -0.557103 0.514824
0.478455 0.150714 -0.892891
-0.0421651 0.404431 -0.190875
0.330987 0.270871 -0.0992331
0.439149 0.280103 -0.890638
-0.970434 -0.517231 0.156482
0.594124 -0.573454 -0.408512
-0.0769549 0.105922 0.942832
0.305566 -0.0212667 -0.995034
-0.247193 0.247435 -0.0498666
0.27545 0.0396452 -0.985601
0.208818 -0.541198 0.0485112
0.220027 0.0310559 -0.937821
0.0835824 0.229042 0.779611
0.768191 0.07128 -0.847
0.978866 -0.240974 -0.676112
-0.480474 -0.350643 -0.652708
-0.169083 0.3176 -0.212521
0.552397 0.31473 -0.515633
0.150348 -0.525899 0.0657157
0.553739 -0.328818 -0.956734
0.501808 -0.42323 0.111585
0.261373 0.28108 -0.0848547
-0.521824 0.0520827 0.269165
-0.419434 -0.614604 -0.956707
-0.275787 0.0193887 0.523776
0.356627 -0.266817 -0.992881
-0.52535 -0.223505 -0.676775
0.178138 0.32537 -0.951225
-0.34973 -0.527419 -0.713942
-0.306484 -0.367547 -0.983495
0.720643 -0.443027 -0.328
-0.278256 -0.556404 -0.603051
-0.529503 -0.292691 -0.661043
-0.199101 -0.477339 -0.961045
-0.428016 -0.585844 -0.848285
-0.0992516 0.169908 0.936023
0.156161 0.227772 0.0501343
-0.158097 -0.0328574 -0.931302
-0.405109 0.26201 -0.263987
0.640749 -0.0737258 -0.976281
-0.085249 -0.667133 -0.816496
0.334544 -0.228474 0.262886
0.58888 -0.527026 -0.147967
0.69853 -0.469295 -0.392641
-0.666995 -0.580356 0.016408
0.733241 0.0110498 -0.911434
0.353001 -0.370878 0.214914
-0.40727 0.222097 -0.981858
-0.865771 -0.610831 0.388382
0.0850481 0.0358471 -0.92996
0.0963708 -0.44752 -0.9313
-0.74221 -0.675833 0.0472081
-0.401479 -0.129541 0.448141
0.720267 0.165698 -0.389152
-0.98042 -0.200491 0.12974
0.0807866 0.354542 0.940446
0.919522 -0.0679236 -0.815202
-0.746958 -0.00454858 -0.510588
-0.214542 -0.507207 -0.69466
0.370197 0.205208 0.0770965
-0.130837 -0.614671 -0.790798
-0.683426 -0.0593902 -0.838813
-0.641224 -0.178296 -0.977994
-0.439464 -0.225446 0.548798
-0.731396 -0.115915 -0.894402
-0.403514 -0.541962 -0.978002
-0.502561 -0.497735 0.0539405
-0.138259 0.366104 -0.961697
0.5555 -0.485238 -0.802437
0.432222 -0.485855 -0.99142
-0.32296 0.2821 -0.829779
-0.566812 -0.0492442 -0.790843
0.440903 0.13273 -0.960065
-0.747389 -0.717087 0.107171
-0.956156 -0.509449 0.230201
-0.332618 -0.109248 0.61043
0.843109 -0.375509 -0.667942
0.477312 -0.56554 -0.094941
-0.803581 -0.712252 0.306557
0.70532 0.164804 -0.5382
-0.497499 -0.445938 0.405257
-0.91329 -0.582527 0.0522911
0.112794 0.306185 -0.979131
0.0989238 0.486871 -0.325187
-0.555112 -0.557349 0.100737
-0.0825558 0.181319 0.0779199
-0.5459 -0.56412 -0.976038
0.707096 -0.447553 -0.578699
0.436085 -0.0818186 -0.982752
-0.575963 -0.626975 0.197423
-0.274947 -0.523208 -0.734655
0.439086 0.20462 0.029825
-0.719556 -0.564096 -0.284578
-0.14586 -0.170836 0.20399
-0.509061 0.201604 0.0170805
0.485706 -0.0502097 -0.9974
-0.760536 0.0713252 0.635006
0.467046 0.348733 -0.325668
0.212286 -0.214391 -0.986733
0.202825 0.218908 -0.986037
-0.135776 -0.19824 -0.940949
-0.684312 0.18907 -0.370325
-0.741746 -0.725032 0.29341
-0.660388 0.698704 0.6883
0.390224 0.376971 -0.660181
-0.824382 -0.046821 0.495486
0.378489 -0.383345 -0.992017
0.324011 -0.396409 -0.949083
0.227078 0.44847 -0.338789
-0.285981 0.173771 -0.789722
0.302282 0.2063 0.0963929
-0.234379 0.0453233 0.857368
-0.922172 -0.628638 0.101735
-0.0959838 0.223178 0.766879
0.147916 0.179928 -0.929363
-0.110598 0.486175 -0.353536
-0.981774 -0.376903 0.224461
0.0506404 0.324533 0.823418
0.19298 0.259265 0.00560793
-0.59215 -0.322026 0.610612
-0.227972 -0.460233 0.0497377
-0.241951 0.326178 -0.987005
-0.840075 -0.407559 0.0121078
-0.0861785 -0.358961 0.155145
0.296949 0.309207 -0.95645
-0.813706 -0.48542 -0.223082
0.584868 0.277881 -0.376035
0.530566 -0.49539 -0.876615
0.0396662 0.259508 0.93165
-0.0740551 -0.624354 -0.552668
-0.981302 -0.37733 0.154369
-0.0261532 -0.293627 -0.9377
-0.867876 -0.0172174 0.296726
-0.65482 0.475812 0.821718
-0.0146118 -0.669117 -0.835987
-0.364918 -0.335521 0.250985
0.683176 0.0969712 -0.722433
0.684448 -0.0215416 -0.952053
0.0328963 0.222677 0.70863
0.796914 0.0024873 -0.883212
-0.579606 -0.207938 0.610568
-0.153308 -0.268683 -0.944353
-0.749767 -0.687732 0.369655
-0.431836 0.137411 -0.907315
0.0672356 -0.557475 -0.00904042
-0.0809274 -0.501894 -0.929533
0.863025 -0.0215381 -0.541811
-0.856974 -0.0367288 -0.407721
0.991971 -0.153551 -0.580458
-0.755423 0.393097 0.703284
-0.395918 0.129053 -0.836038
-0.169391 0.101175 -0.927372
-0.31312 -0.531587 -0.790427
0.480961 -0.23408 -0.992039
0.613243 0.0104405 -0.959071
0.234598 0.309122 -0.975118
0.733794 -0.411826 -0.518438
0.00247216 -0.718635 -0.508007
0.271674 -0.523014 0.0671719
0.679616 -0.503163 -0.336049
-0.388106 -0.140042 0.646281
-0.944198 -0.408145 0.0994649
0.294989 0.437728 -0.483192
-0.319024 -0.573718 -0.295653
0.471254 -0.600816 -0.151891
-0.278883 -0.00523674 0.81574
0.19437 -0.57652 -0.0569477
-0.818881 0.0920616 -0.255394
-0.905166 -0.38226 -0.213664
-0.693771 -0.578767 -0.209844
-0.510691 0.133984 -0.942468
-0.701142 -0.181549 -0.957417
-0.10954 -0.595834 -0.981859
0.473112 -0.157807 -0.97947
0.7542 -0.356248 -0.645543
-0.577503 0.114924 0.109675
-0.91511 -0.549356 0.355417
-0.560684 0.0869221 -0.560797
-0.148962 -0.589624 -0.262684
0.6574 0.0995637 -0.0356405
-0.443208 0.262535 -0.147136
-0.461404 -0.552653 -0.0493072
0.291312 -0.58493 -0.975355
-0.586692 -0.144986 -0.98179
0.00677341 -0.669459 -0.97403
0.233091 -0.486902 -0.973987
-0.886274 -0.0911672 0.402442
-0.60092 0.522414 0.769512
-0.206182 0.333285 -0.571007
-0.237341 0.313768 -0.322416
0.0564357 -0.0620934 0.238268
0.353402 0.306987 -0.168318
-0.605218 -0.286773 -0.964291
-0.342261 0.00888653 0.499761
0.0110075 0.0432643 0.190963
0.837676 0.0361534 -0.831094
-0.346127 -0.547543 -0.559472
-0.00909935 -0.753449 -0.334252
-0.547781 -0.349734 -0.628076
0.387487 0.321391 -0.852233
0.802894 -0.26578 -0.532301
0.137368 0.0353426 0.228083
-0.74568 0.572803 0.82746
-0.273676 0.129764 0.76663
0.0763524 0.418561 -0.757657
-0.347495 -0.113369 0.264083
-0.62525 -0.266179 0.614799
0.539732 -0.514502 -0.0896865
-0.288021 -0.0627058 0.649515
-0.100868 0.110704 0.762723
0.52697 -0.554703 -0.735521
0.342315 0.398997 -0.257917
-0.590835 0.30488 0.550526
0.649991 -0.531715 -0.386916
-0.0479525 0.316437 -0.159964
-0.467096 -0.127744 -0.982896
-0.961599 -0.588348 0.15046
-0.329184 0.0159869 0.233875
0.695661 0.0290348 -0.0438737
-0.164667 -0.440116 0.0806336
-0.0082277 0.202315 0.921646
0.364421 -0.0523002 -0.986363
-0.73486 -0.469366 -0.465038
-0.48172 -0.320745 -0.983498
0.658148 0.20001 -0.483348
0.293806 -0.722796 -0.646833
-0.211159 -0.137221 0.22487
-0.351458 -0.58858 -0.957294
0.921499 -0.146051 -0.824879
-0.310146 -0.234451 -0.965279
0.202579 -0.00905479 0.248895
-0.654642 0.719926 0.941896
0.280207 -0.643217 -0.831024
0.194211 0.461878 -0.404433
-0.176722 0.360427 -0.633765
-0.351762 -0.29777 -0.971839
-0.530058 0.255563 -0.245414
-0.801875 -0.66954 0.0898953
-0.492036 -0.622273 -0.959032
0.332386 -0.117844 -0.990264
-0.606802 0.06342 0.358175
-0.903707 -0.633842 0.250799
-0.227593 -0.560535 -0.418787
-0.760256 -0.523577 -0.33933
-0.254304 -0.0923392 0.61597
-0.158382 0.100484 0.141996
-0.89835 -0.0920717 -0.0624376
-0.219886 0.220074 -0.635481
-0.775703 -0.485742 -0.0229739
-0.781714 -0.431964 0.57765
0.237494 0.180264 0.118473
-0.567175 -0.512811 0.0468447
0.721473 0.113372 -0.209841
0.673498 0.169857 -0.212365
-0.6075 -0.45358 -0.831941
-0.809953 -0.0178372 -0.468456
0.399573 -0.482311 0.0586435
0.0672164 -0.662215 -0.777373
-0.0863475 -0.130444 0.211868
-0.0601018 -0.154663 -0.936451
-0.790919 0.120638 -0.326695
-0.697708 0.574172 0.665189
0.946269 -0.0423862 -0.748869
-0.476712 -0.596873 -0.183842
0.570004 -0.384312 0.0828038
-0.054223 0.225682 0.952528
0.325461 0.258475 -0.0345301
-0.121561 0.159149 -0.925739
-0.888192 -0.157409 0.447391
-0.145226 -0.610076 -0.336567
-0.335404 0.266758 -0.984393
-0.427523 0.0222738 0.675351
-0.915334 -0.201733 -0.313396
-0.0554319 -0.561265 -0.962993
-0.324567 0.245744 -0.0695325
-0.986469 -0.306788 0.252843
0.460483 0.353398 -0.639295
0.188621 0.10759 -0.926388
-0.745041 0.122589 -0.0781788
-0.0610715 0.146015 0.8849
-0.5135 -0.4705 0.546522
0.0769532 0.313488 -0.13567
0.837862 -0.227253 -0.883681
-0.597915 0.219746 -0.274328
-0.578809 0.145958 -0.519979
-0.198307 -0.00793492 0.826104
0.40085 -0.599471 -0.796262
0.135436 -0.693479 -0.180041
0.0971922 0.370443 -0.159909
-0.892576 -0.0138743 0.165983
-0.269799 -0.317119 0.197508
-0.267983 0.254454 -0.982492
0.741121 -0.328559 -0.892619
-0.359695 0.319795 -0.899598
-0.163637 -0.0929823 -0.935635
-0.420789 -0.266394 -0.974689
-0.342401 -0.0988839 -0.987104
-0.239649 0.0741939 -0.926074
-0.540494 0.0149784 -0.785801
0.657124 -0.389615 -0.809732
-0.471761 -0.142189 0.637299
0.902599 0.000211427 -0.795393
-0.564089 -0.614993 -0.95307
0.438046 -0.547101 -0.830261
0.467432 0.260426 -0.0989124
-0.8554 0.0417001 -0.288753
-0.642275 0.607326 0.875207
0.204279 0.0569813 0.218539
-0.38666 0.0595132 0.223487
-0.450404 -0.376517 0.414982
0.0902363 -0.68952 -0.711361
0.9532 -0.187477 -0.782294
-0.0733418 0.480906 -0.294378
-0.869817 0.0422075 -0.217957
0.573485 0.286421 -0.309653
-0.896554 -0.431902 0.511733
-0.599712 0.613363 0.687058
-0.711575 0.508301 0.631658
-0.619131 -0.588391 -0.188504
0.341433 -0.619388 -0.833546
-0.258319 0.308218 -0.811215
-0.620842 -0.654414 0.0662667
0.702171 0.155536 -0.454166
0.625001 -0.519761 -0.519393
-0.37992 -0.593498 -0.899053
0.288999 0.297292 -0.149031
-0.487071 -0.611972 -0.366889
-0.422859 -0.434701 0.287436
-0.658982 -0.727284 0.186525
-0.771101 -0.29995 0.608848
-0.760298 0.0776485 0.533005
-0.644134 0.620823 0.607203
-0.739588 -0.0628922 -0.962062
0.865697 -0.279711 -0.841084
-0.0192192 0.0477386 0.656541
-0.0281936 -0.718343 -0.450188
-0.377352 -0.390156 0.148067
-0.0933753 0.442 -0.22969
-0.376691 -0.597674 -0.348295
-0.145242 0.116788 0.913593
-0.750563 0.459087 0.741764
0.615888 0.247675 -0.608
-0.400869 -0.536489 -0.0262105
0.58934 -0.571872 -0.265448
0.600962 -0.537227 -0.607195
-0.613196 -0.227797 -0.886645
0.471713 -0.622358 -0.276638
-0.576554 -0.545605 -0.0329922
0.460336 0.296401 -0.149844
-0.273295 0.268868 -0.124956
-0.00582513 0.210512 0.995375
-0.247873 -0.250483 -0.984888
-0.861453 -0.434608 -0.219979
-0.0130602 0.474278 -0.601627
0.762958 -0.211106 -0.132343
0.639609 -0.52147 -0.219257
0.369139 -0.701271 -0.279375
-0.190854 0.287458 -0.153828
0.574589 -0.444139 -0.865675
-0.127803 0.453105 -0.540512
0.789092 -0.310564 -0.325134
0.110195 -0.243649 -0.938993
-0.571788 -0.284277 -0.902609
0.127544 0.228557 -0.983361
-0.242277 0.124914 -0.703108
-0.188293 0.425663 -0.318956
0.413153 -0.553961 -0.971712
-0.769694 0.0589993 0.217808
-0.348785 -0.579469 -0.154275
0.0146527 -0.586737 -0.146224
0.47396 -0.199521 0.212174
0.34724 -0.672721 -0.218961
0.977816 -0.0856756 -0.576096
0.0603666 0.487214 -0.389423
0.334535 -0.506804 0.0622848
0.665582 -0.2302 -0.959645
-0.200786 0.268123 -0.775737
-0.729831 -0.0545722 -0.563054
-0.344132 -0.0153301 -0.986216
-0.787157 -0.433247 -0.430097
-0.712767 0.112132 -0.0179475
-0.0535846 -0.585231 -0.109617
-0.718665 0.0617477 0.0890159
-0.976032 -0.172693 0.204136
-0.279896 -0.546233 -0.853826
-0.785209 0.207022 0.636876
-0.351017 0.158478 0.126649
-0.626404 0.199278 -0.415994
-0.603643 -0.590618 0.0565503
-0.648855 -0.23765 -0.957783
0.155333 -0.18648 -0.943106
0.796703 -0.0153572 -0.466449
-0.857806 -0.227603 -0.42899
-0.0626984 0.414156 -0.716336
-0.403647 -0.00461528 0.25649
0.76495 -0.350338 -0.263345
-0.487647 0.246501 -0.0992763
-0.669355 0.670807 0.761461
-0.550269 -0.076058 -0.665312
-0.151005 0.168606 0.676648
0.0284773 -0.70126 -0.595103
-0.0921088 -0.676532 -0.432972
-0.911563 -0.170253 0.387408
0.0872326 0.4669 -0.526379
-0.480719 -0.478578 -0.785998
-0.199143 -0.145208 -0.971546
0.744762 -0.412346 -0.391834
-0.362701 0.22267 -0.4266
0.293372 -0.584518 -0.879849
-0.698695 0.0618264 0.422559
0.578033 0.0210246 0.104595
0.403356 0.181611 -0.98466
-0.745052 -0.132986 -0.949507
-0.397643 -0.434343 0.107214
-0.649982 0.0865324 0.664497
-0.866248 0.00651184 0.233285
-0.265747 -0.115686 -0.988621
0.979574 -0.178344 -0.717533
0.329603 0.157252 -0.990666
-0.250402 -0.423615 -0.981045
0.0608982 0.237791 -0.983391
-0.0040381 0.11031 0.637007
-0.770592 0.0285941 0.566504
-0.200797 0.103466 0.879475
-0.107281 0.273698 -0.0375253
-0.403225 0.277211 -0.967393
0.952342 -0.117132 -0.525745
-0.45575 0.0688417 -0.984884
-0.26743 -0.491811 -0.983136
-0.752594 -0.495569 -0.401819
-0.723344 0.672433 0.936371
0.595929 0.0728253 -0.903881
-0.696061 -0.291221 0.616682
-0.929657 -0.419041 0.435136
-0.475798 -0.413954 -0.772592
0.26964 -0.728693 -0.585954
-0.368075 -0.289313 0.29457
0.771366 -0.125599 -0.134491
-0.105905 0.374 -0.195929
0.11575 -0.354232 0.225426
0.84173 -0.379313 -0.742234
0.11285 -0.0353661 -0.93308
-0.453522 0.0349694 0.238235
-0.860355 -0.341235 -0.386479
0.269283 0.0595872 0.217923
-0.593869 0.395212 0.730449
0.138426 -0.673256 -0.780997
-0.574782 -0.221567 -0.982005
-0.279954 -0.560531 -0.533969
0.585394 0.175692 -0.786996
-0.43654 0.137324 -0.600143
-0.373819 0.118085 0.177645
-0.620872 -0.346628 -0.970685
-0.555157 -0.564664 -0.459347
-0.808481 -0.441589 -0.0142702
-0.196807 -0.0639848 0.63455
0.651044 -0.397375 -0.0324613
0.0164528 -0.354006 -0.935862
-0.417901 0.210486 -0.923489
0.186313 -0.531204 -0.988584
0.356782 -0.681613 -0.652487
-0.786269 -0.0668999 -0.504527
-0.903877 -0.478589 0.457114
0.271517 -0.349236 -0.938669
0.482229 -0.534703 -0.876196
-0.324138 -0.526448 -0.0112377
0.47743 -0.631793 -0.57395
-0.943726 -0.249725 0.523242
-0.563734 -0.0218067 0.541528
-0.346766 0.274601 -0.235415
-0.771394 0.62833 0.914252
0.892831 -0.151298 -0.50157
0.0576797 -0.490338 0.107788
0.0177298 -0.56369 -0.0726699
-0.761045 0.311332 0.776817
-0.775492 -0.334387 -0.510511
-0.297713 -0.561716 -0.908406
-0.590524 -0.546226 0.475166
0.588242 -0.133729 -0.994665
0.117496 0.452761 -0.576289
-0.554483 0.227886 -0.385929
0.872555 -0.265498 -0.52857
0.235677 -0.70495 -0.695988
-0.488758 -0.614508 -0.255049
-0.305953 0.277734 -0.190616
-0.484921 -0.00699078 0.525394
-0.251945 0.301412 -0.39227
-0.55053 0.0411199 -0.984433
-0.117263 -0.667667 -0.365846
-0.725656 -0.31625 -0.557843
-0.680896 -0.286168 -0.609215
-0.840725 -0.455799 -0.152251
0.00486586 -0.590557 -0.985353
-0.0281225 0.1453 0.113959
0.179396 -0.61311 -0.976798
-0.169594 0.318094 -0.791235
-0.012282 -0.257084 0.221323
-0.588783 0.32427 0.70276
0.52069 0.0466227 0.135291
-0.861831 -0.0304955 -0.027893
0.131572 -0.63475 -0.142503
-0.514974 -0.176607 -0.985695
-0.53348 -0.00446941 0.46801
-0.743524 0.000244427 0.618136
-0.515524 -0.530379 -0.00831517
0.513067 -0.645053 -0.393385
-0.163022 -0.546454 -0.444295
-0.918537 -0.0971989 0.0840863
0.11002 -0.293022 0.244756
-0.747061 0.518682 0.78192
0.241628 0.316951 -0.900109
-0.211235 -0.655798 -0.964876
0.810835 -0.136325 -0.38045
-0.964287 -0.443411 0.17417
-0.202806 0.139415 0.639995
-0.896788 -0.608185 0.324716
-0.613494 -0.312242 -0.625738
-0.0819199 0.192184 0.705248
0.206568 -0.747036 -0.335262
-0.708404 0.403415 0.825217
0.597786 -0.42446 0.0212664
-0.352383 0.0577804 -0.978066
0.720677 -0.382277 -0.700063
-0.375445 -0.523369 -0.784111
-0.46114 0.142018 -0.976254
0.620235 -0.122005 0.102227
-0.592807 0.258492 0.690924
-0.276552 -0.312125 -0.972438
-0.0535911 -0.600229 -0.181945
0.0793537 0.0773787 0.196476
-0.854921 -0.291846 -0.421819
-0.148385 0.0649039 0.730427
-0.106505 -0.565754 -0.559723
-0.061299 0.0853602 0.701349
-0.13914 -0.662573 -0.981777
-0.397297 -0.260375 0.350907
0.745378 0.11243 -0.762682
-0.956569 -0.441247 0.252609
0.346878 -0.590152 -0.106138
0.713256 0.0795551 -0.680746
0.778744 -0.342749 -0.392756
-0.00354337 -0.643243 -0.178721
-0.684439 0.629263 0.711425
-0.731239 0.154736 -0.140564
-0.287361 -0.0474409 -0.977482
0.012166 -0.676528 -0.898033
-0.945563 -0.210993 -0.242058
0.767509 0.0406617 -0.514303
-0.559817 0.200956 -0.449611
-0.341879 -0.50952 -0.979782
-0.7492 0.325231 0.659719
0.446245 -0.661774 -0.521205
-0.716589 0.534188 0.566053
-0.547696 -0.616929 -0.211337
-0.647291 -0.521547 -0.952849
-0.31409 0.344543 -0.983467
0.485634 -0.320551 -0.988862
-0.614559 0.218084 -0.348805
-0.150313 -0.0929162 0.201313
0.0259491 0.326796 0.892314
-0.281203 0.290258 -0.267666
-0.532517 0.209996 -0.0508644
-0.0745652 0.144219 0.64563
0.480467 0.016924 -0.982456
0.521781 -0.618183 -0.521166
0.155704 -0.577672 -0.116377
-0.276046 -0.438737 0.0938144
-0.0196577 -0.333161 0.187417
0.335776 -0.539189 -0.0606858
-0.200774 0.369371 -0.288335
-0.156285 0.155185 0.102685
-0.176206 -0.559678 -0.779363
-0.298783 -0.483484 0.0369005
-0.376443 -0.0839524 0.72474
-0.214045 -0.537624 -0.981725
-0.213168 0.272982 -0.0958681
-0.0306173 0.502198 -0.34932
-0.544551 -0.0540831 -0.728872
-0.796274 0.582158 0.882476
0.101055 -0.453755 0.156248
-0.373339 0.205596 -0.498785
0.914181 0.0270928 -0.641208
-0.456438 0.25613 -0.213058
0.0491384 -0.216644 -0.939055
-0.815971 -0.354681 -0.450466
0.530608 -0.290388 0.16991
-0.899369 -0.209523 0.563753
-0.15109 0.321659 -0.988733
0.190334 0.284972 -0.0652696
0.540617 -0.261286 -0.986226
0.303309 -0.541942 -0.000254618
-0.420791 -0.485103 -0.746713
0.115126 0.274409 0.0047692
0.129115 -0.0370647 0.247477
0.133183 0.469496 -0.463585
-0.625592 0.435811 0.562584
-0.807806 -0.461481 -0.0888375
-0.371854 0.125973 -0.719909
-0.203429 -0.211156 0.219823
-0.0217477 0.471378 -0.251952
-0.665192 -0.353238 -0.584423
0.578668 -0.0608304 -0.989487
0.539254 -0.615573 -0.297708
-0.825335 0.0227779 0.178189
-0.620117 0.675585 0.657183
-0.615968 0.168996 -0.474836
-0.429494 0.173001 -0.977897
0.0444013 -0.131037 0.242253
0.790108 -0.0156323 -0.23655
0.104831 0.267293 0.734963
-0.547569 -0.0310418 -0.984216
-0.039112 0.152442 0.973799
0.274275 -0.0831165 -0.991403
-0.751008 -0.497352 0.55354
0.029102 -0.197745 0.240181
-0.372086 -0.205935 -0.965421
-0.604465 0.240636 0.508168
-0.702098 -0.549832 -0.36856
-0.260999 0.387604 -0.961228
0.168096 0.47664 -0.331494
0.778768 0.0477591 -0.440553
-0.564566 0.0597628 -0.84208
-0.467422 -0.291399 -0.691568
-0.522508 0.0268894 0.40563
-0.337822 0.0914749 0.627234
0.714448 -0.421159 -0.641005
0.212949 0.457493 -0.477359
0.483984 -0.661181 -0.468928
0.213602 0.3014 -0.138861
-0.79906 0.338993 0.720661
-0.0100772 -0.457331 0.118373
0.181399 0.194689 0.0950119
0.711514 -0.179004 -0.0171794
-0.554835 -0.515693 -0.518822
0.0656969 -0.247312 0.244065
-0.222869 -0.0679744 -0.954079
-0.508893 -0.523458 0.27843
-0.0618578 -0.592509 -0.774306
-0.673607 -0.181581 -0.897444
-0.580397 0.100892 0.537422
-0.929449 -0.222848 -0.0727781
0.850114 -0.314848 -0.567509
-0.103735 0.367629 -0.893076
-0.148018 -0.531504 -0.513151
-0.455124 0.224406 -0.0387219
-0.96877 -0.339364 0.0990346
0.906598 0.00762067 -0.580034
0.790529 -0.393632 -0.707898
0.147734 -0.23829 0.258439
-0.00994746 0.250053 -0.984108
-0.728172 -0.528885 -0.0157994
0.12457 0.290249 -0.0639008
0.202638 -0.346371 -0.93523
-0.725353 0.451465 0.677449
0.290962 -0.473566 0.123332
-0.764773 0.141492 0.680206
-0.296074 -0.562993 -0.970711
0.982231 -0.103485 -0.707003
0.739259 -0.390332 -0.839683
0.251582 0.406308 -0.665709
-0.428602 -0.597164 -0.388972
0.0809333 -0.372539 -0.935682
0.0131644 -0.752256 -0.399968
-0.608611 -0.683599 0.195247
0.150353 -0.729625 -0.634774
0.0491684 -0.7418 -0.458583
-0.558896 -0.116596 -0.793502
0.102449 -0.721672 -0.574937
0.226671 -0.287435 -0.956868
-0.501894 0.0636316 0.197327
0.0589769 0.468329 -0.254841
0.479422 0.229348 -0.858093
0.797599 -0.280682 -0.888333
0.210099 0.383361 -0.814518
-0.665362 0.493839 0.546881
0.611215 -0.454592 -0.0388995
0.447836 -0.399888 -0.991645
-0.607398 0.0276366 -0.597832
0.334294 -0.337937 -0.988695
0.597658 -0.207311 -0.98462
-0.238127 0.127756 -0.758144
-0.920753 -0.481781 0.386298
-0.113209 0.3123 -0.172768
-0.399602 0.104228 -0.984396
0.16384 0.448684 -0.530959
-0.865268 -0.404419 -0.343761
0.739388 -0.108618 -0.0616543
0.530879 -0.570198 -0.149256
-0.270446 -0.177947 0.23902
-0.700335 0.617937 0.795151
-0.492697 -0.581897 -0.433044
0.235386 -0.589373 -0.983505
0.314943 0.0947923 -0.988008
-0.343418 0.141652 -0.979822
0.0541012 0.460925 -0.609265
0.152552 -0.108503 -0.940453
-0.461754 0.00659534 0.607575
-0.381404 0.141134 -0.645717
-0.585981 -0.494637 -0.975408
0.525218 -0.585608 -0.657385
0.342117 -0.72477 -0.464888
0.28705 -0.299692 -0.987397
0.786628 0.0375225 -0.292792
-0.682169 0.42125 0.522298
-0.958643 -0.133565 0.137079
-0.772836 -0.116651 -0.545844
0.768443 0.0807776 -0.347724
-0.208953 -0.294216 -0.982633
0.217659 -0.732006 -0.263629
-0.427688 0.100514 -0.760203
0.959767 -0.183919 -0.530606
-0.59162 0.0714485 0.290218
-0.728677 0.388791 0.641966
-0.0370908 0.270385 0.888605
-0.765744 0.259542 0.74439
-0.302995 0.123623 -0.756509
-0.781025 -0.0405864 0.567894
0.234552 -0.022524 -0.988449
0.75845 -0.379482 -0.32881
-0.140099 0.292632 -0.100758
-0.340401 0.0554164 0.556227
-0.638995 0.14855 -0.0134758
0.530779 0.311532 -0.655737
0.367807 -0.170889 0.258162
-0.192652 -0.217862 -0.982075
-0.107574 -0.545436 -0.758774
-0.416704 -0.250151 0.411153
