1.47243 5.71217 0.450314
-3.18088 5.89773 -1.06156
-2.76376 5.37112 -1.36425
0.712646 5.56654 -5.29861
0.661956 7.04353 -4.60528
2.38522 5.03448 -0.92793
-1.2739 6.84807 -2.95311
-2.21411 6.98247 -3.12606
-2.83978 6.29121 -0.913304
-2.56804 4.94405 -2.56938
0.49405 6.68391 -5.22339
-0.0422654 6.16563 -3.42273
-2.89048 5.38338 -2.15128
0.686197 5.00929 -0.230533
-0.550258 6.52537 -5.30184
-2.18942 6.56436 -0.282223
0.700209 6.45295 -2.87834
3.12529 6.42025 -1.78498
-2.98788 6.56394 -2.88039
-1.88424 4.87564 -4.31258
1.48755 5.25225 -1.90831
-2.25984 5.25413 -0.593635
1.16165 6.36478 -2.29127
-0.105445 5.54735 -5.33499
0.0515304 5.94716 -1.03694
1.32589 5.2903 -5.15408
-2.83723 6.69129 -2.48132
0.49744 7.02787 -0.654243
-2.92597 5.45975 -1.74275
-1.23665 7.12626 -0.271997
0.856391 5.96049 -2.93746
0.669873 5.76027 0.780534
1.38382 6.42921 -4.91837
2.09514 5.7392 0.00600372
0.30486 6.98281 -5.17732
1.59525 5.10156 -1.53889
1.76677 7.19092 -4.20362
-1.12127 5.14266 -3.34668
-1.54631 6.0328 -4.941
1.35117 4.76427 -3.33328
-0.667227 5.28984 -3.08934
-1.28676 6.53059 -2.62389
-1.43323 6.56067 0.362649
-3.38536 6.13404 -2.17944
-2.74962 6.11314 -0.557727
-1.78501 4.69331 -1.38768
0.250815 6.46104 0.840017
2.40268 6.54325 0.0253178
-2.49205 5.04719 -3.41126
-1.142 6.83913 0.429531
-0.802176 6.87078 -5.20745
0.0981353 6.42882 -1.05169
1.07718 6.52171 -2.7478
-1.43979 6.668 -2.30879
0.550707 5.04944 0.7153
-0.158805 5.01422 -3.89892
2.19294 4.69749 -2.1185
1.63124 6.99036 -0.609404
0.872291 5.9943 -2.27881
-1.87855 5.07621 -0.574626
2.46674 5.17886 -3.27552
1.49577 7.06736 -3.76225
-0.0925545 5.7849 -3.42094
-0.403995 6.44741 -3.38878
-2.18186 6.17115 -4.53454
1.33107 5.0554 -4.26229
-1.064 5.45373 -1.39672
-1.24647 7.01481 -3.94146
-2.22682 6.87309 -3.58426
-2.19158 5.07408 -0.962542
-0.158051 6.99408 -4.03644
-2.54471 6.68058 -0.963693
2.36274 5.5154 -4.56934
0.982274 5.05296 -4.45847
1.82711 7.27972 -1.66449
1.36313 6.9533 -0.258503
-0.111349 6.12124 0.855541
2.31708 6.89504 -1.15138
1.51936 5.25298 -2.32286
-1.47276 5.05296 -1.50433
2.67992 6.4715 -0.263892
-1.52588 5.06115 -3.27456
0.728586 5.11652 -0.863753
-1.34968 5.24098 0.399434
-2.05103 4.68259 -1.72432
2.23942 5.14495 -3.60432
0.267452 5.02009 0.357937
1.25658 7.08403 -0.729113
-1.49156 4.71743 -1.13989
-0.816194 5.47741 -2.78967
0.97061 6.6507 -5.0655
0.64799 6.98621 -4.1826
2.61378 5.34943 -1.01739
2.63391 5.58628 -4.30045
-0.495551 6.55737 -1.3608
1.81116 5.81333 -4.87068
-0.753154 5.12416 -3.45692
-2.53774 5.29672 -0.984209
1.0146 6.82837 0.725279
2.95694 6.53567 -1.42218
-1.95108 7.30203 -2.37433
-0.189207 5.17517 0.872299
-1.1647 5.26302 -2.97453
-0.324208 5.77617 -1.05682
-1.64772 5.86207 0.512284
-0.549389 5.24029 0.877834
-2.80678 5.73733 -0.372062
1.00351 6.70394 -3.14791
-0.182487 6.086 -5.32905
2.01679 7.29616 -1.98636
2.63711 6.73769 -3.189
3.1291 6.3996 -2.20588
-1.08117 6.13312 -2.49634
2.8606 5.4677 -3.32316
1.3502 7.09977 -4.13267
-3.14453 6.44537 -2.4716
-0.364133 5.13681 -3.36446
1.76923 7.12138 -3.44178
-0.254961 6.26654 -1.131
-0.943635 5.14116 0.346043
-0.624379 6.87782 -0.707359
-0.843583 5.88972 -1.50071
1.16627 5.30702 -1.5231
-2.44461 6.59729 -4.38285
2.10007 4.69674 -2.49065
-2.7368 6.51862 -4.06199
-2.46864 6.16719 -0.268331
-1.33995 5.13258 0.035825
0.568658 6.90844 -3.79176
2.01783 5.14086 -3.91108
0.257552 6.98299 -4.24348
1.68496 5.08196 -4.08064
3.17861 6.27793 -1.07666
0.190632 4.99044 -4.07397
-1.39086 7.11394 -3.47919
-3.04291 6.49545 -2.05858
1.9425 7.22761 -3.89492
-0.155225 5.06171 0.427143
-1.32753 4.94227 -4.28414
2.21745 6.93077 -3.84719
2.37137 6.23572 -4.22323
1.73998 4.86488 -0.099239
-0.221316 6.97276 -3.4917
2.91133 6.39168 -0.569882
1.83655 4.97453 -1.97217
1.6585 7.10223 -0.979343
2.82247 6.68512 -1.88346
2.91017 5.44484 -1.82322
1.3945 6.78178 -2.93877
0.56372 5.15998 -5.29661
0.683306 7.02308 -5.06352
0.509671 5.33076 -3.43833
-1.76202 7.27442 -2.71441
2.45147 7.04538 -2.96076
2.84613 5.63778 -4.02098
0.902554 5.11845 -4.90925
-2.05962 7.31372 -1.98643
-3.07555 6.37844 -1.66187
-1.84941 7.03463 -3.44073
1.45934 5.65852 -5.08252
-2.58784 5.01074 -2.16629
0.602439 6.12299 -3.17558
-0.884665 5.68675 -2.48155
0.959109 5.21049 -1.17626
1.66914 6.82995 0.0708697
1.43802 6.03832 -4.99767
1.82341 4.90569 -1.15925
-0.200359 6.76417 -1.1274
0.975915 5.02266 -0.489331
-2.50843 6.93167 -2.5306
2.43177 7.03037 -2.00897
1.57587 5.03663 -2.74932
-1.39723 5.01461 -0.34935
0.64287 5.37903 -1.43811
-0.186234 6.60834 0.80001
-1.17462 6.3426 -2.14447
1.32819 5.16437 -4.74118
-0.540857 4.98558 -4.74474
1.08409 6.44805 -1.51594
2.90125 6.49038 -2.96471
-1.61473 6.86938 -4.55687
2.35987 5.67236 -0.307107
0.155608 6.94645 -3.77816
-1.96797 6.89415 -3.89978
0.679114 6.52933 0.809801
2.70855 5.98554 -4.01769
-1.89522 6.91731 -0.222859
-1.84518 4.88078 -0.984795
-1.72655 6.25727 0.30742
0.592722 6.90041 0.776401
0.690801 6.80213 -3.44286
-0.136221 6.53273 -5.323
-3.16501 5.72353 -1.87438
1.2016 5.58423 -2.28867
2.19325 5.05969 -0.5212
2.40347 5.36541 -0.595201
0.299 7.01727 -4.7255
1.02056 7.06997 -4.39323
1.0937 5.87216 0.656598
2.07259 6.74082 -0.0742127
0.769968 6.27559 -1.26825
-2.13925 4.87514 -1.3453
-2.89607 5.56961 -1.02562
2.93973 6.55457 -2.53233
1.70289 5.21202 -4.54608
-1.53416 6.94682 -2.63387
-1.61312 7.00333 -3.77092
0.164058 5.11281 0.822026
-2.63495 6.67951 -3.6851
3.0271 5.5481 -2.94112
-2.74518 6.14091 -3.92734
1.8102 5.39288 0.1179
0.315474 5.01122 -0.0994734
1.51183 5.2667 0.311712
1.94995 4.8787 -1.57986
2.92841 6.08462 -3.60363
1.04618 6.18516 -5.12664
-2.48875 6.49002 -0.602725
2.83127 5.68071 -1.03693
-0.0709931 5.06421 -3.48346
1.41051 5.09222 -1.16198
0.306767 5.99131 0.849285
3.21022 5.80517 -3.34405
1.6968 6.70172 0.497459
-1.2435 7.17594 0.176966
0.920867 5.20995 -3.31276
-2.98478 6.43544 -3.69195
-1.70919 7.0083 -2.21426
1.63832 6.88274 -2.61119
-0.849475 7.00356 -4.16539
-0.526755 5.03349 0.0550361
0.611189 4.99966 -4.27874
0.372192 5.64849 -1.14009
1.04956 5.53488 -3.01675
2.93135 6.04117 -0.808891
0.909454 7.13153 -1.01756
2.06285 5.27596 -0.191399
-1.00225 5.05332 -3.76499
1.7188 5.36513 -4.99451
-0.513101 7.02832 -3.86573
0.336343 5.83468 -3.39279
2.57473 6.83754 -1.58365
-2.76484 6.59279 -1.31791
-2.18241 7.10506 -2.71798
0.30595 5.53577 -5.34095
-0.0465556 6.58334 -3.42042
2.11718 6.1911 0.168119
1.80926 4.93733 -2.39019
-1.94131 4.90321 -3.1411
2.28552 4.71511 -1.68176
-1.40916 6.42142 -5.05899
0.594873 5.05281 -4.69056
-1.50416 4.88425 -0.723718
0.206193 5.01588 -4.51727
1.76137 6.26353 -4.7411
-3.36881 6.17237 -2.52916
2.94633 6.47822 -0.920317
0.271272 4.98077 -3.55542
2.06269 5.4403 -4.79767
-1.56196 6.90162 0.115056
0.436261 5.21383 -1.19692
1.78763 7.0439 -2.22958
2.29532 4.94154 -2.88417
0.720555 5.66016 -3.26001
-0.132559 7.01361 0.714818
-0.00457317 6.92618 -5.25815
-2.09737 6.2756 0.0179516
-0.492181 6.96982 -4.83833
-1.33471 6.17449 0.553579
1.15958 5.48536 -1.90813
-2.35164 6.74904 -4.0089
0.727136 6.15133 0.787606
0.972304 5.23548 -5.24931
-1.38609 5.00831 -3.72532
-0.705571 5.62001 -1.1789
-2.51276 6.79964 -3.30824
0.130883 6.97065 -0.495463
0.45996 6.58218 -1.06048
0.172198 5.07248 -1.00122
3.16281 5.66098 -2.54002
-1.35842 6.90007 -1.14319
2.47452 4.90725 -2.04885
-0.682986 6.74497 0.659545
1.08398 6.20161 -1.92209
2.30842 6.72326 -0.417448
-1.90656 5.34545 -4.52259
0.69245 4.97934 0.210996
-0.623896 6.15228 -5.28126
0.781909 5.56362 -1.70338
-2.24541 4.77849 -3.58463
1.38086 4.91716 -3.78812
-2.14993 5.22496 -4.19986
-3.0036 5.56116 -2.51798
2.20128 7.29505 -2.77409
1.08778 4.94429 -0.0459517
-2.44946 6.96663 -1.37891
-0.559235 5.11627 0.497378
-1.20453 6.95598 -4.36554
0.0337385 5.62814 0.8838
2.40251 6.09676 -0.114756
-2.31442 4.69535 -2.42799
1.18909 5.39525 0.540588
1.78799 6.29246 0.411298
-3.19536 5.78755 -2.27144
-1.00929 4.98366 -5.02155
0.115335 5.10499 -5.3061
-3.02135 5.81702 -0.714402
-2.94852 6.04741 -3.54276
-1.72572 5.16019 -0.202675
-2.84546 5.68008 -3.35827
-2.17984 6.89178 -0.58868
-2.78079 5.25022 -2.58303
-1.12539 6.117 -5.14275
-1.0497 7.1341 -3.30428
1.63016 4.72972 -3.11361
0.912241 6.01619 -1.6092
-0.98311 6.65155 -1.34045
-2.66971 5.18177 -1.77615
-0.942643 7.06764 -3.71751
1.91668 7.12853 -2.63611
-2.85973 6.61289 -3.28132
2.66037 5.23347 -2.92461
-1.90346 5.87082 -4.6747
-0.222042 6.90056 -0.700275
1.61826 6.98645 -1.84517
3.17476 6.25899 -2.68761
-2.5906 5.4155 -3.61921
-0.38662 6.90018 -5.26421
1.09014 6.88662 -3.56087
2.11146 4.76606 -0.813262
0.62548 5.96245 -5.27294
-1.62893 5.622 -4.81841
-0.504053 6.99335 -4.37001
2.66058 6.70352 -1.18003
-0.305113 4.95892 -0.393846
0.402195 5.45911 0.831124
0.896071 4.99607 0.568013
-1.1641 4.75499 -0.958192
-1.00485 6.46924 0.607222
-1.64504 4.9072 -4.00478
3.41014 6.04195 -2.24937
-3.07946 5.66615 -1.41678
-3.17568 6.34613 -3.29876
2.73539 6.78251 -2.25974
0.859507 5.78087 -1.99961
2.47849 4.98365 -2.49792
-0.827931 4.80637 -0.858195
-0.19152 5.00581 -4.37011
2.29088 6.58727 -4.05722
-1.83509 6.58846 0.0566699
-1.60679 5.24493 -4.75475
2.61341 6.3289 -3.83574
1.37885 6.76284 0.626876
1.41608 4.91978 -0.373353
-0.452303 6.01894 -3.33385
-2.00473 6.8122 -4.31717
-2.42459 5.44867 -0.294939
-0.662194 5.01639 -5.15934
-1.7551 7.03489 -1.78833
-0.867809 7.12496 0.428814
3.08258 6.17536 -3.16355
-0.686226 4.92953 -0.407689
1.01925 7.07133 -4.89258
0.84264 6.93333 0.384399
0.559355 7.03818 -0.967601
-2.32277 7.114 -2.23664
-0.468961 5.75882 -5.2953
0.977249 4.93697 -3.9613
-2.4414 5.88782 -4.16917
-1.28346 5.33564 -4.98256
0.675319 5.8292 -1.34713
1.89118 4.70561 -2.82138
2.14016 7.30159 -2.34446
-1.02851 6.86015 -0.917205
0.965841 6.9675 -0.0869376
-1.39409 7.0734 -0.6698
-0.191635 6.98261 -0.197453
2.05226 6.6268 0.296573
-1.99923 5.92061 0.285668
-1.05312 5.72227 -1.77921
1.96881 7.09354 -1.24893
0.308702 6.33399 -3.32744
-0.964698 6.98656 -0.507015
2.63753 5.69352 -0.672474
0.833171 5.40996 0.701585
-1.56265 6.76734 -4.97862
0.163452 6.91992 -0.993599
-0.959991 4.96245 -4.57505
-1.24755 5.38298 -2.58532
-1.24259 6.90593 -4.7615
0.685293 4.88428 -3.55181
1.07014 5.7422 -5.19748
-2.10746 7.31462 -1.57861
1.42068 6.91792 -3.31834
-2.67922 5.7777 -3.77513
1.98189 6.84326 -4.25465
0.512799 6.64189 -3.13229
1.49727 4.89168 0.135368
-1.83965 6.31939 -4.81787
1.55312 7.15049 -4.47128
3.39228 5.96463 -2.59109
-1.17147 6.82286 -5.12612
1.92879 4.81004 -0.409635
1.37247 6.86976 -1.56
1.36266 6.62691 -2.5234
1.50099 6.7308 -2.17637
-0.357059 5.61619 0.893098
-0.383075 5.53519 -3.32116
-0.0836875 5.01484 -0.00973223
-0.65343 6.71455 -3.34262
-0.561582 6.97804 -0.316985
-1.07135 6.35342 -2.89625
2.22299 7.08007 -1.60794
-1.77545 4.90237 -1.77047
2.64271 5.39478 -3.68154
-3.36796 6.06759 -1.84652
-0.809671 5.20131 -1.05611
-1.98248 4.90507 -2.68763
1.65159 4.91224 -0.757902
-1.23256 5.35707 0.753782
3.04402 5.71985 -3.70627
-1.14808 5.59851 -2.1588
1.44287 6.19454 0.562187
-3.16564 5.86725 -2.73809
-3.04604 6.25505 -1.26514
2.81867 5.31821 -2.57715
2.24342 4.73623 -1.24306
-0.514138 5.37689 -5.27131
1.85476 6.86836 -0.35466
-1.72813 7.07104 -1.38079
-0.632235 6.74613 -1.0608
-2.66968 5.49284 -0.656552
-1.61195 5.14327 -1.97635
-1.45189 6.70706 -1.92827
0.0778539 4.99691 -0.493923
-1.41054 5.35298 -2.20696
-2.07849 5.32397 -0.132377
2.63181 5.10551 -1.71787
-1.88318 6.71769 -4.80701
-2.32043 5.94587 0.0301488
-1.40029 6.7798 -1.53739
-0.110404 7.02994 0.294776
-3.30951 5.97898 -1.48009
0.320075 5.05362 -4.96743
-2.67597 6.82705 -2.11463
2.09718 7.25168 -3.55919
1.19841 4.94469 0.382713
2.525 5.04318 -1.3511
0.0928638 5.43192 -3.45094
2.98193 5.4786 -2.23486
-1.81999 4.90472 -3.58154
-0.956383 6.4619 -5.22073
-1.60709 6.92736 -4.16827
0.425004 6.11512 -1.10794
-1.97904 5.5116 0.411768
-1.64438 4.90634 -4.57068
1.2854 5.11771 -3.07258
2.72071 5.1895 -2.1614
2.06587 5.2802 -4.33919
-1.10326 6.48247 -1.73596
1.31817 6.56421 -1.8696
2.7872 6.41994 -3.41162
1.10968 6.38196 0.710046
-2.40338 5.51613 -4.01544
-0.694455 5.75897 -3.1215
2.04832 6.41388 -4.44214
2.07231 6.90534 -0.783053
3.38463 6.11582 -1.85456
1.31006 5.40538 -2.69506
0.918027 7.04176 -0.525633
-0.688603 6.35927 -1.607
0.216153 6.94974 0.775719
0.198747 5.94271 -5.32803
1.57167 7.24828 -1.39002
2.5002 6.66914 -3.63915
-0.8809 5.92459 -2.1587
-2.38801 4.90801 -1.75478
-2.33695 4.74351 -3.19361
1.76152 4.92781 -3.57002
2.82058 5.4489 -1.41252
0.33112 6.99042 0.409526
3.12626 5.78402 -1.62923
3.30499 6.19872 -1.45114
2.42834 5.90053 -4.3776
-1.321 5.38117 -1.75086
-0.824819 5.65927 0.837432
-3.0838 5.94191 -3.133
2.39978 5.34958 -4.04371
-0.0877192 6.99297 -4.88721
2.04599 4.91768 -3.23974
-1.57683 7.22467 -0.156141
0.00858016 5.46331 -1.00818
0.224176 6.82748 -3.36749
-2.60421 6.81472 -2.90279
1.05139 5.78891 -2.62455
-1.34394 4.94572 -4.82041
1.21792 5.05197 -0.803122
-1.84652 7.15213 -3.07072
-1.80535 7.25969 -0.487763
-0.958072 5.02941 -0.0958376
2.1104 5.9584 -4.61634
-0.816051 6.14172 -1.88018
-0.878904 7.08797 -0.0398569
2.16512 7.28062 -3.17204
-0.547453 5.04464 -3.82564
-0.274053 5.05614 -5.25742
-2.08801 4.82165 -3.9655
-0.546358 6.36486 0.769893
-1.65675 5.13981 -2.45695
2.66501 6.04218 -0.4341
-0.403424 5.32172 -0.975397
-0.486131 4.87637 -0.836714
0.583014 6.97543 0.0999509
1.35342 6.78457 -4.82941
3.06477 5.89069 -1.24806
0.453001 5.04718 -0.599064
1.7121 6.71374 -4.59287
-1.59212 5.12205 -2.86281
1.78046 7.05302 -3.02474
1.26769 6.88689 0.230366
-2.28779 7.01099 -0.979526
-2.22675 4.68584 -2.07498
-1.74696 5.2961 0.184521
-2.61353 5.06268 -2.96196
-0.484091 7.06535 0.613179
-2.58913 5.68691 -0.0976852
-1.92686 4.90976 -2.21787
1.79724 5.86767 0.288518
1.10787 6.83325 -1.30135
3.32903 5.89073 -2.95934
-1.96959 7.28062 -0.815134
-0.859358 6.95481 -4.68756
0.673886 6.34771 -5.21699
1.03095 4.81381 -3.47967
-2.49328 6.24129 -4.27202
-2.17299 6.64844 -4.61779
-1.17993 5.07661 -1.21782
-1.07806 4.8944 -0.535962
0.823251 6.22337 -2.57921
-0.924385 6.07327 0.732164
2.46005 7.06494 -2.47101
0.178926 6.99119 -0.0248507
-1.25477 5.72771 -5.04856
0.537977 4.94074 -3.89822
-1.62427 5.44197 0.608463
-2.45836 5.10741 -1.36426
-2.35123 5.12731 -3.82522
3.19796 5.75271 -2.05042
-0.578453 5.00434 -4.27794
-2.70351 5.32768 -3.22229
-0.512444 5.96975 0.837267
2.54573 6.68216 -0.74542
-0.570258 6.07384 -1.28029
0.809967 6.69022 -1.16078
-0.115278 5.01199 -4.84622
1.26668 7.2012 -1.16751
0.539228 6.99799 -0.281108
-0.500638 7.05853 0.147685
-3.29841 6.26878 -2.9147
-0.960796 5.00247 -4.1259
-1.67066 7.12948 -0.969395
-2.15743 5.67787 -4.38946
1.31251 7.11781 -4.68313
-0.149327 4.96512 -0.88518
1.005 6.97654 -3.93482
-0.990035 6.69046 -3.15236
-0.104885 6.99313 -4.48135
-2.4213 7.05572 -1.80174
-2.35984 4.71707 -2.83512
2.68585 6.80504 -2.73187
-0.642689 7.05375 -3.44436
-0.918813 5.94117 -2.85465
-0.861462 5.80907 -5.2066
-0.776369 6.26169 -3.18618
-1.25839 5.76261 0.703749
2.37878 6.99223 -3.40811
-1.4487 7.2201 -3.06005
-0.911879 5.40506 -5.15857
0.233868 6.37056 -5.30169
-2.2893 5.57547 0.178443
-2.06951 7.30486 -1.20469
-2.90411 5.53026 -2.93197
-2.74805 6.72257 -1.71567
-0.888481 5.27556 0.82013
