4.63801 5.46706 -5.31573
4.07953 6.56205 -19
-4.66423 2.01027 -5.68302
-4.6977 -9.99963 4.21709
1.13798 9.93333 -5.96509
5.57075 5.90075 -13.608
11.7995 5.67802 -5.72892
-2.34064 5.65506 17.2082
6.55101 -9.99947 9.9038
-8.19954 -1.15427 8.04744
-6.37539 6.12878 -9.9994
-5.54985 8.26089 9.99945
2.61485 5.02818 5.94093
-4.197 7.98518 0.180047
7.74497 3.69426 -11.8569
11.7994 1.95055 -7.83045
-8.11579 -9.99942 -5.37361
-2.59085 6.3909 -4.10557
-5.05889 -1.40722 17.1632
2.53603 -4.89566 19
11.7995 -6.44254 -4.3836
-6.38528 0.952054 -5.9316
5.8015 6.35506 -4.46802
1.66088 -9.85918 -9.99952
6.31191 9.9477 -3.97196
-8.19931 -6.58712 9.92907
4.86685 -9.93411 -5.15572
11.7996 6.07398 -0.560596
-8.19943 -3.47642 5.01266
1.82057 -6.84418 -6.01377
-0.391777 6.66679 -17.1616
-8.1995 7.85959 1.969
7.59811 4.13483 -10.0004
8.34931 -9.99934 -9.92821
7.14249 2.63274 5.39003
11.7995 6.37645 4.9004
1.65126 1.12251 19
-4.62455 -8.27739 9.9995
9.96122 6.08504 9.99944
7.24188 4.40019 18.9285
-2.36018 9.99926 4.50207
-4.02776 -8.00402 1.45159
4.341 -6.53255 15.4712
8.42289 2.29119 15.4058
4.89736 -3.18713 5.14987
11.7995 -0.0226774 6.10527
5.67636 5.75349 -18.9998
3.84583 -6.77064 -10
3.15158 -6.20711 5.85323
-8.1995 3.25236 -9.88893
7.66529 -3.82229 -17.0251
-8.19954 -7.88739 -2.2963
9.71784 -9.99958 -1.21491
2.14825 6.93982 18.9991
7.79853 3.47912 -18.9999
-1.28456 8.2547 5.14964
6.47183 -5.21038 -17.1111
-6.41432 -7.6608 9.99937
0.612349 2.92192 19.0001
-8.19918 9.91482 -6.33962
11.7994 7.74539 -6.0007
2.6799 0.708042 -5.9851
1.27119 -7.90843 5.97363
-8.19956 -0.985256 -6.03738
11.6815 -9.87516 -9.99876
-3.60623 -8.00053 -9.9995
3.97151 -6.65214 -15.3605
11.7995 -1.29877 9.91128
-3.16041 8.0153 -3.36983
-8.19951 5.93087 -7.81566
-0.390281 -6.6676 -14.8017
9.83187 -2.15223 -5.61064
7.69078 5.79537 -1.62119
7.63436 5.73646 1.76294
11.7995 -7.83853 3.76529
11.5975 9.99957 9.89241
-4.2284 -9.99963 -0.950228
2.8048 6.92509 -11.8743
7.26651 -4.36961 13.5536
-6.48032 9.99953 -4.43241
4.52959 9.90964 -9.99943
-8.19954 -8.1002 5.66267
6.8936 5.01591 -3.30914
-4.28972 3.47856 11.9094
-4.95766 -1.63964 18.9992
4.9791 6.23343 17.1328
-4.25211 -9.99945 0.717882
-8.19954 -9.93531 2.57562
-6.46028 4.33885 4.14692
-8.19951 -2.62427 -7.91755
11.7995 6.91312 2.94805
-8.19996 6.00593 1.07624
-8.19956 -8.49526 3.70543
-3.54514 2.54855 5.43443
-2.33955 -5.65649 -15.5051
11.7994 -6.04516 -0.786948
0.597935 -9.99947 9.91981
-1.12994 -6.36209 -18.9142
8.58198 -1.40853 -18.9998
3.99397 -2.48314 -19.0001
-4.77159 -2.42232 15.4199
-2.17595 3.80111 4.64319
0.0807151 -9.99956 -7.87712
4.00161 6.59737 18.9999
4.10551 6.617 11.881
9.94682 -3.83283 -4.62912
-8.19949 -5.71293 8.30964
11.7998 0.857372 -9.93398
-4.65077 2.72781 17.0829
-4.42173 -3.21207 18.9284
-6.53774 6.66053 9.99946
-4.18372 3.64182 18.9228
-6.0931 -9.99963 -2.18515
11.7024 -4.58911 -3.89248
9.56534 -5.61544 2.16841
-6.01893 4.30627 -9.99956
11.7995 0.00962558 -7.93249
-5.0064 1.69351 11.9385
-1.96858 9.92032 -4.66494
-3.38383 -4.69305 18.9266
4.2286 7.88741 -5.48587
-0.543865 9.99901 -5.64698
10.0193 9.99954 -4.70742
-4.39915 6.17462 -9.99954
-1.68021 7.96927 -4.89009
-4.82915 0.953257 5.93251
10.1229 -2.42327 9.9996
0.812698 6.95071 -11.9091
6.294 8.278 4.01283
-3.8164 -9.99911 2.39278
0.550259 4.68336 5.89908
6.29355 -8.22237 4.00637
6.30491 -6.31276 3.98511
-8.09017 9.99968 -9.85378
1.80031 -7.0085 18.9343
1.7907 7.00754 -13.6432
8.27179 -9.99969 -4.42844
-4.18216 9.99948 -5.57763
11.7994 -8.02629 -7.95232
-6.33049 2.81649 -5.30609
6.9256 4.78453 -18.9232
8.4784 1.92928 -18.9995
-4.51539 4.2451 4.23792
-8.19948 -3.57245 -9.88937
11.7995 -2.7413 7.68774
8.79871 0.258698 15.435
-1.01142 5.89945 -5.29411
-4.95405 1.85341 15.3462
8.66366 -9.99955 -6.53826
-8.19949 7.89027 5.95402
-8.19953 8.07539 -0.0141801
-8.19952 8.06106 3.79396
11.7418 2.60172 -9.99944
0.0257651 -0.746429 -19.0001
4.87335 -6.83099 5.15319
8.24599 -2.72377 13.6923
1.74554 9.9995 8.00764
-8.19943 8.32884 7.98097
-5.06493 -1.38025 13.6488
4.82275 8.21744 5.18585
1.7212 -7.0062 -15.3933
9.81326 -5.70322 -1.92065
1.70506 -7.00139 11.9376
8.07104 -3.11004 -18.9258
-3.99969 -5.88458 1.60823
5.88939 -5.68235 -15.3457
11.7998 5.97391 1.15382
-4.28364 -3.4997 17.1163
-3.43556 -5.35054 2.97948
9.35673 9.99963 2.80208
-1.23768 -6.31402 13.649
9.96265 3.95155 -4.52986
-8.1997 5.5163 2.64471
-6.21732 9.9996 0.140163
3.93041 1.45568 5.82307
-2.69144 2.31008 -18.9998
11.7995 -0.741132 8.03728
-1.4535 -9.99943 9.91662
-0.489768 -8.24308 9.99956
-1.41948 -8.17739 -9.99951
-0.240573 9.99961 -7.8626
0.703095 -4.79867 19
11.7995 -1.79019 -8.16754
0.78335 -3.98128 5.93812
10.2881 -0.143959 9.99965
-1.91185 -5.94129 18.915
2.31319 6.92678 -18.9996
-8.12138 9.9993 -0.922443
2.55925 -1.20632 -5.96195
-0.808067 -4.92003 5.42566
-3.80078 -9.99939 -2.51463
-4.18681 3.64243 -15.3363
0.779025 -6.95161 13.7061
8.66985 4.83339 -3.56099
-2.89941 -5.20137 17.1178
9.89418 5.47413 -2.44403
1.72292 9.99965 -7.97166
-4.88173 1.86946 18.9999
8.54512 1.92045 -15.3457
-2.72376 -5.25138 -18.9997
-8.11867 -4.71948 9.99955
4.52537 -0.74586 -5.98489
0.968995 9.92178 -9.99945
8.91655 0.880556 -10.0001
6.72207 -9.99965 3.59404
11.7264 -9.99933 -8.38173
-8.19955 -8.12947 -0.284004
-5.94089 5.39107 2.64044
-0.495663 -6.62561 -16.7044
11.7998 -4.42612 4.19359
0.267678 6.76787 18.9995
-3.63581 4.42486 17.0622
8.36036 2.68125 -9.99986
-8.11797 1.41165 -9.9996
6.78787 -9.99966 -6.0155
9.77859 6.00006 -0.569468
-6.04291 -2.56693 5.41608
-5.92583 -5.30403 2.82896
-1.44331 0.612882 -18.9999
-8.19948 -5.25675 -8.16573
7.38475 -4.22854 -15.2717
1.25454 -5.83855 5.9721
-1.77194 -6.01824 -13.7061
11.7994 -8.19303 9.92852
-3.64243 -9.99963 6.05471
6.34455 -5.32871 16.6636
8.03801 -3.21446 -13.621
11.73 8.23797 9.99927
-2.08934 -5.98169 -10.0001
11.6491 -0.898156 -9.99948
11.7226 -1.62898 5.77361
-5.19171 -0.127303 -18.9263
5.45636 -5.98043 -4.76196
2.16401 1.41954 6.01043
8.3774 -9.99964 4.16841
4.82756 9.90832 -5.16814
11.7996 4.43054 4.2145
8.69504 -1.20719 -13.6434
-6.01892 -9.9996 1.92314
1.78519 4.95491 -6.01176
7.6436 -9.99947 8.04423
3.88016 6.61451 5.62522
-6.01606 5.89721 -1.1603
-1.57046 6.13714 18.9294
-0.383501 -9.99864 -5.72904
7.70395 9.99921 1.51347
2.03896 -9.99941 -8.03417
11.7455 0.737332 9.99949
-1.58945 -9.99972 5.05902
11.7996 9.9039 -6.43506
5.35735 -3.73921 -18.9999
-2.40692 5.60108 15.381
2.1971 -9.99994 6.08786
-6.71519 -0.824452 -9.99972
11.7995 7.99201 -0.100987
8.66464 -0.983002 18.9997
11.7996 6.43675 9.91861
-0.723592 -6.52763 -12.2688
-1.0404 9.92752 -9.99929
1.17747 9.9995 9.91396
-5.20331 -0.375861 11.8787
5.758 5.76707 18.928
9.82582 2.10947 -5.63117
7.77628 -8.03549 0.629714
11.7199 0.575122 -5.97042
11.7995 -7.79395 1.91979
3.5977 9.9996 -8.1962
11.7108 -8.22157 -9.99966
11.7995 8.17531 -9.92475
4.79202 -6.32756 13.5577
5.83674 9.99958 -8.31423
3.90401 -4.49558 -5.62477
11.7997 -9.91239 2.73512
-4.91796 5.05649 -3.23852
-8.19954 9.8663 -4.56982
-2.03811 6.56083 4.60642
-4.76176 -2.44061 11.8842
1.68248 -9.99962 8.02436
8.93393 -0.793532 -10.0001
3.50683 4.82103 18.9999
0.598803 -1.92436 -5.90403
-8.19957 5.64755 -5.72382
-2.89751 5.20224 -11.8637
10.0302 -9.90695 -9.99934
-5.6685 2.92987 5.25637
11.7998 2.19434 -5.69357
-8.19949 9.91341 4.84011
-8.1354 -0.194223 5.99905
-6.4085 4.23647 -4.24628
11.7994 -5.58079 -2.49688
-4.20292 3.62 -11.8457
7.90545 -9.99939 0.387096
-6.25919 -2.86303 -5.27969
0.0153618 8.38545 -9.99958
-8.12199 -9.99944 -1.34854
11.7995 -6.67673 -6.38705
1.57307 -5.00618 -19
-2.0228 -5.86863 -17.3193
2.5118 -0.413734 5.99344
-3.60758 4.45705 -17.1285
-0.533965 -6.70969 5.55445
1.75519 -1.13813 -19
-1.56375 -3.27624 5.04553
-6.66992 0.0947307 9.99962
5.54249 -3.84105 -4.68408
-3.08398 9.99949 -3.64018
-5.96866 -7.84181 -9.99943
-3.0027 9.91866 -9.99925
7.7511 9.99954 -7.86841
7.10674 -4.56024 -18.9236
7.15416 9.9994 9.93441
6.05911 7.97946 9.99945
11.7994 5.9204 -7.81555
-4.81714 -6.17601 9.99966
-5.24788 -0.522899 -9.99965
-3.24998 -6.69342 -3.23875
-5.19716 -0.315397 15.3881
9.89944 9.99945 -6.68049
-2.16835 -5.7783 11.8784
7.85852 -3.40432 -4.93523
5.10892 -6.17083 -13.6609
9.34324 9.99935 9.9322
5.8044 6.41239 4.46941
-8.19952 0.275406 9.8901
3.8038 -6.64497 18.9998
5.85866 -1.36423 5.83871
-3.85227 -4.13834 -11.9284
-8.19951 -6.61633 6.77676
6.12317 -5.52004 14.5785
-4.63662 2.76373 -17.1054
-8.19954 -6.58616 -4.24327
-3.24379 4.8546 13.6217
-4.51039 -3.02551 -17.1536
-2.99114 4.98821 18.9998
6.00981 4.12246 -4.38589
8.79563 -0.364785 17.182
9.61011 -9.99961 -3.16955
-6.3939 -5.46566 -2.46816
-0.947336 8.2683 9.99952
-1.49283 -1.51087 -19
3.95717 -9.99947 5.73959
-6.28986 -0.646346 5.98292
-6.26917 -5.17346 9.99948
10.0681 2.88914 -9.9996
8.06728 -2.9646 19
-8.19933 6.72358 -9.90703
-6.41379 -3.33071 -9.9997
-5.16796 0.835729 10.0778
6.56661 1.78213 -19
-4.99362 -2.04112 -9.99999
-1.14972 6.35661 -11.8326
5.96232 -7.88799 9.99939
7.01207 6.91368 -2.98312
2.89214 8.25519 5.89835
-5.17091 0.717486 17.1319
10.097 9.99948 8.12297
-4.79993 -9.99951 -9.92349
5.94392 4.21987 4.33864
11.6935 5.31039 2.80779
-4.6563 2.72706 -13.5835
6.16332 -5.48871 -11.8648
11.7997 -9.87019 9.88142
8.05765 6.24788 -9.99958
-8.19933 -8.41154 -9.91063
4.16733 -2.5186 -5.51458
-4.02344 -9.99949 -7.88286
2.42162 9.99977 6.08111
8.03842 3.21349 13.6558
7.04799 -4.63234 18.9144
6.02571 5.59115 11.8352
11.7996 9.92904 4.6481
9.83239 -0.0876892 -5.99715
-0.00371734 8.11321 -5.72562
-8.13403 -3.76715 -4.69633
6.74217 -4.84389 -3.58509
3.44288 -0.562617 -19.0001
-8.19946 1.56942 5.9127
-8.19946 -8.0083 7.94148
-5.1581 0.846373 -17.1155
6.48023 -2.1818 -19
-1.39293 6.24567 13.7596
7.26722 -7.66083 2.47923
-8.19952 1.81191 -7.97068
7.54794 -5.65726 -2.03004
0.785244 -6.92335 10.0859
4.70501 6.37382 -11.8219
6.09677 9.99952 8.2733
-2.36477 5.63019 -10.0636
-5.19556 -0.355426 -11.828
5.13804 3.87868 18.9998
7.45062 -9.91882 2.02935
9.5329 -7.76603 -9.99946
-8.19966 -6.08184 0.626115
8.57092 1.85149 -11.8324
11.7995 9.89469 8.13672
-8.19943 0.609751 -6.08468
10.0319 0.78564 5.97039
-4.11416 9.92574 1.04559
6.54778 2.34605 18.9999
-3.8348 9.99951 8.17218
8.16952 1.05481 -5.91062
6.60801 -5.08507 12.0695
7.51218 -9.99948 -8.10056
-4.07241 -4.04333 10.0001
6.38886 5.28534 -10.0633
-3.69849 4.33496 -10.069
-8.19963 -2.3894 -5.61459
8.43052 -2.28027 -17.2406
8.01281 8.21457 9.99952
-1.92093 3.90193 -4.71758
7.49398 9.94657 -1.88887
11.7995 -6.2499 4.9668
4.77895 -5.05675 5.24537
11.7995 -4.73547 8.27505
11.7994 8.33931 -4.02623
4.81615 -9.99946 9.8938
2.04397 -7.01792 15.4588
8.10433 4.07589 4.41924
8.20521 2.82813 -13.6171
-3.73256 -4.30537 11.8936
-2.89894 -5.30397 10.0001
3.11789 -6.88467 -13.7322
3.42639 4.19634 -5.80888
1.63192 4.85349 19
7.35608 -9.99953 -2.70139
4.0995 9.99923 5.63793
6.80495 -6.73204 -3.29491
6.21094 -9.93042 -4.10415
7.71718 8.02789 1.01241
-6.24067 -4.34253 -4.14443
-5.90346 9.99953 2.17339
6.78474 -4.92792 -13.5871
-4.70308 2.61776 10.0698
9.79451 -9.99933 -7.99836
-1.98173 -3.38078 -18.9999
-8.19952 -0.427906 -8.01502
-3.43063 -4.65042 -17.2057
-4.56373 6.32574 9.99949
5.21918 -0.832512 -19.0001
7.89786 9.9993 -0.184517
2.01856 -5.10638 -6.02526
-8.11771 9.9993 1.04079
-3.97375 7.90274 -1.70933
-2.21238 7.92999 -9.99945
-3.7664 5.44372 2.54648
-8.19952 0.898852 7.86754
-1.82453 -9.91877 -4.79715
-3.59061 4.4774 -13.5973
4.85658 3.1223 -5.1639
11.7996 -8.17627 -3.75025
6.53832 9.99968 -6.13503
1.88274 2.99581 -6.01934
8.23142 2.66601 18.9997
11.7995 7.87023 -2.07037
11.7172 -9.99923 -0.766589
-8.19949 5.90287 9.91596
9.01793 -4.88292 -3.49412
2.38916 -7.16581 -10.0001
11.7994 -4.87997 -6.12172
1.95477 7.01956 11.9252
-8.11892 -9.99946 0.710238
-8.19952 -6.82004 3.58408
-4.19673 -7.92739 -0.450085
4.48584 -6.47532 -11.9127
8.47293 -2.18022 17.3012
5.06637 6.19212 13.5609
9.88965 8.06792 9.9994
-2.64001 -8.20819 -4.03181
-2.10967 -5.81565 15.3657
-4.94369 1.89737 -18.928
11.7997 4.46362 9.93309
10.005 -4.73126 3.69376
11.7995 3.06338 5.27196
-8.19951 3.31923 6.82819
8.02137 3.3529 -4.97746
-3.6218 9.99914 2.78257
3.10151 6.88278 17.1181
-6.24501 -9.99964 -0.153089
-8.11574 -9.99957 6.52434
-2.14376 9.99955 -8.36453
7.67181 -7.77247 -1.25949
2.67805 -6.94183 -11.9334
9.73202 -5.27636 -9.99942
3.01748 9.99959 -5.9759
-8.128 -4.7316 -3.70652
-8.19955 6.40756 4.5923
-0.143689 -6.6639 18.9997
3.73735 6.72769 -13.6321
9.46649 2.5792 5.41683
8.3633 9.90388 -9.99965
-5.172 0.723447 -13.5541
0.385741 0.610977 5.99523
-3.87847 -4.09682 -15.4345
-4.61491 -1.88654 -5.71903
11.7994 7.81222 8.15352
-2.98661 2.8208 -5.29419
11.7184 -9.99913 -6.64201
8.41294 -2.31535 -15.3804
-4.32628 -3.40212 13.672
-2.75503 2.22468 18.9998
3.24241 -9.87319 -9.99946
-2.61335 -9.9995 8.26105
11.7995 -9.93525 8.21655
-3.26524 -1.30506 18.9998
3.7131 -2.05242 5.70415
8.09803 -6.32476 -9.9995
11.7997 -2.75033 -9.9208
-4.10633 8.03019 -9.99937
2.75196 9.84082 -9.9995
11.7995 -5.94534 -8.15762
0.723106 9.99964 6.03187
4.59415 6.42624 -15.4073
-4.18711 6.05477 -0.636837
-4.2729 9.9995 -0.619874
-0.506009 -8.48593 5.55873
11.7996 6.40945 -9.92354
11.7995 -8.01026 -0.0223077
0.636558 -8.2947 -5.91615
-8.19928 -9.91569 8.24792
11.7994 6.63706 -4.0017
-0.697793 1.23243 19
5.02097 2.9055 5.24454
3.53908 6.79305 -17.1802
-0.220422 -2.59887 19.0001
-8.19958 7.37092 -3.95701
11.7995 -2.93882 -6.84873
-6.12715 8.03226 -9.99932
5.30303 -6.07319 11.8077
6.34092 0.46482 19
-4.59337 9.99956 4.35592
-6.07688 9.99957 5.96195
6.63785 5.0599 17.1221
1.70601 3.30485 6.00606
0.663324 -0.657698 19.0001
-2.61322 -9.99965 -6.33267
6.54222 9.9197 -9.9994
11.7995 1.30157 8.02184
-2.89572 4.79747 3.76076
7.26064 -5.36189 2.73345
-2.69399 5.51158 10.0002
-3.25342 -4.84401 -13.7162
9.56926 -4.4076 9.99953
11.7991 -5.49222 2.70708
6.12289 5.6369 9.99992
-4.42192 -3.20938 -13.6665
2.92688 9.99951 9.91252
4.83387 -6.30626 17.2762
-2.06957 5.84029 -13.5837
10.1736 -9.99939 9.90176
6.79727 -1.39006 18.9999
-2.47908 -8.47565 9.99942
-8.19952 -4.11128 -6.64406
2.1875 -3.09529 -19.0001
3.99706 4.66086 -18.9998
-2.15646 5.78898 -17.1727
8.53874 -1.94856 15.4792
8.47697 -9.99941 9.91135
7.78441 -8.23467 9.9995
2.31554 -3.14301 -5.99425
11.7995 -8.32847 -5.74829
-5.16728 0.772804 13.6479
-3.35978 0.447051 -18.9998
5.42551 6.00198 -17.1782
1.584 7.00082 -17.1614
8.69222 1.22004 13.6761
-8.11101 9.99971 6.62478
11.7995 8.2959 4.00353
0.290486 2.21648 5.81181
11.7995 8.22319 6.06931
9.64991 -9.99945 7.68741
-8.07093 9.82705 9.9998
0.585562 -3.97434 -5.8991
-7.98277 -9.99959 9.89765
5.67563 -5.75811 -18.9994
2.54048 1.09077 -19
4.08624 -6.61455 -18.9235
11.6985 9.99917 2.68727
8.80453 -0.999067 10.0002
10.0833 2.20971 9.99959
-8.19962 2.20093 -5.70885
0.0553421 4.1806 -5.73885
-4.83154 -2.23694 -15.3736
5.89661 5.67715 15.3559
-8.19955 -5.89137 5.15295
-8.19946 -8.36365 9.92211
7.8919 -6.00065 -0.425017
7.05385 -7.9659 -9.99937
-2.90011 5.197 -15.3617
7.77025 -5.87624 1.21062
-3.31986 -7.61397 3.12211
-4.69381 2.80729 -10
-1.62583 -9.99962 6.76989
-8.12024 -4.73491 3.70366
6.08464 -5.66212 9.9998
-8.09167 -1.41525 9.9994
10.1151 9.99951 4.49712
11.7246 9.9992 0.746086
-1.91609 -6.26075 -4.70589
3.14929 6.89321 10.0872
8.47183 2.17968 11.8945
8.14292 9.9995 8.12446
4.80885 -1.06277 19.0001
5.89757 -8.0129 -4.383
-4.98017 1.77426 -15.3166
2.75428 -9.99948 9.90578
-5.89844 -9.99938 9.92853
-0.988434 -2.71481 -5.34289
3.09097 -6.89106 -17.0621
4.81089 -8.4773 5.19243
-3.21568 4.88591 11.7324
1.01307 -6.965 -13.5068
-8.19866 -9.8824 -7.64742
-8.11641 9.99963 -8.06283
-5.07682 -1.30479 -13.5881
2.66498 6.94244 -15.4099
8.77986 -0.784078 13.7011
2.89344 -6.9123 13.7614
-6.55702 5.33668 -2.73234
7.42109 4.18476 15.3643
9.77114 -9.99954 5.56882
9.8426 -5.99342 0.167663
8.10754 -1.29929 -5.85371
-5.1392 0.0644537 18.9997
-8.19902 8.38495 -9.92047
-8.19952 1.93408 9.93215
6.23913 -2.1424 -5.63621
8.71596 1.14651 -17.0746
-3.91177 9.99901 -2.15027
-8.09228 -9.99804 -9.7813
11.6953 9.99935 6.41508
-4.55232 2.9383 13.6713
-8.12368 9.9994 2.84015
-4.78127 -5.05619 -3.24179
0.443276 6.87746 -18.9338
-8.19947 4.53966 4.08016
1.065 6.97068 17.0988
11.7995 -7.78825 -1.97721
6.4326 5.24823 -11.8739
9.75442 5.15819 -9.99949
-8.19961 7.98761 -2.06342
-8.19946 4.9228 -9.89739
-8.19963 6.07694 -0.598669
-0.354589 9.99954 8.00307
7.68184 3.79777 -15.3704
3.41716 3.29294 5.80783
-1.3555 6.17317 -19
8.10369 9.99964 4.56705
-4.4549 -1.10574 5.90281
11.7996 9.92722 -4.69256
-6.26025 5.96726 0.746263
-0.247626 6.70792 -13.6189
0.365635 -9.99981 5.94342
-6.58572 1.44294 5.82132
11.7995 3.94911 -6.67162
-8.19955 -3.59237 8.42892
-3.18413 7.97579 9.99934
5.49471 9.99962 6.62456
7.07307 8.5862 -2.87577
-8.09077 9.99963 8.34461
0.749035 1.65544 -5.92974
2.58645 -1.00756 19.0001
-8.1995 6.59561 7.73089
11.7994 -8.10743 5.84141
10.0883 9.88854 -9.99967
-0.149613 -6.72798 15.3937
11.7997 -9.91546 1.00651
-6.5441 2.28101 -9.99962
11.7447 2.67761 9.99944
-8.09243 -1.78588 5.74851
-1.63992 3.98676 -18.9999
-8.1995 -8.38247 -4.24148
-4.04893 -3.73811 -18.9995
-3.95695 -2.98331 5.22316
0.778375 6.46692 -5.94064
-1.51206 3.42675 18.9999
8.01433 -6.33866 9.99953
-5.22443 -1.08766 10.0005
11.7995 3.86757 -8.39049
7.8982 6.00809 0.1455
-4.14867 3.68185 -18.9281
-6.37152 -9.99958 -6.13132
-4.58751 -9.99945 7.91953
-3.03896 -9.99991 -3.79484
-3.77272 -8.11321 -2.2114
3.66883 -6.356 -5.72159
11.7995 3.23817 7.78893
-2.94027 5.09393 -18.9988
-1.09574 -7.99465 -5.24999
11.799 -3.06349 5.2946
7.12295 4.54634 -13.6251
6.55012 -9.99939 -9.91601
-3.22223 -1.53404 -18.9999
7.14051 7.41829 2.74775
11.7991 -3.15285 -5.19577
11.7998 1.68548 5.88129
8.16369 0.9466 5.93593
-1.1023 5.05996 5.25466
-8.19946 -8.10717 -6.20372
5.30074 8.13489 -9.99951
11.7125 -4.64843 -9.99933
8.66718 0.858261 18.9998
-5.93661 -9.99957 5.95203
4.91199 -6.26792 -17.1087
10.0777 -3.23111 5.06171
-0.791083 6.50244 17.0928
3.62801 2.1142 -5.73576
1.50845 -9.99972 -6.09795
-0.389236 -4.68231 -19
-8.19963 -5.65344 -2.36796
4.05279 6.62549 15.3205
-8.11572 -9.99943 4.7489
-4.99476 1.73925 -11.8156
9.77132 -1.08788 5.89949
11.7994 -8.07229 7.95986
2.73286 -8.32461 -5.92527
7.00262 4.69189 -17.0924
-0.883487 2.5116 -5.45901
-8.1086 -5.61617 2.15888
-4.31847 -3.63656 -10.0002
0.901711 -6.96496 -11.6539
-8.19967 4.90629 -3.67141
9.61347 9.99947 -8.35273
-8.13603 -2.96174 9.99953
6.22552 -4.3342 4.14961
-1.23966 6.31423 -15.3754
-0.21919 6.64486 5.65521
5.54948 -9.99957 -7.55755
3.75756 -9.99963 7.93721
4.48545 -8.00374 -5.39098
7.52131 -9.99966 6.02735
8.00581 6.25539 9.9996
-0.499809 9.9383 9.99943
5.70839 -5.80515 18.9134
8.2196 2.80509 10.0816
7.58078 -3.96513 15.3603
0.156861 -9.87509 -9.99948
11.7995 6.50253 6.84145
3.02759 6.37809 -5.87664
11.725 -1.21112 -5.87583
8.79822 -0.232692 -15.3451
-3.88349 9.99961 6.19772
0.0432965 -6.25787 -5.73285
4.58467 4.92343 5.33346
5.8408 9.99957 4.5863
1.6378 -2.87025 19.0001
11.7997 -3.13397 9.90119
-4.20541 5.89321 1.08909
8.80804 0.948844 10
8.27371 -4.30018 4.18717
8.17026 9.99964 -3.77648
-3.98736 -5.85711 -1.68015
0.806907 -1.04373 5.94619
-2.10093 9.99958 7.28614
11.6931 9.87314 -9.99772
-2.2727 -6.20053 4.40468
5.04064 9.99946 9.92538
-0.348686 -2.30911 5.62271
2.15211 8.13624 -6.02251
-8.19954 7.79786 -5.90416
0.508638 -6.82061 -18.9992
2.80827 2.88132 18.9999
-4.48624 3.79146 -4.66042
-6.04819 -9.99942 -7.99946
-4.322 -3.67652 -4.73886
9.80072 -9.99953 1.03071
6.31395 5.35728 -15.3647
3.93145 -8.42078 9.99949
-8.09594 3.1626 5.09878
11.7997 -9.92839 -2.57781
0.201862 4.70089 -19
-1.13455 -6.3578 17.1149
-3.06108 -9.92617 -9.99946
-8.19951 4.77192 8.18311
-6.52642 2.47807 9.99974
-3.08693 -6.92716 9.99966
3.63705 -2.7966 19.0001
-2.27061 -2.80105 19
0.223958 -2.8403 -19
-2.23425 -3.96058 -4.52257
7.32108 4.3073 10.0666
11.7995 -4.61689 6.33081
-2.09188 -8.10324 4.56927
1.73457 -8.52604 9.99964
-0.991427 0.731016 -5.99067
3.02429 6.89688 13.6111
-8.1995 -5.97076 -6.09147
6.72255 -5.0973 -9.99982
-6.48396 -9.9996 3.8181
6.87713 5.17993 3.19524
-8.19961 5.73158 -2.17732
11.7995 8.20041 1.7528
11.7997 9.91603 -1.05951
8.60745 1.63876 17.1854
4.42502 -0.318582 5.99329
-2.83053 8.41119 3.81505
-8.19946 -7.49427 -8.01078
-8.1995 -1.87798 -9.91034
-2.57128 -4.27295 4.20892
-6.44 -4.10688 4.37985
5.85245 8.18869 -4.4257
9.27542 5.17804 3.04895
3.40213 -9.99917 -5.92042
-3.76884 -9.9994 9.92047
5.27534 6.2133 -9.99988
-6.46832 9.99955 3.99469
9.43692 9.99958 6.31529
5.53791 -9.99931 4.88532
-8.19953 5.27824 6.13982
9.74755 -8.09994 9.99934
3.59521 -6.77048 11.8877
6.7693 4.94181 13.6439
6.07148 0.869175 5.95355
5.49433 3.36055 -18.9998
-3.92671 4.20771 10.0007
7.55071 -3.9998 -11.8563
-4.64808 -4.32536 4.15566
8.79971 -0.667722 -17.1274
11.708 4.79063 -3.60081
-3.06065 -4.95932 -3.51248
4.68436 2.03322 18.9999
11.7997 -9.93929 -4.49362
7.71436 7.92045 -1.00416
-4.78869 -2.36674 -11.8472
2.12019 4.96528 -19
-1.00984 3.00188 5.30806
0.690946 0.987317 -19
4.81904 -8.21461 -9.99951
-8.099 -6.74371 -9.99958
8.79311 -0.164782 -11.8602
7.32411 9.99965 6.31263
-1.40551 -9.99948 -9.90918
-2.8118 -2.3943 -5.50291
0.870783 -0.161257 -5.99185
9.73189 9.99955 -2.71804
-0.901559 -4.75605 -5.37169
3.15346 -8.12328 5.84982
-8.19954 2.7586 8.40798
-1.865 -9.99953 -7.99648
8.79242 0.224883 11.8508
-6.04332 4.61451 9.9996
-8.12432 9.99929 -2.83349
-0.508521 2.51576 -19
11.6983 -4.81326 9.99935
3.7141 0.61178 19
4.94068 -9.99942 -9.89376
-8.19951 3.63434 -4.93737
1.76572 6.60088 6.00905
-5.89209 9.99945 7.90091
-4.29847 -5.99689 0.0538392
2.73439 -6.93728 10.0753
9.58803 4.25713 9.99956
-4.34817 9.99943 9.93455
-4.90371 -2.01082 -18.9184
-8.09786 -9.9994 -3.31237
9.82075 -9.9995 3.0875
-8.19957 -4.62335 6.62284
11.7187 9.99909 -8.22763
11.7994 7.95442 -7.93749
-2.80642 -9.90865 3.83053
7.64332 -3.85657 17.1717
8.76784 0.840208 -13.618
-0.295243 -9.99955 8.08574
3.78843 8.44405 9.99956
11.7994 -6.40495 7.28098
0.313898 6.95075 9.99999
-4.13053 9.99951 -7.8007
4.7225 6.46708 9.99968
-8.19963 -2.7631 7.02478
7.65904 -0.820025 5.9717
-4.42387 -9.9996 -5.64994
11.7131 -9.99923 6.47085
1.96223 7.01461 15.3276
8.24222 9.99963 -5.72139
6.57359 2.18145 -5.6139
-1.21922 -0.510444 5.9956
11.7187 -5.9127 1.01179
8.11645 3.0328 -17.1306
9.97359 -6.24489 9.9994
7.42482 7.96628 -9.9995
-6.0895 9.99951 -6.35944
-3.00564 -5.1107 13.6322
-6.13491 -5.97476 -0.81118
8.54517 -2.52445 5.43539
-1.1396 -4.34512 18.9999
-1.85918 5.9646 11.9775
0.841818 -6.95269 17.1473
11.7201 9.99917 -2.82581
-2.91004 4.77462 -3.72484
-2.57379 -1.76148 5.74513
4.76891 9.99968 -6.89449
-0.871739 9.999 5.51029
11.7145 -9.9992 4.55077
-1.02055 6.50413 -10.0001
-8.19948 7.91632 9.92967
-4.98454 9.99952 -3.68724
-3.07534 0.402513 5.99479
2.95485 -6.90126 17.1692
-6.38123 -0.959595 -5.93234
-8.19955 3.87579 -7.44691
-3.70637 -4.34616 15.4021
11.7996 -6.52511 9.87808
7.35185 -4.42134 10.0003
11.7996 5.7186 -2.1321
-8.19968 -6.02956 -0.908898
-2.35751 9.99968 -6.56903
-0.270064 6.69705 15.332
-1.07927 -0.979136 -5.93376
-8.10808 -5.11498 -9.99948
-3.76483 5.69932 -2.25143
5.76524 -3.08089 19
10.1595 -9.9995 -5.45027
1.70759 7.20142 9.99983
-4.0037 3.91096 15.3015
10.0373 -2.99103 -9.99956
-6.05308 9.99943 -8.1891
11.7996 -4.02644 -8.2163
11.7996 5.32044 8.25363
7.07444 -8.35269 -2.84874
7.8056 -9.99971 -1.1567
-2.91217 -0.66167 -5.9967
-4.64195 0.104589 -5.9965
11.7997 4.59749 -9.93881
9.81146 5.85257 1.38941
1.93421 -2.49135 6.01948
-2.32903 9.99949 9.89253
3.56209 -4.72192 -19
11.7319 3.65442 -4.77252
0.680071 6.92895 -15.3761
-6.09681 -5.45297 -9.99961
-1.3006 -0.777073 19
-3.25508 6.7851 3.22981
-6.48268 -9.99947 -9.93037
3.85286 -9.99954 -7.97974
0.448319 6.86832 -10.0839
7.88206 3.46814 17.1342
4.72391 1.1585 -19
-4.41567 -6.29117 -9.99971
-8.19951 -0.0763566 -9.91261
-4.75676 -2.65869 10
8.19485 -2.84478 10.0711
-8.19958 -7.92507 1.72037
9.82908 9.99953 1.00643
7.51319 4.06137 11.9192
1.16579 -6.97296 -17.2388
-0.106193 6.73487 11.912
8.80091 0.301771 -18.9226
-1.34106 6.36878 10.0007
7.84032 -3.53155 11.8368
3.48864 2.84139 -18.9999
3.86422 9.9995 7.94845
7.81059 -3.85068 -10.0001
2.38389 -6.98793 -18.9325
-2.807 1.12104 -5.89717
8.38348 -2.3585 -10.0788
-8.19943 7.9703 -7.89464
-6.44346 -9.99943 7.95998
3.56449 6.93066 -9.99989
8.48401 -2.14947 -11.9042
-0.272304 4.76833 18.9999
-0.317325 -6.68629 11.8919
-1.66783 1.50476 5.80476
-3.26215 -4.83948 -10.0781
-5.19914 -0.242553 -15.3242
4.98549 1.00261 -5.92787
5.69989 -9.99961 7.42396
-4.76482 9.92698 -9.99936
0.721234 8.29468 5.92458
-6.40675 -3.01997 9.99963
5.4479 -6.12035 -10.0005
0.78044 6.95104 13.6507
-5.24649 0.976594 -9.99949
-1.17275 -6.33176 10.0683
6.54465 -0.101164 -5.99492
-3.86352 7.99467 1.98476
-8.11058 3.95537 9.9996
-2.98644 0.48926 18.9998
8.59154 -1.74204 11.876
9.72498 7.62968 -9.99945
4.42562 -4.57582 19
-6.17832 9.99959 -2.00201
11.7995 4.66549 6.28851
4.52462 -6.54547 10.0004
2.99726 -4.18904 5.87849
-5.77301 -9.9996 -4.08235
-6.49676 9.99945 -9.93419
-5.1067 -1.1227 -17.1016
-6.18205 -5.90862 1.03932
6.91792 -0.0847121 -18.9999
9.77944 9.99953 -0.927281
-6.31363 9.99949 9.91682
-0.620884 -6.57769 -10.0991
7.00083 9.90572 2.98603
10.1016 4.09923 4.38794
1.48861 2.99145 -19
0.813784 -7.15004 -9.99993
-2.43016 -5.58179 -11.8627
11.6956 -6.52554 -9.99931
1.99873 7.17189 -9.99995
6.87193 -2.92821 5.23763
