-4.44005 -4.07447 4.39923
-8.10894 -6.10603 -0.648498
10.1045 2.63339 -10.0066
-6.63735 -5.12052 -3.11105
-4.45937 -10.0074 8.16445
5.10872 -6.17152 15.3616
-6.07377 -10.013 2.93359
7.08205 -4.61974 -17.1077
11.6353 9.87746 1.8129
-3.28788 -0.570162 -19.0049
-6.24247 10.0064 0.589282
9.24019 3.2367 5.04896
-6.2768 -10.0083 -0.894468
8.11974 -9.91408 -9.80974
8.33123 1.95708 18.9034
9.51703 -10.0054 -6.36386
-8.20937 -1.96891 7.85885
-1.86056 -5.95869 -11.881
-4.7685 -10.0154 -4.35692
-8.13727 1.39911 -9.82521
11.6936 2.93904 -9.83872
0.562187 6.89936 -15.3585
11.7201 9.86106 -4.6284
7.59458 3.56636 18.8628
6.41781 8.3301 -3.81496
4.09461 6.36686 5.54372
11.6932 4.18936 -4.5719
5.14272 5.6224 -4.99117
8.02751 10.0072 7.88489
-8.20834 -8.01422 0.997419
3.94753 -6.67365 17.1206
-4.34354 9.88252 -9.85978
-6.73946 -0.718472 10.0141
-4.4534 -3.18293 17.0789
-2.937 -9.82375 -3.91877
4.98663 -3.86254 19.0052
7.72965 -8.00267 0.732469
7.5483 10.0035 -5.88728
-8.06714 1.12136 6.04417
-6.30713 0.579863 5.98127
-1.15757 -3.05434 5.27143
-6.44757 -9.88012 -9.88456
-1.42175 1.68537 -5.75582
7.7042 5.93466 1.63282
-6.00376 -5.61324 2.0978
-5.74017 -10.0079 6.50833
-8.20688 -5.84628 -8.18132
5.72684 -6.16113 -4.5378
11.6929 1.1065 6.08797
11.6343 -9.92017 2.14335
-8.12556 -5.55163 2.61251
11.709 5.21301 -3.26564
10.0195 3.04461 10.004
-8.21353 7.73325 3.3904
8.65779 0.483835 -18.8583
7.69987 -3.77399 -15.449
-8.10881 3.71109 -4.98619
-1.59309 -9.84681 5.05203
-6.31513 4.34747 -4.13938
5.33052 -6.04083 11.9039
5.06062 -6.18838 -11.8571
7.15498 4.51369 -15.5877
-8.21661 7.98453 1.48854
11.7096 -5.87819 1.66424
-8.20652 -8.32558 -5.62892
-8.07094 4.89037 -3.78421
7.13556 7.96561 -10.0134
-8.20705 -7.93171 5.967
-4.77266 -2.41819 -13.6114
-4.68022 -10.0112 4.47404
-8.21422 8.23371 5.50724
-5.08979 1.31363 -17.1554
-2.00766 2.79838 19.0066
7.68455 -5.90974 -1.82761
11.7343 -7.77658 9.80249
-4.52948 3.95722 -4.50819
-1.21907 -6.44381 -10.1133
-4.98978 -5.01043 -3.28649
-3.06719 -5.03555 -15.3797
11.8081 7.93471 -1.58904
3.85606 -10.0106 7.69167
-1.82554 -6.00314 17.0738
9.76284 -10.0115 1.33094
-2.44213 9.89964 4.45285
2.52314 -6.80092 18.9169
11.4738 9.85662 9.79693
7.97238 3.30769 -15.0726
-3.65163 -5.41338 2.89671
3.31027 6.85196 15.3176
4.35038 -6.5265 13.5904
7.77261 9.79689 9.86204
-2.50552 -7.62874 -4.17956
0.808937 3.67669 5.92844
-8.07603 9.85886 -1.45213
-1.26624 9.87141 9.85859
1.78971 -10.0156 8.01228
-8.20685 -6.48307 -4.45063
-8.09265 -4.59465 9.86497
-8.10405 2.34731 -5.72019
11.8084 2.11702 7.80706
-5.78163 -9.86254 9.90796
1.574 6.98881 11.8226
-1.30267 0.410716 19.0029
-0.0162207 7.68907 5.71214
11.6815 9.87816 -6.31724
-5.02001 -1.62366 -15.3407
11.6861 9.82451 6.73782
0.498933 9.9105 -6.08202
1.68804 7.00167 -13.5613
-1.82608 -10.0167 -8.54507
9.94507 4.08033 -4.38642
4.44142 6.49024 -15.3315
7.21197 4.64356 -10.1168
11.6854 -5.19376 3.26564
-2.57023 -4.35334 4.21671
11.6238 4.63629 -9.91323
-8.20616 -7.86307 7.95782
9.49823 -5.47218 2.44141
-8.21332 -7.92986 2.91681
7.73233 3.70648 -11.8973
11.7126 9.83061 -2.93908
11.6831 9.87805 0.0355665
-4.73134 -2.75668 -10.12
-2.77196 4.59861 -3.998
9.91019 10.0125 7.98332
3.51603 6.36482 -5.75513
5.94785 -9.87198 4.5719
0.16712 -6.70973 -18.9407
-8.20941 8.03812 -8.05854
11.6913 -3.85629 -4.8439
-2.56381 5.47381 15.3292
-3.1782 8.19405 -10.0129
11.6606 -9.86465 -1.72889
4.17629 -6.69688 -5.51067
-6.30363 2.91092 -5.25955
8.0107 9.86561 -9.84431
-4.40521 2.9225 18.928
8.10693 -3.02045 12.0144
-4.39339 3.29494 -17.1941
5.40209 1.36116 -5.87373
-3.56665 -10.0107 -5.92385
5.01775 9.91774 5.21064
-3.51753 4.33687 -18.828
-1.84523 -10.0081 -6.86869
11.8052 7.48826 6.26803
-6.58227 -10.0142 -4.91689
-8.20523 5.4822 -5.96964
-0.619123 -3.97577 19.005
-8.20428 -5.60318 6.01862
1.81898 4.78342 -19.0037
-4.85668 -2.17284 15.3714
-8.20757 4.71684 6.30577
0.961678 6.9627 -11.8103
2.56121 0.966318 5.96038
9.8567 9.89519 -9.86501
-8.07249 9.85171 0.289373
-6.338 9.84236 -9.90378
-6.41273 -1.55618 5.78709
-3.56229 -10.0076 6.19463
-8.07274 4.82462 9.87882
9.76577 -10.0073 -0.767971
10.0701 10.0184 -7.85877
-0.651051 -6.55325 11.9153
5.89638 9.89072 9.82262
-2.67367 -5.58951 -10.122
11.6447 6.54729 9.89621
7.18367 -4.24419 -18.9182
-8.20738 7.83613 -2.42854
11.8115 -7.93683 -8.20126
4.69035 -6.20476 -18.9177
-8.20345 6.60326 -4.27491
-6.234 -5.99218 0.384023
7.73463 -3.69977 -11.9587
-5.13711 0.964556 13.6545
-0.388447 4.18032 19.0059
6.85823 7.89627 10.0075
11.8076 -6.90616 3.34752
7.96783 -6.27681 10.0039
-8.08003 -3.33825 -9.84668
3.9269 9.90001 9.84117
-8.05507 3.3909 -9.85255
-1.47172 -1.1318 5.89427
6.99362 2.8729 5.26695
-8.03355 -8.29981 9.85291
11.6959 -2.23168 -5.76108
5.97182 -8.03227 -4.29714
-3.90876 -10.0091 -7.93418
5.88257 -10.0113 8.24081
-2.69946 4.50998 4.1491
-8.21696 8.05592 7.89073
-3.42509 9.858 -3.22141
10.1536 2.00873 5.64827
9.87087 -9.79697 -9.91869
8.07399 -10.012 -7.84305
4.30548 1.01508 5.92604
3.5105 4.4572 19.0053
-8.05026 -9.8964 5.97079
0.972285 7.04463 10.1185
-8.20918 -8.29618 -3.65443
6.02794 5.75204 10.1203
11.8059 -7.79074 -6.38886
5.55958 5.91062 -13.6098
4.68355 10.0089 -7.96494
11.7419 1.18516 9.79693
9.63357 -4.59539 3.84688
10.068 6.50743 -10.0101
-4.33961 3.36503 -13.725
-3.14589 4.97824 -16.7091
11.8085 7.9523 -5.83547
-1.51301 -10.0147 6.6953
5.33718 3.61335 19.0065
11.7305 -9.81975 -3.62507
-2.46603 9.80694 -4.36151
-2.91254 7.44761 -3.71834
-8.0654 9.89645 2.23319
8.72074 -1.06708 -13.6528
-6.19695 -10.0077 1.0785
11.7074 2.92947 9.82305
-4.69187 2.616 -11.9532
-8.2071 -3.91701 7.55691
-0.381542 -4.40538 -5.58844
8.34781 -10.005 -4.30856
-8.21368 0.0668369 8.02533
-8.03103 8.26721 -9.9406
-8.12391 5.86718 1.92089
11.8079 4.38159 -8.28321
-0.010608 0.627655 -5.98728
-6.15271 3.99693 10.0063
-4.51322 3.01762 13.6072
-8.20917 8.01309 -0.483243
-1.77749 6.0303 17.0763
9.0273 -0.0705839 -10.1115
-1.65129 -9.82301 -5.02544
1.77012 -6.81619 -18.8608
-8.15172 -2.32421 -5.8102
11.8038 -3.9293 -7.39665
3.5718 -6.12741 5.74018
-6.10718 7.79746 10.0134
7.13598 -4.27233 18.9407
-1.48058 -9.86012 9.86766
11.8094 -8.48058 3.09653
7.92608 -10.0068 7.61267
10.141 -10.011 -4.63771
11.8109 0.213676 8.05954
-8.21314 -8.24229 -0.871393
-4.45881 4.58046 3.85689
0.0622061 2.07594 19.0026
-2.95631 0.91519 -5.94285
7.88938 -3.45849 15.6113
9.94284 -10.0121 -8.2384
-3.08333 2.8867 -5.26451
2.75058 -8.13598 -5.92219
11.6721 5.81236 -1.95638
7.17275 -5.26027 3.08943
-6.36022 10.0066 -5.92183
11.6491 5.23785 3.12551
-4.85903 -2.12841 11.98
6.34001 -5.3304 -15.4343
7.3453 9.89677 -2.60469
4.27321 9.89863 -9.79693
0.848615 10.0078 -8.0548
-8.21234 3.84885 7.93127
9.50971 4.65638 -10.0018
9.99892 4.4554 4.00798
1.78207 5.4165 -6.01673
11.8023 -5.90237 -7.83487
-4.10028 -3.80268 -4.63856
11.71 -9.84234 -5.60163
-2.42316 5.28906 18.8497
-4.05639 3.84084 -15.4957
7.21023 4.43353 11.8794
4.50211 -8.4247 -5.33953
-0.0882377 -9.87659 -5.83728
4.61641 -6.57315 10.1235
-4.7208 -9.84903 -9.89161
-3.75165 -9.89093 -2.57435
-8.20696 -6.93674 4.3956
-7.99699 9.93697 -8.3032
3.59103 4.37537 -5.73546
-4.73134 9.86907 9.87031
8.21146 -2.84465 -17.1643
8.00899 -8.21783 -10.0086
2.17353 6.83364 18.8759
11.6397 9.92151 -1.44561
-7.98874 -9.8738 9.79693
9.69203 9.82038 9.89766
-6.44673 -3.19884 10.0063
0.155233 -10.0167 -7.8821
-8.04013 9.84782 -9.87854
1.81073 -4.65997 -6.02173
-6.58257 -2.39074 -5.49224
2.87939 10.012 7.94305
3.66209 6.76752 11.8825
9.86402 -6.5323 10.0064
7.14766 -4.51879 -13.7457
-1.51398 3.4711 -5.03455
-0.843845 6.50027 -11.8748
5.91593 5.67756 17.0512
0.664529 2.99129 -19.0036
11.7072 -0.579245 6.13145
7.38994 1.00341 -5.92071
4.69778 8.29226 10.0113
3.2304 -6.70964 -18.9407
-0.86843 9.9125 5.51043
8.52838 -1.98227 -15.4537
-4.88311 -1.7024 -18.9105
11.5969 -0.474698 9.90245
5.91665 -2.74122 5.33081
-8.03249 -9.90811 -8.13233
-4.53699 -6.30547 -10.0054
3.77795 4.66061 -19.0078
6.82403 4.87684 15.3708
-5.03176 -3.81e-05 -18.8949
-3.7442 -4.06145 18.8641
2.93258 7.02802 10.1135
-4.8439 1.5383 -18.9205
1.65674 -6.08686 6.00622
-3.29715 4.79598 13.596
-8.21129 -7.38522 -2.34299
2.5439 -6.96194 -15.3133
10.142 10.0075 -3.91447
-6.09375 -3.90431 -4.5684
-8.07129 -6.45157 9.88754
4.75117 10.0131 7.88928
9.90078 0.287723 5.99739
8.51064 -2.01956 -11.8937
-4.03734 6.7847 -10.0022
-3.14405 4.95795 -14.438
2.84721 10.0153 -7.99671
8.81771 -1.55202 -10.1145
4.40806 -6.26608 18.8591
-5.19564 -0.129849 15.3877
-8.21226 2.215 -7.89681
9.6746 -10.0094 -2.70472
-4.28865 6.08221 -0.99052
5.7741 6.11886 4.49006
-8.20995 5.88358 8.18465
-3.81492 7.83445 -2.09461
6.05516 -2.33647 -19.0074
-7.99699 -1.72341 -9.93162
9.82114 -3.19504 5.06678
-3.32479 -4.7914 17.0633
-1.55028 7.91793 -4.98186
6.57311 -5.11031 -11.9219
-5.99256 10.0223 -8.05747
2.22437 -6.37032 -6.00269
-0.237062 8.31724 10.0052
-8.10625 4.9789 -9.83851
8.4487 -2.21719 14.42
4.40556 -0.1682 19.0036
6.50433 -2.34986 -5.5215
-6.06346 -5.8096 -1.47741
3.75933 9.90948 5.87816
-2.44923 -5.55663 11.9448
-8.20929 -5.92933 7.94804
-2.46949 -10.0109 8.15239
7.92755 -3.94945 4.52454
-1.42624 -8.24205 -10.0091
7.26732 -10.0054 -6.01192
0.527001 -6.75388 18.9073
-5.94238 10.0054 4.36281
-2.95018 -9.86881 3.90462
11.6126 -0.494931 -9.87082
-0.00765384 4.51577 -5.71298
-0.219553 -6.70978 -11.8541
8.09159 3.09551 -17.0157
-8.06627 -0.677418 6.13397
11.7161 -0.655594 -6.13248
0.292108 -6.83954 13.7029
-1.38539 6.06595 5.08493
-6.29177 4.09064 4.39531
-4.44378 -3.16425 13.6603
-0.295574 6.685 -13.718
7.68568 -9.90352 9.83322
-1.2749 10.0104 7.91569
11.6683 -6.78541 -9.89024
-3.97141 3.95739 11.8893
-3.60842 5.51947 -2.7359
4.48094 6.30496 -18.9143
11.8079 0.23906 -8.01489
3.703 6.74324 -13.542
6.37154 -7.86144 10.0137
5.93278 -0.545192 -5.99241
3.05906 -4.52338 19.0057
3.79899 9.9437 -5.85412
5.58251 5.88323 11.927
-0.305318 9.90374 -9.82398
8.00466 -2.82171 18.9297
-6.35424 -7.59283 10.0166
9.57982 10.0079 -2.03447
6.53011 9.83167 3.93325
1.21042 6.77339 -18.8922
8.80257 1.47138 10.1058
-1.77647 5.82135 -4.82593
9.83218 -1.5679 5.79221
4.68163 -0.753106 -19.0035
-6.48949 9.79689 9.91383
1.89169 9.90142 -9.82294
6.18177 1.71371 19.0031
3.16641 8.47948 -10.0006
-5.19682 0.334901 -15.3677
8.30795 -2.61155 17.1402
9.95413 -2.90691 -5.25083
-5.539 -10.0031 -6.39503
0.423955 5.61749 5.84654
-8.0515 6.67661 -9.85449
-8.08434 -4.77839 3.91347
-8.11045 0.906696 -6.09769
11.8087 7.64297 2.58893
-4.18522 8.01727 -0.104942
5.24555 -10.0063 -6.67656
6.72489 2.78464 -5.32014
-6.07161 -10.0183 -8.07108
6.72816 -4.97262 15.3788
11.8027 -4.51268 6.49144
-3.9338 -4.01979 15.3397
11.8079 -1.71209 7.83703
-5.10081 -1.16683 13.6659
-8.2039 6.69104 6.56742
-2.91293 -2.74721 5.34006
8.82207 1.41404 -10.1235
11.6644 9.85532 -8.09767
11.8057 6.44005 4.53671
-6.06525 -5.28445 10.0088
-8.20775 4.09689 -7.53292
8.4699 10.0052 -4.1059
2.96935 6.91496 -11.8283
7.38517 7.81449 -2.17281
11.8079 7.98173 8.04917
-3.39609 4.71008 17.0477
-8.02074 6.08101 0.475096
6.69114 -0.30788 -19.0037
6.93087 -4.75406 11.9545
-8.205 7.63205 -6.23715
7.96318 -6.16338 -0.0776234
6.06911 5.38071 -18.9029
-0.0768652 6.4419 -5.69882
11.8106 -5.80219 8.24106
-8.08295 -3.70117 4.97724
1.95152 3.35324 -6.01004
11.6099 -9.91693 4.24533
8.34886 2.47071 11.9308
0.259707 8.28842 -5.80387
6.19623 -10.0118 -8.13954
4.26452 -9.83533 5.64787
0.846791 8.48514 -10.0027
-3.83515 -4.15364 -13.6625
8.17143 -2.90057 -13.7003
11.7048 -4.04375 9.79693
-6.45873 -10.0188 8.26185
6.00805 5.59594 -15.3929
-3.27147 -5.21949 -3.34526
8.06926 4.33534 4.13959
-8.06984 -9.87348 2.06554
4.01645 -10.0103 -8.09919
11.8087 -7.98511 -0.903375
-8.20376 -4.91735 -6.16402
-4.30999 1.39475 5.83386
9.80192 10.0095 0.0765782
-4.7495 2.81357 10.1231
0.51433 6.65952 18.8899
-2.44809 -8.19248 4.2396
-5.06201 -1.40597 -11.833
-0.642388 -9.79697 -9.86505
-4.13234 -5.95702 1.54389
7.58119 7.94057 1.5598
-8.05608 -5.03576 -9.84973
11.6649 4.2453 4.44355
-2.33233 -6.35723 4.34874
4.088 -9.91202 9.79557
-8.03573 9.9012 5.8817
4.54622 -4.24186 5.33985
2.85052 2.89556 5.90353
-2.76435 1.38999 -19.0049
-8.07753 -9.88575 -2.15489
7.3927 -4.50128 10.1235
-6.10495 5.80442 10.0099
-5.1725 -0.701886 -17.0865
-2.84189 -1.04723 19.0041
6.00803 4.18456 4.38431
-8.20374 -6.73522 -6.4756
7.78143 8.04973 -0.353432
-5.20084 -0.0853468 11.9601
8.79394 0.651096 17.1576
-0.285738 4.69329 -19.0047
5.27126 8.04798 -10.0031
-4.49346 3.19588 5.08279
11.8064 -8.10484 5.26795
4.91957 -0.743489 5.96254
-6.59492 1.93127 10.0031
-0.0367095 -6.77931 17.1393
-8.2066 6.25678 4.7514
11.6021 -9.87302 -9.66362
3.69741 8.15138 5.68472
3.24723 0.771255 -19.0018
6.66754 -9.86414 -3.75658
0.170012 6.82428 17.0822
-4.50465 -6.4523 10.0024
6.1138 -4.31233 4.27812
2.9268 6.79161 -18.8802
8.66879 1.35783 15.438
-8.20594 6.14011 -7.91857
11.8056 -5.96208 5.041
-0.947944 6.59331 10.1217
-8.08011 -3.5923 -4.993
-8.03997 9.79689 9.77369
9.63231 10.0049 2.16524
11.8049 -7.91727 1.15904
-8.20955 8.32541 -4.41449
5.22676 6.10937 15.3412
9.78233 5.95063 0.789324
-5.93222 10.008 -3.55426
-4.14786 -3.39534 -18.8509
-3.71215 -4.35008 -17.1199
9.64674 10.0032 -5.88283
8.058 6.29717 -10.0015
-1.0421 9.88341 -5.47173
1.51479 4.90873 19.0052
7.86153 -6.39086 -10.0013
6.94891 4.77283 -17.2923
5.40813 -9.89946 -4.96344
6.09547 9.87688 -9.89564
-0.476159 -6.65032 -17.1732
3.74446 -2.29161 19.0029
-1.40562 -0.573157 -19.0035
-8.05678 -5.66374 -2.38514
8.20432 -3.1428 10.1192
-3.13463 1.02785 19.0056
-2.05228 5.85459 -13.4073
7.92793 -10.0044 5.33721
-8.09105 4.20889 4.49488
4.05703 2.08867 19.0028
5.07115 7.67552 -5.01769
6.19354 -5.66249 10.1235
11.8056 6.20401 -7.45155
-0.397741 -1.71623 19.0051
11.6366 1.0747 -9.91135
6.70696 4.84521 18.7335
-4.02579 3.88728 15.3045
0.737112 -4.73336 -19.0036
1.90615 2.94617 19.0021
-8.08383 0.98422 9.86555
-2.44884 5.27998 -18.8376
9.97534 -4.31483 -4.15483
0.577069 -9.85981 9.87915
5.86696 5.87812 -10.0998
-4.34465 -6.14258 -0.194637
7.58682 -3.9414 13.7034
-8.11501 5.75278 -2.34123
1.47167 -2.94846 19.0028
4.26506 -1.53371 -5.80352
3.81324 0.256742 -6.0001
-8.05931 9.8717 4.04527
6.82949 7.60262 3.2558
6.55675 9.88149 -3.94243
7.99134 -9.89236 -0.0273513
11.8088 7.98215 -7.93216
11.731 -3.41761 -9.83702
4.39352 4.55861 5.4194
2.59167 6.95528 -15.2726
2.3052 -6.98538 13.6556
-3.48301 -9.86086 9.86658
-2.49244 -5.52964 -13.657
0.62473 0.0882663 19.0025
-8.06338 9.90494 7.75879
-8.11273 5.21886 3.1852
-2.48749 5.5299 11.8698
-4.29585 -3.45231 -15.3805
2.84477 -8.012 5.89701
11.7048 -2.36668 5.74061
-8.06899 6.67214 9.907
-6.4482 1.05867 -5.90207
11.683 -9.85867 -7.58502
-8.21484 -1.82027 -7.95829
8.73774 1.14774 -17.1286
-2.47537 5.53664 -11.6986
5.90851 -5.45844 18.8791
11.6305 -5.76185 9.88028
9.44154 5.23444 -2.93444
8.38641 10.0082 -7.74524
11.8059 3.92963 7.76038
4.14063 6.61015 17.1223
8.11697 3.31621 10.1174
-4.04257 -5.86924 -1.82465
-4.95822 1.31562 18.9182
-1.41957 -6.00023 -18.8948
-8.08086 6.04259 -0.956128
8.39555 2.36748 13.7996
-2.33261 7.88421 10.0095
0.512099 -1.03625 -5.93497
-1.58543 6.13346 -15.3705
-6.21707 -5.55675 -10.0072
3.60814 6.78466 -17.0833
-4.32077 6.10853 0.8497
5.82089 -9.8651 9.91444
2.971 2.80149 -19.0031
7.6781 -5.92052 1.6196
2.00279 -2.49321 6.00669
-4.31515 -9.87222 0.670748
-3.93168 -4.00792 11.9216
4.57956 -6.4274 -15.3448
7.7039 -9.87982 1.76985
-5.06074 5.2529 -2.9026
9.75048 5.87891 -1.15663
2.51603 -0.977759 -19.0033
-2.89351 -5.38541 10.1235
-5.32291 -1.24897 -10.057
5.99467 -4.21807 -4.42997
-4.3873 -3.26223 -11.9122
11.6839 -9.84935 0.0773778
2.39922 6.9736 13.5568
-1.63244 6.10447 13.6026
11.6358 -8.47817 -9.90884
-4.56281 2.94116 17.0968
-0.632625 -8.27806 10.0056
1.52072 -7.18445 10.0562
-8.04846 -9.89003 0.0340072
1.75619 8.2734 6.01786
-5.18551 -0.491344 -13.5803
3.46884 -9.92491 -5.92479
-1.69466 8.05511 4.88088
7.24353 -7.88565 2.51471
9.22865 10.005 4.08266
7.60958 -9.90786 -1.99864
11.6539 5.99328 1.37596
-4.75302 0.45398 -5.99886
-2.25319 -5.73085 -17.1133
5.34599 5.87812 18.9096
-8.00579 -9.52542 -9.82179
8.6386 0.357149 18.9407
-0.913528 -6.45256 -13.6925
7.95517 -2.35228 5.5306
7.22306 4.7351 10.1131
-1.61111 -6.11345 13.6353
6.06758 -10.005 6.46271
-6.245 2.43547 5.48224
0.484442 -6.88241 -15.448
-4.47566 10.0083 -4.84975
-3.0445 8.30224 3.52241
5.44096 -5.99459 -17.0809
-8.07712 8.29318 9.89385
-2.33089 9.87134 -9.84023
4.1015 -6.61684 -13.5794
2.18602 -1.07227 19.0032
-0.711947 -6.53956 15.3892
-2.84407 6.50894 3.79091
-8.20829 2.03133 7.83551
-1.79226 6.19266 -10.0953
-8.20658 0.177791 -8.0303
5.38961 6.02741 -17.1689
7.36613 4.27078 17.0858
1.24778 -6.97839 15.4514
4.04034 -2.42509 5.60989
3.75465 -2.59695 -19.0031
-3.4967 -7.66244 2.8147
4.70849 6.52375 10.1084
7.26714 -4.40934 17.2264
0.210623 -6.16484 -5.78465
5.77838 -5.77337 17.098
2.1046 9.92446 9.80129
9.43816 5.4235 2.58557
9.55015 -9.94502 9.8102
7.95087 6.1345 -0.141007
-0.648251 1.30947 -19.0048
4.80647 -9.87458 -9.8719
4.81546 2.76001 5.36555
-0.947441 -8.0155 5.35142
7.57392 10.0024 5.62304
-8.08323 -4.6625 -4.02178
0.827081 10.0112 7.96138
-8.06917 -7.23189 -9.87346
10.193 2.47287 -5.469
6.12805 -5.50097 13.6475
1.06415 -2.89767 -5.95976
7.88806 9.89019 -0.947635
8.34018 2.54675 17.1589
-2.7444 -7.89527 10.0051
11.6542 0.950545 -6.05136
11.7504 2.64477 -5.55159
-0.170369 6.74684 -17.0044
6.57595 -0.17981 19.0046
8.55488 1.87063 -11.8611
-2.52998 -5.33113 18.9109
-3.8379 4.35003 10.1194
11.6874 4.81936 9.87018
2.45096 -6.97203 -13.5012
8.73586 -1.07078 16.622
-4.38525 2.89874 -18.8762
11.7351 -5.20411 -3.37455
8.78415 -0.509255 14.8336
-4.85013 2.20294 -15.49
9.50956 0.775384 -5.9619
9.39137 -10.0034 3.41126
-6.04011 -4.80423 3.60408
-4.65717 -2.35451 5.52526
-1.75324 -5.92503 -4.84024
-4.06636 9.89757 -1.91769
1.33893 -6.97801 11.9521
-1.2633 8.19296 -10.0085
7.3893 3.91873 -18.8831
-0.000590366 6.85781 -10.1049
6.00337 -2.07341 19.0077
11.8104 -8.09077 7.76754
2.26694 8.45307 10.0015
-4.21425 10.0052 5.31351
11.8051 -3.58052 7.99775
-0.241196 -2.44137 -19.0033
4.91317 1.36727 -19.0045
0.905016 -8.034 5.95402
3.24452 -6.86 15.3512
2.13782 -10.0141 -7.96781
3.75933 6.5805 18.9217
-5.18643 0.633335 -11.8703
0.0571882 -6.90777 10.1235
-1.16014 10.0086 -7.74424
9.78974 -10.0104 7.66063
6.70054 10.0098 -8.19135
4.41129 6.50632 13.6224
11.804 -5.65734 -5.70941
6.54686 -9.85178 -9.84531
6.30273 10.0047 7.22908
-8.03603 9.9368 -4.80089
11.6447 8.16436 9.89714
8.58561 1.75536 -15.3502
1.84668 0.9894 -6.00355
11.6033 -9.81911 9.77744
-4.68657 2.19299 -5.58807
0.194483 -1.94021 5.80358
-3.59491 -0.849034 -5.94462
11.655 9.9086 8.27646
11.6415 9.79689 -9.79693
2.1027 9.92512 6.12337
7.94015 -3.88974 -4.57242
-3.68185 4.35559 -12.2334
4.85607 -3.11373 -5.26557
11.8058 -7.51984 -4.54242
7.67913 -8.04183 -1.18706
5.2603 3.37337 -19.0049
-1.08041 -6.20476 18.8973
-3.21899 5.01483 -10.1235
0.771952 -6.93037 -13.6611
0.600743 -0.646417 -19.0034
8.76092 0.806457 -13.6297
6.54066 -6.51758 3.68107
0.835823 -8.03396 -5.92217
-5.04668 -0.602898 18.8826
-5.04227 1.50741 -13.6631
-2.83131 10.0067 -6.28628
-1.729 3.17834 -19.0038
6.11433 -8.15956 4.14222
11.7504 6.39044 -9.79693
2.757 -9.84987 -9.8806
-8.21322 -8.04969 -7.97357
-8.20887 -3.75018 -7.74664
0.493685 9.88596 9.88163
-4.2761 6.34563 9.99944
-3.8757 5.60104 2.56108
-5.99803 -7.87667 -10.0163
-4.58545 -2.51381 18.908
8.62103 -5.09027 -3.16264
-3.60824 4.22514 18.9124
9.65937 5.25231 10.0044
-2.66486 2.76768 5.31558
-6.28896 3.92525 -10.0141
-3.51024 -7.86399 -10.0099
5.97066 -7.88472 -10.0067
-8.09701 -2.34249 5.72714
8.51721 2.59672 -5.41229
11.8048 5.11166 6.13413
-6.27734 -3.39327 4.94467
4.02542 6.73728 -10.1099
11.8069 6.09276 -5.23437
11.6988 2.9506 5.46709
-8.08667 -9.8254 7.7476
-5.33539 0.284207 -10.0526
-3.01067 -9.83525 -9.86173
6.18584 -5.26681 -18.8013
-1.62349 -6.32069 10.134
11.6801 -6.17748 -0.103026
7.88483 9.85443 0.894465
-2.35638 0.884938 5.95115
1.70083 -2.85138 -19.0029
-4.10649 -8.00235 -0.932798
9.61227 -4.57498 10.0045
-1.13278 4.01166 5.23844
6.45927 5.2213 -11.9127
10.2488 -8.36238 10.029
-4.92579 1.95636 15.3733
2.83016 -4.71106 -19.0033
-5.28854 -0.387678 10.1235
-6.01173 5.31623 2.79683
3.57553 -6.79471 -17.0524
-3.25747 -4.8403 13.595
9.81006 -5.95552 0.764942
5.28541 9.80845 -5.01621
-1.56658 -0.652073 -5.98009
11.808 7.99666 0.570316
-0.73506 2.35348 5.5706
7.12577 4.54768 -13.6601
1.98368 -7.01828 17.2229
7.26837 -4.55031 -10.1195
2.65257 -4.27272 5.93895
11.6995 -5.01731 -9.82049
8.51296 -1.25738 18.8846
11.6823 -9.85417 6.33506
-6.48373 -10.0086 4.83789
-3.84099 7.78551 1.93512
-4.19119 8.1756 10.0133
6.28395 0.985831 5.9256
-8.06841 -9.89713 -4.19799
9.93792 -1.01887 -5.91704
4.05561 -4.88774 -5.55913
-8.04008 9.88878 -3.15344
11.8066 2.32429 -7.77134
-1.18077 -4.04956 -19.0067
-5.58292 8.15258 -10.0151
7.64605 5.82849 -1.92459
8.34197 -2.3481 -5.52304
6.19096 5.45314 13.6087
3.78033 -8.35684 -10.006
-3.90319 -4.34358 10.1104
11.6201 8.19656 -9.90941
8.66976 -1.34001 12.5778
11.8066 7.61204 -3.65777
8.08315 4.16223 -4.31688
-6.09212 10.0193 8.18554
-8.07579 -2.7633 9.84899
-0.452816 0.413184 5.99549
11.6213 9.88361 5.12161
-0.546393 6.59857 11.8487
3.04096 -0.826279 5.96268
-2.2551 -2.8895 19.007
2.33328 -1.10482 -5.99752
2.16825 7.01678 17.0077
9.82938 -10.0086 5.53687
-2.45494 -2.46354 -19.0044
0.511118 9.85183 6.01531
-8.0202 -0.209669 -9.93569
-8.13566 -9.8049 4.11417
7.08905 5.27819 3.12522
-3.67844 9.89835 2.90427
9.61382 10.0052 6.05323
0.60086 -4.17929 5.8862
11.6231 9.87189 3.36931
11.6594 -3.95227 4.68621
-4.32372 -9.91284 -0.979692
8.50282 -1.50712 -18.9407
11.8066 -1.93922 -7.93416
11.8074 8.27944 4.44869
-2.13861 -3.99919 -4.63551
7.98732 3.29236 15.4539
9.24655 8.15271 -10.0227
9.79629 -7.45585 -10.0094
9.45802 7.77118 10.0153
8.16447 -0.38944 5.9983
-4.00952 -4.24537 -10.1221
-0.289687 -6.32436 5.62684
8.22987 -3.26568 -10.104
2.28568 -9.79842 9.93405
-4.35948 9.89814 -0.311074
1.04784 -9.81573 -9.90281
6.0496 4.25027 -4.30661
7.54549 3.9969 13.6102
-3.29378 -4.79668 -11.8795
6.99605 5.14811 -3.19925
-5.97453 10.0069 6.36042
2.41939 0.966836 19.0017
1.53656 -7.00254 -11.8365
8.78385 -0.11974 -11.8728
5.47847 8.04855 4.73525
5.74708 -5.78232 -13.6613
-6.17396 10.0137 -1.51537
1.43237 1.16325 -19.0029
11.6727 -9.88526 8.05696
-6.04732 -10.0085 -2.8217
-5.15444 0.842239 17.1141
-6.69413 1.75071 -10.013
1.82273 7.50333 -6.01639
0.994232 1.74743 5.95188
-3.01794 9.89547 9.80269
2.96559 -7.06396 10.1021
-4.77598 -2.26743 -5.55888
-8.11915 -1.07165 9.784
4.65017 -7.99127 5.28088
-1.80422 6.02694 -17.327
4.24395 -6.69658 -10.114
-6.60801 5.41384 -2.56997
11.803 -6.67569 6.65868
1.63513 -9.88289 -6.14925
-6.18269 5.89373 1.08319
-8.08286 -6.09256 0.936497
0.309257 6.84356 13.5202
9.68238 -5.91359 -1.02551
-1.14549 -4.91408 5.23918
2.44151 4.79203 5.97388
11.7392 -2.22001 9.82211
-0.736313 6.53125 15.3301
-2.51014 -5.52076 15.3281
7.01713 -9.91749 3.26564
-4.61168 -8.37901 10.0119
8.79816 -0.128112 -15.4391
-3.23843 -0.803587 5.95843
4.85554 -4.08229 -19.0065
8.27716 2.28591 -18.8482
11.7109 6.13746 -0.312593
4.27006 -8.35477 10.0078
-3.532 -7.69434 -2.74441
-5.204 1.10185 10.1235
8.22543 1.56585 5.79084
-8.09012 9.82921 -6.51026
-3.92604 -9.87461 2.30074
8.75578 -1.55565 10.1614
-3.29817 10.0173 -8.14381
0.316372 -9.88896 5.91281
8.09126 6.41626 10.0018
7.03798 -7.58433 -2.92114
-2.45617 5.69906 10.1161
-2.75066 -2.40255 -5.49462
6.47414 6.60764 -3.7737
3.47649 2.06021 -5.74944
5.93134 -5.80647 -10.1188
-8.09632 2.75467 5.55159
-5.96042 10.0066 2.54571
-6.30687 -3.39129 -10.0097
6.93745 -5.23711 -3.25771
10.1466 -2.40548 10.0058
-0.192832 -10.0095 8.05177
11.5969 -1.79546 -9.89302
-2.8464 -4.99486 -18.8265
2.24326 -9.8501 6.14944
10.1507 -5.39074 -2.61251
-4.03219 10.0076 7.82043
8.21414 3.17652 -10.1235
8.98554 -0.0715183 10.0463
11.8062 5.97804 7.9287
-6.4171 6.40926 -10.0111
9.60919 -5.24152 -10.0025
1.20715 6.97585 15.2424
8.77958 0.648721 13.4128
0.565471 -7.10142 -10.0844
-5.05791 2.05274 -10.1235
-0.953734 -7.87594 -5.32551
1.57097 -7.01245 -17.0876
-5.09765 5.33907 -9.99949
3.02399 -3.10253 -5.8746
8.77879 0.369493 11.7058
7.95494 -0.67701 -5.97761
3.45879 8.30099 -5.75486
-4.10736 -7.98032 0.988389
10.0309 -3.16191 -10.0059
-4.23113 9.84464 1.28367
-2.63366 10.0072 6.60369
1.77467 7.01931 -17.1051
7.35498 9.90635 2.61251
-8.07949 2.98918 9.82278
-8.08414 -0.710508 -6.11383
-5.09056 -1.27047 17.1281
-6.12925 5.9488 -0.796462
4.83376 6.30088 -11.8341
0.312847 2.49375 -5.81204
4.88414 3.16568 -5.17398
8.24926 2.71466 -13.4794
1.21235 -0.406506 5.99857
5.80519 10.0047 -6.58508
11.8046 4.33151 -6.49104
3.37633 -6.83837 11.8771
-4.60974 -3.22094 10.1235
2.0494 7.09819 -10.1015
-4.71071 -2.61615 -17.1095
-4.74955 10.0063 -6.72539
-6.08445 -0.758576 -5.95916
-4.90736 2.02684 11.925
-0.813432 -2.54971 -5.49002
1.08873 -5.00254 19.0053
6.68296 1.73809 -19.0112
2.23932 -7.16997 -10.0692
-0.53585 6.47974 -18.8004
-1.01879 6.24339 18.8947
2.08683 9.89195 -6.08381
11.8054 -7.74932 -2.78568
-5.11603 -1.76362 10.1379
-1.45068 -6.2079 -15.4578
7.93098 -3.0967 -18.8946
-7.99878 -9.9048 -6.45345
2.12726 6.59651 6.01456
11.7125 -5.87136 -1.84796
3.3432 -6.84245 -11.724
6.58499 -0.994562 5.93248
-4.86942 -0.477772 5.99467
5.28524 -6.12171 4.88855
-4.34585 3.59826 -10.1283
8.77103 -0.861583 -17.215
8.36734 -8.13017 10.0082
