-0.270603 -0.524462 -0.720857
-0.644531 0.652204 0.911642
-0.0593347 -0.0455066 0.206523
0.737174 0.0329855 -0.116576
-0.173546 0.372497 -0.883061
0.698494 -0.259476 -0.00541845
-0.691961 -0.73603 0.166652
-0.752196 0.0411202 0.364305
-0.518407 -0.42987 -0.795259
-0.470827 -0.0690741 -0.985706
0.554705 -0.561851 -0.557007
-0.0523711 0.157932 0.812424
0.0722115 0.254673 0.0143687
-0.396876 -0.162379 0.368858
0.722291 -0.0507285 -0.0428295
0.639631 -0.340726 -0.913323
-0.751243 0.209729 0.730525
-0.202026 0.374555 -0.510877
-0.702423 0.074299 0.180161
0.51349 0.336455 -0.417136
0.869078 -0.230761 -0.860921
-0.724059 0.444626 0.595483
0.348633 -0.70585 -0.582489
0.0147041 -0.495134 0.075575
-0.196239 -0.0839423 0.2146
0.0726764 0.113893 -0.9274
-0.37006 -0.589443 -0.22527
0.0654946 0.484868 -0.477778
-0.391081 -0.0708932 0.300491
0.667902 0.1955 -0.59002
0.0508489 -0.646442 -0.848964
-0.410701 -0.421321 -0.977993
-0.84429 0.0138302 -0.0474391
-0.760028 0.216256 0.539318
-0.450312 0.101374 -0.812758
0.123553 0.173396 0.120316
-0.624207 0.729782 0.931027
-0.239461 -0.528828 -0.661329
-0.838516 0.0502612 -0.121949
-0.491249 -0.431843 -0.97698
-0.326814 -0.106367 0.671649
-0.467718 -0.354224 0.567854
-0.907549 -0.431466 0.0611181
0.63567 0.211508 -0.64983
-0.0514163 0.299089 -0.107929
0.711303 0.161777 -0.262971
0.485467 -0.492531 -0.00871128
-0.368973 0.242462 -0.357646
0.21385 -0.649677 -0.818825
-0.329838 0.149675 -0.795927
0.266658 -0.0710277 0.264728
-0.496222 -0.545406 0.217147
0.330536 -0.0666693 0.258913
-0.708658 0.32666 0.80052
0.174294 -0.0717357 -0.94899
-0.907213 -0.18549 -0.364078
0.334959 -0.725184 -0.316602
-0.142233 -0.228272 0.198485
0.528371 0.228954 -0.830938
-0.695448 -0.137497 0.609419
-0.00712162 -0.0917195 0.227751
0.0127011 0.0988869 0.687611
0.327863 0.0920199 0.193722
-0.303992 -0.0997231 0.545805
0.00531904 0.285953 0.814485
-0.219228 -0.379917 -0.971824
-0.585895 0.651884 0.772385
0.378018 0.372366 -0.745036
-0.866716 -0.56711 0.0233486
-0.134659 -0.0353325 0.192227
0.684091 0.132746 -0.115798
0.251304 0.353373 -0.171295
-0.0430814 -0.356986 -0.93535
-0.149755 0.451929 -0.289843
0.204819 -0.698923 -0.187506
-0.3079 -0.0630023 0.503747
0.353634 0.387591 -0.6847
-0.664659 -0.581318 -0.336428
0.236316 0.429943 -0.555189
-0.126311 0.041252 0.171657
-0.949092 -0.168233 0.0673961
0.547428 0.274302 -0.206707
-0.231912 -0.422768 0.11015
0.394659 -0.69472 -0.336748
-0.976677 -0.223963 0.260956
-0.678557 -0.541896 -0.411343
-0.669501 0.045649 -0.542476
0.490062 -0.574569 -0.766067
-0.742879 0.235675 0.598981
-0.0540391 -0.626511 -0.596084
-0.807131 0.00650808 0.410337
0.356853 0.40414 -0.466021
-0.334511 0.185576 -0.538401
-0.851978 -0.489747 0.0195964
0.262584 -0.513607 -0.99433
0.379446 -0.284987 0.24118
-0.464107 0.152448 -0.528888
-0.943589 -0.301569 0.398504
-0.289122 -0.574556 -0.220252
-0.140451 -0.513248 -0.584549
-0.0581297 -0.66463 -0.520805
-0.455236 -0.0285974 0.405538
-0.0431573 0.488992 -0.516826
-0.0688501 0.00784942 0.643513
-0.920146 -0.275991 -0.293299
0.0414714 -0.699175 -0.647173
-0.547976 -0.587808 -0.143526
0.379795 -0.700398 -0.402613
-0.887995 -0.121071 0.0137632
-0.00192253 0.202432 0.850647
-0.0134857 -0.218917 -0.9377
-0.812014 -0.659146 0.381773
-0.196061 -0.293916 0.190451
-0.253992 0.203213 -0.942482
-0.473031 0.191215 -0.457818
-0.467104 -0.408902 -0.626475
0.133414 0.421903 -0.713465
0.216765 -0.503045 0.109105
-0.0829493 -0.424398 0.114974
-0.319558 0.371605 -0.949894
-0.88218 -0.0745008 -0.367306
0.118098 0.124145 0.17147
0.143371 0.29821 -0.117066
0.0150494 0.251301 -0.00687034
-0.661382 0.173499 -0.104415
-0.533436 -0.406678 0.585908
0.399909 -0.642895 -0.204954
0.292597 -0.235401 -0.995521
-0.248333 0.382036 -0.91233
0.228072 -0.599643 -0.86012
-0.415074 -0.0779562 0.367962
0.168918 -0.750084 -0.395579
-0.967177 -0.375899 0.277243
0.0160254 0.170465 -0.926007
-0.855761 -0.669061 0.318344
-0.659407 -0.641996 0.401793
0.19941 0.410754 -0.195064
0.00270419 -0.696514 -0.21131
-0.744212 0.383324 0.536968
0.413917 0.161729 0.111103
0.27189 -0.690183 -0.75982
-0.281755 -0.569484 -0.449571
-0.900161 -0.185217 0.0143228
-0.231693 0.00182675 -0.934495
-0.0265719 0.399361 -0.77617
0.211708 -0.399329 -0.932596
0.0557191 -0.663819 -0.17152
-0.498957 0.110136 -0.873388
-0.377844 0.261651 -0.167004
-0.828814 -0.165851 0.58686
-0.630347 0.0607811 0.394801
0.925937 -0.217099 -0.814977
-0.0526137 0.0501067 -0.929809
-0.741852 -0.209304 0.612449
0.579082 0.288142 -0.413112
0.813697 -0.204293 -0.477471
-0.618289 0.034733 -0.983025
0.557587 0.0964229 0.0692091
-0.875087 -0.0666308 0.0586434
0.668964 0.0839942 -0.871072
-0.882078 -0.36225 0.562715
0.729601 -0.295207 -0.0734111
-0.436198 -0.19083 -0.971942
-0.691852 0.0321719 -0.974585
-0.0686901 -0.706878 -0.889343
0.28379 -0.196543 0.270602
-0.236717 0.112667 0.139748
-0.679499 -0.0320304 0.621084
-0.335473 -0.567634 -0.503208
0.409515 0.275628 -0.0959898
-0.611461 -0.541431 -0.463597
-0.082544 0.496407 -0.453897
0.111571 -0.318542 -0.9377
-0.903134 -0.037357 -0.190075
0.559754 0.143697 0.0167504
-0.598078 -0.100921 -0.645268
-0.693103 -0.548848 -0.108933
0.800044 -0.347635 -0.84263
0.655951 0.106394 -0.791186
-0.262445 -0.254 0.222362
-0.633489 0.555358 0.833271
-0.25166 0.164633 -0.60951
-0.466673 0.10179 -0.664092
0.792858 -0.298719 -0.464996
-0.92704 -0.387582 0.50733
0.0419398 0.292639 0.984209
-0.681304 -0.0106057 -0.866429
0.98779 -0.216634 -0.601766
0.316108 -0.326965 0.242433
-0.451045 -0.259437 -0.723375
0.521753 -0.516903 -0.78885
-0.477513 -0.414909 0.541212
0.280036 0.420981 -0.60377
0.23611 -0.729338 -0.64982
0.122371 -0.177367 0.25793
-0.883554 -0.386441 -0.288857
0.453906 0.345831 -0.760918
-0.579235 0.0925499 -0.901892
0.580961 -0.506813 -0.740754
-0.425823 -0.0126078 0.478041
-0.0872822 0.464339 -0.572648
0.276211 0.176404 -0.9627
-0.182413 0.209143 -0.924051
0.0202403 0.0368771 -0.930001
0.538881 0.27945 -0.708253
-0.969417 -0.239567 0.0755777
0.109772 0.385287 -0.825436
0.408125 -0.566977 -0.913047
-0.575475 0.0993538 -0.972882
-0.472858 -0.457944 0.333927
0.969188 -0.271348 -0.645612
-0.768648 0.357862 0.792892
0.703023 -0.367396 -0.0890904
-0.615641 -0.00298366 -0.826541
-0.0632564 0.496433 -0.389893
-0.464626 -0.259586 -0.818582
-0.491099 -0.0998591 0.6547
-0.202476 0.422792 -0.436064
-0.166947 -0.34152 -0.940968
-0.331819 0.19001 -0.981389
0.478022 -0.00544398 0.187884
0.820919 -0.129839 -0.495126
-0.194102 0.362112 -0.268819
-0.444098 -0.439518 -0.681698
-0.327109 0.209803 -0.476001
-0.654282 -0.426445 -0.96223
0.757553 0.0927655 -0.265314
-0.491059 -0.347763 -0.80453
-0.191789 -0.496845 0.0062733
-0.680491 0.253558 0.766529
-0.731502 0.362743 0.597761
0.171164 -0.739481 -0.540231
-0.747852 0.0389738 0.446072
-0.0823422 0.333929 -0.977421
-0.88687 -0.160137 0.543964
0.457463 0.360778 -0.371921
0.0569407 -0.272484 -0.938599
-0.646146 -0.601256 -0.268424
-0.789539 -0.705412 0.179615
-0.164886 -0.418773 -0.934443
-0.407059 0.198277 -0.461196
-0.808943 0.475231 0.805389
0.661371 -0.15813 0.0561945
0.866879 0.0706196 -0.735181
-0.793126 -0.729201 0.263542
0.153559 -0.463772 -0.934818
-0.535357 0.178452 -0.490716
-0.912009 -0.159764 -0.0480351
-0.150762 0.19742 0.0507032
-0.715818 0.290953 0.504665
-0.155663 -0.411501 0.10635
-0.846395 -0.0983462 0.546302
-0.910658 -0.126375 -0.323499
0.157332 0.403558 -0.769164
-0.686774 0.091736 0.0556823
-0.742014 0.595152 0.843735
0.125023 0.450918 -0.230145
0.00427138 -0.0801117 -0.934148
-0.109589 0.0985343 0.84886
0.32773 0.359511 -0.81225
0.467396 0.0512462 0.163024
-0.578876 -0.639779 0.140751
-0.661435 0.128512 -0.484968
-0.673592 -0.578356 -0.165725
-0.370618 0.28013 -0.879044
-0.32964 -0.391992 0.136658
0.0531447 -0.549954 -0.971011
0.299441 0.420467 -0.534591
-0.822942 0.0720968 -0.347754
0.428042 -0.238148 0.231844
0.41559 -0.640658 -0.670849
0.229749 -0.0832288 -0.994724
-0.58567 0.36321 0.588683
-0.72672 -0.0626649 -0.892343
-0.131675 0.367724 -0.716148
-0.201143 0.21813 0.013773
0.668043 -0.31261 0.0274755
0.153084 0.0336963 -0.929872
0.345682 -0.565974 -0.985239
-0.664479 -0.488884 0.56491
-0.590761 0.710789 0.721262
-0.508198 -0.153761 -0.73379
0.665474 0.238779 -0.340129
-0.598737 0.0381672 0.572887
-0.224103 -0.59343 -0.249432
-0.601166 0.440741 0.751206
0.275188 -0.745406 -0.34684
-0.548538 0.164955 0.0628182
0.451638 -0.157164 0.22406
-0.855762 -0.185591 -0.438099
0.852951 -0.342527 -0.795322
0.225204 -0.734038 -0.585322
0.0590809 0.154831 0.12958
0.810313 -0.199748 -0.402829
-0.788257 0.103649 -0.117967
-0.682998 -0.50528 -0.470527
0.805968 -0.263502 -0.410071
0.4081 -0.448924 0.124198
-0.779263 0.0230015 0.0726125
-0.19063 -0.585362 -0.808935
-0.113776 0.223422 -0.933316
-0.500887 0.137244 0.123104
-0.16422 0.444942 -0.490039
0.398654 -0.39956 0.183285
-0.924593 -0.0782786 -0.272806
0.474379 0.364015 -0.553093
-0.574741 0.366629 0.658487
-0.571492 -0.522633 0.397314
-0.642673 0.0879606 0.101982
-0.833088 -0.128773 -0.480822
0.442871 0.337598 -0.258596
-0.111159 -0.12715 -0.935357
-0.906008 -0.259606 -0.358939
0.396566 -0.611824 -0.125048
-0.79361 -0.498962 -0.162476
0.483765 -0.527755 -0.927149
0.0507962 -0.0246269 -0.932588
0.170837 -0.700742 -0.684463
-0.914905 -0.431198 0.375623
0.439832 -0.262177 -0.99393
-0.929497 -0.144453 -0.108753
-0.827318 -0.207405 -0.495647
-0.374018 -0.371521 -0.984944
-0.155814 -0.5276 -0.961011
0.169283 -0.607946 -0.863315
0.542646 0.15801 -0.845106
-0.774508 0.09117 -0.407924
-0.886848 -0.326573 -0.333591
0.539591 0.198687 -0.0456644
-0.62524 0.523927 0.603012
-0.541738 -0.5784 0.166785
-0.689738 0.575274 0.576142
-0.0944304 -0.685185 -0.304147
-0.855784 -0.411323 -0.0743275
0.43176 0.105546 0.147707
-0.55257 -0.272488 0.607895
-0.505967 -0.187197 -0.799846
-0.740676 0.29699 0.629147
-0.757817 0.0549577 0.290952
-0.388915 0.161734 -0.581818
0.535838 -0.375476 0.127224
-0.479424 -0.286395 0.585283
0.126519 -0.751825 -0.460547
0.051653 -0.749054 -0.311588
-0.676932 -0.541714 0.00344246
-0.609951 -0.562993 -0.898173
-0.228258 0.356721 -0.448335
-0.501313 0.0960038 -0.590766
-0.108051 -0.624146 -0.244264
0.132075 0.485939 -0.35369
0.397636 -0.549721 -0.0604623
0.921609 -0.277898 -0.783761
-0.183014 -0.0209014 0.579378
-0.45578 -0.354806 0.499536
0.19179 0.137031 0.151587
-0.761765 0.0559064 0.139494
0.638412 -0.463592 -0.739195
0.808706 -0.0834074 -0.334215
0.594866 0.131802 -0.796416
0.615123 -0.512678 -0.672003
-0.205559 -0.649095 -0.866388
-0.815539 -0.370508 0.586215
-0.199487 0.286448 -0.632569
0.412851 -0.317827 -0.994812
-0.564465 -0.0866247 0.596313
-0.321592 0.156077 -0.598368
0.658082 -0.428692 -0.0910668
0.707762 -0.204878 -0.948618
0.214536 0.136004 -0.927869
-0.441639 0.212702 0.0175088
0.308578 0.245204 0.040675
0.639996 0.237311 -0.429134
-0.452266 -0.486324 0.250179
0.0764089 -0.093994 -0.935117
0.384448 0.0418337 -0.995201
-0.184991 -0.360899 0.148332
-0.626739 0.370838 0.531634
0.161606 -0.48165 0.132975
-0.0691378 -0.0822761 -0.934146
0.330721 0.279408 -0.982117
-0.809743 -0.631252 0.033827
-0.95519 -0.150906 0.281533
-0.822024 0.0940912 -0.189845
0.76037 -0.369214 -0.453139
-0.753344 0.303828 0.549844
-0.95079 -0.570571 0.22926
-0.856019 -0.523772 0.485684
0.488419 0.354565 -0.484987
0.665657 -0.229357 0.0478544
-0.0200084 0.234152 0.745935
-0.685981 -0.680269 0.348255
0.393762 0.313693 -0.191793
-0.388849 -0.558404 -0.833424
0.508089 -0.0734888 0.186493
-0.10847 -0.534196 -0.670773
0.00799664 0.1864 0.786725
0.0732323 0.297269 0.909521
0.627805 0.153849 -0.735544
-0.0247099 -0.165561 0.228079
-0.615102 -0.50737 -0.850336
0.339447 0.407526 -0.333319
0.926359 -0.328991 -0.654757
0.565704 0.0504172 -0.939942
0.106424 -0.716045 -0.673126
0.743283 -0.266322 -0.919046
0.114357 -0.634343 -0.880105
0.66334 -0.088435 0.0492107
-0.433254 -0.468199 -0.606915
0.635765 -0.371862 0.0291452
-0.509391 -0.542495 -0.802977
-0.898154 -0.013851 -0.244268
-0.496036 0.0149807 0.387019
0.755139 -0.285791 -0.141078
-0.650475 0.193752 -0.165785
-0.57725 0.0399266 0.501744
-0.775726 0.174836 0.609311
-0.20071 -0.593193 -0.980503
-0.442899 -0.297956 0.444314
-0.398516 0.227074 -0.0292458
-0.47649 -0.0405144 0.66729
0.754075 -0.0365015 -0.10506
-0.134214 0.0497373 0.891046
0.403344 0.0336192 0.204855
0.421327 0.38832 -0.507945
0.535217 0.236532 -0.10675
-0.311726 0.111505 0.661076
-0.510461 0.0678162 -0.814749
0.693473 -0.12865 -0.96282
-0.573158 -0.178773 -0.828895
0.616971 0.0996297 0.0200032
-0.75433 -0.51069 -0.100501
-0.532727 0.128968 -0.536972
0.680665 -0.0285147 0.0134047
0.805896 -0.225779 -0.336435
-0.495406 -0.23842 -0.983673
-0.0487752 0.254462 0.809888
-0.0955836 0.371239 -0.775611
-0.605557 0.154187 0.650716
0.505638 0.152222 0.0635344
-0.263227 -0.502807 -0.00766104
-0.292622 0.0176007 -0.955423
-0.222288 -0.562186 -0.397862
-0.360869 -0.197804 0.293668
-0.769234 0.141256 -0.176148
0.279818 -0.421484 -0.937545
-0.945584 -0.270614 -0.229135
-0.720772 -0.64146 0.435098
-0.881511 -0.0267377 -0.0859089
-0.205176 -0.529858 -0.0538122
-0.210462 0.210099 -0.760295
-0.747711 0.0639331 0.035598
0.769917 -0.340732 -0.524343
-0.65502 0.310545 0.500144
-0.635915 0.0558385 -0.874755
-0.534605 -0.50719 0.511057
-0.126212 0.243105 0.00186889
0.533889 -0.0185474 0.154574
0.807978 -0.0567715 -0.478868
0.146836 -0.72657 -0.22094
-0.801635 -0.574179 0.480407
0.185294 0.270135 -0.990152
0.0867065 0.187568 -0.928948
0.202681 -0.697356 -0.772478
-0.6048 -0.14583 0.604033
-0.920535 -0.510934 0.0479026
0.325719 0.352558 -0.193165
0.862168 -0.0791501 -0.514458
-0.580258 -0.620436 -0.270709
-0.14372 0.20063 0.837595
0.0235856 0.100618 0.149873
-0.360169 0.0260365 0.774123
0.397288 -0.0980021 0.245014
-0.46613 -0.366059 -0.704917
-0.476254 -0.511275 0.0139993
0.586723 -0.246101 0.131157
0.705417 -0.106825 -0.00963618
0.23801 -0.746373 -0.404227
-0.11773 0.35417 -0.832813
-0.769802 0.507344 0.865964
0.26383 -0.561175 -0.0861535
0.438522 -0.678145 -0.385598
0.258725 0.376398 -0.790791
-0.262749 -0.389338 0.153944
-0.551249 -0.377242 -0.828632
-0.821475 -0.42006 -0.403503
-0.895464 -0.0331482 -0.317767
-0.246992 -0.555189 -0.82722
0.256778 -0.655755 -0.160422
-0.324525 0.25803 -0.123022
0.767888 -0.00401088 -0.164005
-0.772795 -0.537129 0.522132
0.248991 -0.300423 0.253449
-0.347813 0.226602 -0.824772
-0.215034 0.168726 0.088029
-0.635209 0.738641 0.812473
0.549271 -0.492135 -0.0401873
-0.264721 0.210513 0.0382478
-0.433461 -0.479292 -0.976848
-0.0390596 0.277567 -0.0356059
0.556808 0.257837 -0.766997
-0.229176 0.37461 -0.384537
0.696566 -0.45445 -0.210418
0.114347 -0.637384 -0.969604
0.508905 -0.595848 -0.593279
-0.681115 0.194749 -0.279165
-0.416151 -0.305686 0.365836
0.180338 -0.31724 0.248474
-0.863519 -0.678578 0.176642
-0.413591 -0.525748 -0.539163
-0.264082 0.231298 -0.472669
0.329373 -0.608067 -0.134831
0.246097 0.447263 -0.408285
-0.598133 -0.605288 -0.33479
-0.401146 -0.596132 -0.155484
-0.732414 -0.275507 -0.576541
-0.188031 0.0288673 0.866809
0.526724 -0.4556 0.0271493
-0.735922 -0.597679 0.48404
0.0317605 0.385617 -0.814737
0.0355114 0.334741 -0.937703
0.103718 -0.758573 -0.379191
0.439217 0.231075 -0.923381
-0.772281 0.421733 0.818275
0.255068 0.261462 -0.0160265
0.782862 -0.244725 -0.194801
0.0197362 -0.456114 -0.930438
-0.542539 -0.150962 -0.669931
-0.611981 -0.0299391 -0.625059
-0.289725 0.174389 0.0867974
-0.126735 -0.474126 -0.92987
-0.0583765 0.259566 -0.98518
-0.419664 -0.116048 0.676222
-0.0166097 -0.403058 0.155029
-0.643034 -0.459208 -0.892634
-0.00334453 0.430092 -0.718539
0.802798 -0.0307181 -0.396209
-0.171655 0.0967842 0.595363
0.606787 0.0439244 0.0690451
-0.421608 -0.015911 -0.984431
-0.447809 -0.502801 0.178994
-0.00252876 -0.535359 0.0110908
-0.312229 0.0699007 0.799523
-0.439176 0.254888 -0.328556
-0.614694 -0.70289 0.148193
0.866115 -0.114425 -0.870566
-0.619501 0.0804329 0.153599
-0.689756 -0.155873 -0.619339
0.446907 0.0689859 -0.974513
0.218227 0.0642341 -0.929865
0.389101 -0.656877 -0.721628
0.573573 -0.562971 -0.197864
-0.745003 0.168635 -0.308148
-0.741507 -0.600948 0.00723343
-0.0359887 -0.722593 -0.282837
-0.963176 -0.538801 0.107692
0.271256 -0.704616 -0.213614
-0.578445 0.158686 0.572677
0.794993 -0.124238 -0.209259
-0.782504 -0.169126 -0.530015
-0.920426 -0.0606623 0.142315
-0.623138 -0.555552 -0.961373
0.963509 -0.220632 -0.75282
-0.618912 -0.573808 -0.399798
-0.537336 0.0461805 0.352509
0.597222 -0.485967 -0.100028
-0.629391 0.197044 0.709615
-0.657193 0.18403 0.466148
-0.509265 -0.501657 -0.9767
-0.29689 0.143707 -0.940342
-0.00444454 0.18924 0.684196
-0.687393 -0.690142 0.0544548
-0.685316 -0.3266 0.613853
-0.316303 0.0773155 -0.951756
0.799021 -0.0175936 -0.54002
-0.549601 -0.616324 -0.891079
-0.114365 0.129943 0.628063
0.660398 0.0387462 0.00900358
0.136753 -0.747078 -0.31945
-0.379698 0.0684014 0.66677
-0.325598 0.226781 -0.000871857
0.0125799 0.498886 -0.385838
-0.948367 -0.311647 0.46849
0.729967 0.0462641 -0.885689
-0.467204 0.0248672 0.310188
-0.0972756 -0.308731 -0.937638
-0.432869 0.145844 0.137975
-0.392598 0.25488 -0.0959377
0.502726 0.079356 -0.930348
0.500947 0.331896 -0.698718
-0.882455 -0.628655 0.0574975
-0.273348 -0.586872 -0.297919
-0.509154 -0.600528 -0.842461
-0.638705 0.41158 0.793317
-0.0481549 0.0765953 0.167196
0.153515 0.329648 -0.872522
0.877473 0.033492 -0.790381
-0.603868 0.0934636 0.611657
0.948008 -0.281415 -0.581401
0.336816 -0.179332 -0.990896
0.694232 0.0715951 -0.0806161
0.609687 -0.387494 -0.866561
-0.59069 -0.557146 0.325847
-0.401315 -0.0842977 -0.986615
-0.545253 -0.301882 -0.98128
-0.62393 -0.492862 -0.515602
0.33051 -0.138668 0.266274
-0.670367 0.150093 -0.0484189
-0.600216 0.13879 0.473261
-0.679452 -0.0101144 -0.586437
0.201147 0.421318 -0.690283
-0.217405 0.202453 -0.671604
0.315054 -0.460547 -0.985254
-0.820448 -0.485251 0.536301
-0.632349 -0.364711 -0.917236
-0.135602 -0.0342939 0.638392
0.687756 -0.407568 -0.722758
-0.643894 0.206256 -0.229329
-0.218791 0.256237 -0.976767
0.00920197 -0.623766 -0.793155
-0.697067 0.358598 0.508735
0.467008 -0.616166 -0.236454
0.254644 0.344021 -0.844105
0.0330326 0.495867 -0.322875
0.194512 -0.144586 -0.983253
-0.227495 0.150649 -0.923496
-0.413295 -0.491611 0.0372504
-0.996565 -0.29518 0.187006
-0.430392 -0.616591 -0.284563
0.421275 -0.509889 -0.00294828
0.109944 0.345991 0.811878
0.806094 -0.143175 -0.281444
-0.480503 -0.202232 -0.696881
-0.585964 -0.459004 -0.562089
-0.6067 -0.620407 0.274768
-0.233964 0.24983 -0.53808
0.538511 -0.602739 -0.236638
0.727113 0.0951111 -0.827585
0.007561 -0.0188041 0.215561
0.000587121 0.300076 0.943561
-0.260549 0.0684257 0.560798
0.501088 0.27785 -0.147319
-0.141642 0.171496 0.889658
-0.532681 -0.338846 0.59812
-0.24463 -0.0190748 0.710645
-0.839864 -0.055482 0.42663
-0.93084 -0.332174 -0.176724
0.576691 -0.589597 -0.316022
0.812602 -0.1448 -0.427715
0.376455 -0.428956 -0.993983
-0.520697 0.246152 -0.151319
-0.671516 -0.588842 0.487087
0.639664 -0.170753 -0.978472
0.667526 0.158243 -0.676743
-0.125716 -0.513409 -0.00736498
0.249733 -0.358891 0.231019
-0.697741 0.523418 0.867026
-0.921851 -0.0847977 0.285552
-0.415152 0.18012 0.0735466
-0.00234628 -0.513859 -0.93295
-0.190431 0.376189 -0.961909
0.0976536 0.328111 -0.948242
0.277957 0.43068 -0.278335
-0.58703 -0.499227 0.552672
-0.555707 -0.555298 0.266034
0.267914 -0.0059082 0.250319
-0.653761 -0.677887 0.28281
0.212836 0.439336 -0.25839
-0.590127 0.753591 0.772167
-0.194754 0.0336911 0.745296
0.38494 0.363055 -0.240004
-0.726061 0.167199 0.486118
-0.257334 -0.567877 -0.143509
-0.59673 0.172604 0.00346716
0.0271488 0.290031 -0.990251
-0.268656 -0.53816 -0.0820004
0.0613266 -0.655347 -0.926118
0.955252 -0.0109342 -0.675125
-0.652596 0.0218154 0.629805
-0.623375 -0.16766 -0.647864
0.236334 0.240998 0.0617694
0.538186 0.314204 -0.354062
-0.865626 -0.671204 0.105938
0.519736 -0.404251 -0.951509
0.67063 -0.504363 -0.45008
0.676372 0.0277286 -0.933311
-0.155372 -0.496034 -0.648716
-0.853983 -0.0972545 0.481096
0.0495678 0.281971 0.763818
0.508278 0.182047 0.00658753
0.858166 0.0760986 -0.667884
-0.441707 -0.547955 -0.977988
-0.580025 0.707755 0.811837
0.331486 -0.580247 -0.915008
0.360826 0.409858 -0.549202
0.842696 -0.349466 -0.61448
-0.125936 -0.295124 0.171389
0.251361 0.110371 0.182724
0.701718 -0.460441 -0.496469
-0.58265 0.237637 0.557467
0.70515 0.129667 -0.628662
-0.649961 0.33218 0.779812
-0.615184 0.134361 0.0589417
-0.79619 -0.511705 -0.279536
-0.0650521 -0.632958 -0.984368
0.78061 0.0304102 -0.385228
0.440842 0.297182 -0.820216
-0.708351 0.659432 0.871465
-0.52292 -0.394731 -0.614743
-0.666065 0.11525 0.446244
-0.135121 -0.69575 -0.880212
0.525117 0.319726 -0.557263
-0.1405 0.262545 -0.98151
0.0260238 0.480088 -0.537237
-0.703376 0.0776893 0.256027
-0.914721 -0.0444888 0.22283
-0.676738 -0.617542 0.0228695
-0.775236 0.0117838 0.494927
0.420771 0.382985 -0.580443
-0.310893 0.130625 -0.665547
0.114056 -0.111586 0.254345
-0.598906 0.0783004 0.448885
-0.402818 -0.178243 0.509316
-0.157046 0.0541461 0.80886
0.798813 -0.242484 -0.272101
-0.435765 -0.390634 0.346952
0.202984 -0.577495 -0.117275
-0.0210842 0.330743 -0.971191
0.268212 -0.725925 -0.278382
0.545877 -0.0084299 -0.980087
-0.729315 0.459767 0.849046
0.741178 -0.161909 -0.06892
-0.0744689 -0.235325 0.205851
-0.839616 -0.458487 -0.291756
-0.68679 -0.226075 -0.618725
-0.836821 -0.263494 -0.463962
-0.657826 -0.719656 0.103827
-0.212827 -0.532324 -0.594861
-0.939151 -0.272698 -0.150943
-0.489009 -0.533486 0.133949
0.700918 -0.412526 -0.153401
0.106214 -0.7349 -0.525592
-0.597204 0.192514 0.504572
-0.627764 0.093565 -0.534325
0.811189 -0.092766 -0.406455
-0.59728 -0.0707212 -0.983107
0.679665 -0.292548 -0.936434
0.692868 -0.336894 -0.0292034
0.605191 0.271011 -0.477892
-0.660743 -0.194417 0.613797
-0.499053 -0.0105814 -0.9844
-0.487316 -0.0143268 0.462511
-0.475053 0.0766218 -0.752015
-0.573075 0.292689 0.615126
-0.431375 -0.235476 0.483149
-0.306612 0.138899 0.144731
-0.0263427 0.350746 -0.908575
0.671129 -0.46873 -0.67648
-0.568464 -0.431177 -0.97669
-0.160427 0.198109 0.763098
-0.623669 0.275849 0.735621
-0.106908 -0.37929 -0.935564
-0.8558 -0.424098 0.552142
-0.429909 0.224178 -0.400401
0.403356 -0.676066 -0.603193
-0.185175 0.262567 -0.0430489
-0.913702 -0.0784546 -0.133402
0.738067 0.0893165 -0.571195
-0.666014 -0.0905647 -0.617434
-0.0728169 0.0762917 0.609001
-0.257415 0.11959 0.81498
-0.15235 -0.651306 -0.827969
-0.705328 -0.433817 0.588495
0.0817357 0.00340822 0.227813
0.787296 -0.0628091 -0.186258
-0.0604082 0.0142639 0.191444
-0.579163 0.0789089 0.206223
0.475818 0.123492 0.107819
0.332383 0.0188966 0.233716
-0.889356 -0.399486 -0.147695
-0.733307 0.099771 0.472606
0.459383 0.212154 -0.00974122
-0.937382 -0.434608 0.306495
0.579295 0.278212 -0.547527
-0.268265 -0.585368 -0.370021
0.897464 -0.324569 -0.591258
-0.46004 -0.368284 -0.981203
-0.541209 -0.50371 0.339888
0.637223 0.230104 -0.524285
-0.710877 0.529564 0.706047
0.996822 -0.141633 -0.634526
-0.729158 0.450326 0.535059
0.0784687 -0.52456 0.0552008
0.770811 -0.312636 -0.206044
0.81417 0.080492 -0.795932
-0.170628 -0.561449 -0.375327
-0.926855 -0.364195 0.405725
-0.941121 -0.152044 -0.251869
-0.631232 -0.598616 0.447363
-0.790415 0.132507 -0.251597
-0.310716 0.262841 -0.324883
-0.739027 -0.729072 0.223911
-0.196733 -0.00325655 0.672554
-0.198862 0.0418962 0.560293
-0.502322 0.120728 -0.979862
-0.47697 -0.499096 -0.557589
-0.90823 -0.09363 0.351436
-0.670628 0.684689 0.819408
-0.746588 -0.367532 0.603219
-0.386067 -0.139792 -0.964996
-0.311208 -0.160874 -0.96458
0.266913 -0.594807 -0.136626
-0.990092 -0.238243 0.186789
-0.7043 0.173468 -0.179085
0.179415 0.346839 -0.152579
0.0884226 -0.500691 -0.943204
-0.845023 -0.701952 0.243071
0.634099 -0.287406 0.0800897
0.583848 0.256593 -0.662153
-0.183858 0.446345 -0.36866
-0.0063224 -0.706225 -0.535638
-0.556698 -0.585663 -0.393536
-0.209335 -0.51261 -0.774597
0.199776 -0.44547 0.169519
-0.623381 -0.244373 -0.642955
-0.637932 0.0768401 0.292033
-0.696813 -0.443349 -0.515703
-0.382333 -0.516927 -0.612449
0.308742 0.326491 -0.87943
0.683946 -0.496678 -0.267938
0.0178397 0.34147 -0.861937
-0.352536 -0.0395334 0.250943
-0.426505 -0.0509222 0.713227
-0.464954 -0.313072 -0.754864
0.157497 -0.267738 -0.939
0.598976 -0.293091 -0.957904
0.404496 -0.174606 -0.983253
-0.759467 0.144292 0.546938
0.319645 -0.722172 -0.393593
-0.246981 -0.00680903 0.530421
-0.361559 -0.0330876 0.474472
0.357767 -0.515851 0.00538241
0.241066 -0.73904 -0.513067
0.0656328 0.422657 -0.190595
-0.628433 -0.543036 0.523051
0.480707 0.17698 -0.880069
-0.076713 0.405782 -0.198537
0.358333 0.259973 -0.0695466
0.431275 0.28923 -0.886676
-0.967373 -0.494948 0.175585
0.577637 -0.589891 -0.407051
-0.0952908 0.0851761 0.920639
0.31789 0.0114979 -0.996765
-0.254518 0.243898 -0.0339384
0.26489 0.0449553 -0.975284
0.21344 -0.546083 0.0375614
0.197019 -0.00848977 -0.940653
0.0711972 0.227141 0.78834
0.787762 0.0521095 -0.853128
0.981962 -0.224291 -0.681784
-0.484197 -0.347076 -0.650764
-0.176113 0.320833 -0.222177
0.551013 0.317305 -0.483425
0.153767 -0.520416 0.0736589
0.539434 -0.329585 -0.961747
0.494447 -0.433191 0.103794
0.28689 0.276165 -0.0850928
-0.519674 0.0505222 0.28796
-0.437063 -0.61205 -0.962547
-0.311983 0.0020338 0.503948
0.368974 -0.243222 -0.990956
-0.554168 -0.219923 -0.668753
0.165594 0.325214 -0.952842
-0.339509 -0.528972 -0.735645
-0.311308 -0.367971 -0.983113
0.717142 -0.448443 -0.323707
-0.283996 -0.554847 -0.616215
-0.55567 -0.2856 -0.652968
-0.204799 -0.461755 -0.959291
-0.449689 -0.604069 -0.861761
-0.0887915 0.182996 0.939531
0.152131 0.215919 0.062708
-0.160254 -0.0251611 -0.931303
-0.41518 0.258239 -0.235061
0.63747 -0.0859536 -0.979467
-0.0843885 -0.673735 -0.822453
0.356749 -0.216034 0.259133
0.590112 -0.527669 -0.150989
0.691367 -0.478991 -0.391061
-0.634509 -0.567064 0.0279991
0.733217 -0.00795675 -0.925244
0.377444 -0.350251 0.220582
-0.417934 0.217013 -0.9743
-0.865585 -0.620274 0.37573
0.0878703 0.0423122 -0.929994
0.089801 -0.437917 -0.931817
-0.748699 -0.670981 0.0480833
-0.408215 -0.120312 0.418153
0.728438 0.155709 -0.374512
-0.980583 -0.198997 0.133833
0.0740852 0.350793 0.946909
0.915931 -0.0956155 -0.825811
-0.740197 -0.00699818 -0.518366
-0.198917 -0.497683 -0.706329
0.368019 0.205657 0.0771772
-0.117257 -0.614129 -0.786626
-0.666544 -0.064804 -0.827471
-0.629695 -0.179515 -0.977938
-0.444569 -0.223845 0.557972
-0.738842 -0.128742 -0.918348
-0.372515 -0.515607 -0.978874
-0.525382 -0.504044 0.0586671
-0.125002 0.365722 -0.940521
0.592864 -0.467089 -0.792632
0.434559 -0.477657 -0.991664
-0.316672 0.287208 -0.830606
-0.581199 -0.0542186 -0.79889
0.466111 0.131304 -0.927783
-0.73837 -0.72342 0.117918
-0.949609 -0.50267 0.252334
-0.318523 -0.112018 0.602988
0.870664 -0.366979 -0.676223
0.460218 -0.580031 -0.104532
-0.791024 -0.704139 0.329823
0.71183 0.155481 -0.552649
-0.474861 -0.421795 0.400679
-0.934254 -0.581808 0.0737606
0.108637 0.285032 -0.987769
0.0911367 0.478403 -0.302022
-0.550875 -0.556525 0.104259
-0.0767217 0.187796 0.0729495
-0.559983 -0.541789 -0.975399
0.714857 -0.436801 -0.572189
0.433012 -0.0733499 -0.982875
-0.57088 -0.608485 0.217168
-0.282069 -0.527051 -0.786451
0.44027 0.191213 0.0562251
-0.723621 -0.561283 -0.28946
-0.0969412 -0.172624 0.209579
-0.527565 0.201632 0.00143534
0.499516 -0.0626531 -0.997879
-0.77033 0.0973854 0.622301
0.482157 0.335153 -0.314533
0.220047 -0.21271 -0.990383
0.210782 0.203421 -0.972189
-0.139053 -0.189672 -0.941492
-0.690417 0.191233 -0.349262
-0.726903 -0.718644 0.300591
-0.677815 0.663335 0.675009
0.411746 0.373155 -0.641528
-0.818194 -0.0363057 0.487607
0.375132 -0.362773 -0.992361
0.328128 -0.379714 -0.955974
0.203289 0.461027 -0.340636
-0.270622 0.164481 -0.783241
0.304194 0.204479 0.0980837
-0.259475 0.0442416 0.844784
-0.925378 -0.635833 0.128853
-0.100785 0.228343 0.790707
0.153614 0.174456 -0.927995
-0.117403 0.481669 -0.338349
-0.989528 -0.344757 0.223338
0.0555872 0.32902 0.824735
0.19082 0.257725 0.00914384
-0.611302 -0.321045 0.613169
-0.277436 -0.469981 0.0535414
-0.213916 0.317974 -0.98788
-0.844054 -0.405494 0.0150008
-0.0932994 -0.361615 0.151238
0.298311 0.310759 -0.941818
-0.822508 -0.477708 -0.219348
0.608751 0.267015 -0.350756
0.531475 -0.493576 -0.846023
0.0197125 0.235931 0.930877
-0.0876144 -0.607443 -0.539094
-0.985751 -0.355474 0.145817
-0.0210454 -0.286588 -0.9377
-0.876732 -0.0289578 0.300854
-0.665157 0.47041 0.827319
-0.0200142 -0.671049 -0.835661
-0.359336 -0.315862 0.25128
0.676975 0.0995349 -0.729818
0.688499 -0.0500199 -0.956696
0.0410323 0.231743 0.714911
0.794605 -0.0169888 -0.894377
-0.577106 -0.205319 0.610101
-0.1498 -0.266704 -0.943864
-0.746249 -0.681485 0.379924
-0.420915 0.131352 -0.878115
0.0654118 -0.551167 0.00506987
-0.0699338 -0.514157 -0.934325
0.863141 -0.0164993 -0.54687
-0.854778 -0.0206005 -0.402498
0.988321 -0.154183 -0.568813
-0.772112 0.390893 0.714469
-0.386168 0.122999 -0.806222
-0.177422 0.120346 -0.927387
-0.328308 -0.545011 -0.821975
0.468583 -0.208381 -0.978904
0.620823 -0.00665287 -0.963773
0.235635 0.31323 -0.967745
0.739864 -0.400781 -0.51927
0.0468273 -0.724374 -0.497262
0.2715 -0.514512 0.0815294
0.672536 -0.511566 -0.338332
-0.374445 -0.142369 0.627948
-0.957313 -0.41744 0.129277
0.293032 0.441619 -0.469329
-0.344265 -0.585841 -0.2826
0.458599 -0.607382 -0.171793
-0.301293 -0.00971545 0.804555
0.165549 -0.577514 -0.0487
-0.829923 0.0792377 -0.270277
-0.905564 -0.381178 -0.217436
-0.701389 -0.576305 -0.227059
-0.520916 0.12624 -0.930581
-0.697388 -0.182612 -0.960278
-0.138977 -0.598213 -0.981538
0.464969 -0.133152 -0.981633
0.795246 -0.367831 -0.652019
-0.572093 0.118414 0.110309
-0.907476 -0.566042 0.360963
-0.565907 0.0798404 -0.565392
-0.157147 -0.587694 -0.259157
0.660054 0.0986901 -0.0400525
-0.440871 0.263166 -0.154544
-0.444307 -0.54309 -0.0324123
0.275446 -0.585832 -0.97975
-0.577593 -0.142032 -0.98284
0.0130095 -0.662298 -0.976745
0.229042 -0.462295 -0.952122
-0.885968 -0.108529 0.415705
-0.616528 0.501935 0.789364
-0.210782 0.31768 -0.565326
-0.252666 0.300795 -0.310309
0.0611916 -0.0621305 0.239246
0.35588 0.296528 -0.133599
-0.60442 -0.290802 -0.963941
-0.37852 0.0263509 0.527352
0.019613 0.0442184 0.192065
0.844906 0.0112644 -0.844426
-0.348536 -0.544262 -0.572069
-0.0211191 -0.749846 -0.338815
-0.549724 -0.341524 -0.630988
0.371046 0.32258 -0.870701
0.798238 -0.268158 -0.526977
0.147349 0.0227964 0.233997
-0.775831 0.525181 0.807247
-0.288206 0.125401 0.742528
0.067447 0.418826 -0.758636
-0.336586 -0.106829 0.256605
-0.623718 -0.257147 0.614329
0.531899 -0.532796 -0.0947497
-0.278289 -0.0603525 0.643603
-0.102294 0.115698 0.782611
0.543156 -0.552662 -0.713373
0.33907 0.399569 -0.257654
-0.594305 0.302221 0.542912
0.625781 -0.54646 -0.376425
-0.0495584 0.336697 -0.169298
-0.463575 -0.13116 -0.980507
-0.965934 -0.579381 0.163151
-0.326399 0.0295862 0.229562
0.704137 0.0141121 -0.0481473
-0.206676 -0.454334 0.0576614
-0.0242243 0.182069 0.917942
0.376616 -0.0278151 -0.989519
-0.736627 -0.465431 -0.467268
-0.477044 -0.304218 -0.982554
0.673186 0.183843 -0.482249
0.300384 -0.723729 -0.629001
-0.186094 -0.16137 0.21575
-0.367566 -0.590293 -0.961874
0.906608 -0.161208 -0.840067
-0.302643 -0.240652 -0.965891
0.205577 -0.0416379 0.257676
-0.689071 0.699151 0.942664
0.284643 -0.653027 -0.819036
0.173813 0.466103 -0.412606
-0.18046 0.36028 -0.617804
-0.342618 -0.297722 -0.970882
-0.535353 0.253243 -0.229982
-0.801987 -0.675807 0.103186
-0.506641 -0.589244 -0.975424
0.313515 -0.116512 -0.991541
-0.595405 0.0621382 0.337885
-0.889728 -0.650137 0.252914
-0.204352 -0.55167 -0.460409
-0.775975 -0.515202 -0.33389
-0.248408 -0.0696943 0.574129
-0.151271 0.102196 0.141424
-0.897848 -0.0921784 -0.0594784
-0.224551 0.231398 -0.601678
-0.773103 -0.492165 -0.0208974
-0.781849 -0.431793 0.577686
0.244966 0.181615 0.118366
-0.583806 -0.521058 0.0369241
0.724642 0.113968 -0.21668
0.680738 0.15787 -0.19182
-0.588105 -0.44228 -0.823407
-0.814108 -0.00865764 -0.463253
0.396318 -0.481602 0.0617356
0.069217 -0.653243 -0.792224
-0.0779326 -0.105608 0.211968
-0.0629166 -0.169721 -0.93644
-0.788484 0.122681 -0.328955
-0.697244 0.583827 0.65414
0.948738 -0.039258 -0.737519
-0.488344 -0.600029 -0.183579
0.557864 -0.409737 0.0674947
-0.0463843 0.244477 0.943315
0.320398 0.257488 -0.0185124
-0.121936 0.15108 -0.926028
-0.88955 -0.15194 0.478446
-0.138387 -0.618479 -0.319132
-0.365445 0.271094 -0.984403
-0.434187 0.0186025 0.666399
-0.926433 -0.210135 -0.292915
-0.0842635 -0.568857 -0.968584
-0.324155 0.244785 -0.0607985
-0.979574 -0.295277 0.274802
0.480963 0.342642 -0.625393
0.143601 0.102925 -0.9274
-0.747728 0.107507 -0.0536088
-0.0661504 0.142687 0.877735
-0.518095 -0.464849 0.555718
0.0716593 0.310856 -0.129699
0.811826 -0.240262 -0.893776
-0.586123 0.223761 -0.262199
-0.59551 0.149046 -0.51068
-0.205682 -0.0135205 0.822048
0.377788 -0.62226 -0.793365
0.134876 -0.680993 -0.168817
0.10131 0.357399 -0.154493
-0.885541 -0.00901393 0.165613
-0.252323 -0.333421 0.187825
-0.292381 0.245865 -0.983227
0.730828 -0.334743 -0.894572
-0.316059 0.344211 -0.878717
-0.157239 -0.098214 -0.935723
-0.416405 -0.254886 -0.973047
-0.33394 -0.0975917 -0.987406
-0.252699 0.0748995 -0.926095
-0.538019 0.0150545 -0.779728
0.69468 -0.392929 -0.789178
-0.455217 -0.16395 0.619374
0.911104 -0.0261311 -0.805841
-0.572402 -0.608335 -0.953617
0.437492 -0.556899 -0.815674
0.478197 0.238581 -0.0798396
-0.86691 0.0301185 -0.278404
-0.672686 0.592064 0.890216
0.213059 0.0328959 0.231001
-0.388565 0.0596444 0.223031
-0.445232 -0.353545 0.412247
0.0798642 -0.680842 -0.726384
0.958279 -0.156126 -0.774263
-0.0893513 0.458694 -0.251883
-0.866646 0.0433121 -0.201853
0.564958 0.29143 -0.293093
-0.886421 -0.456143 0.505792
-0.595486 0.631781 0.703018
-0.712089 0.521898 0.617046
-0.617736 -0.592105 -0.198001
0.335431 -0.613215 -0.842146
-0.260259 0.307708 -0.811742
-0.620843 -0.66018 0.0701337
0.714795 0.14199 -0.443918
0.613335 -0.529632 -0.514947
-0.416715 -0.605466 -0.908536
0.294608 0.296406 -0.149308
-0.49661 -0.599634 -0.401438
-0.417798 -0.428264 0.286888
-0.664694 -0.71559 0.225012
-0.754845 -0.287652 0.611927
-0.7618 0.0785576 0.530523
-0.629286 0.598662 0.622166
-0.733132 -0.0583026 -0.968889
0.86677 -0.292126 -0.831969
-0.0110986 0.0564023 0.649946
-0.0185895 -0.717007 -0.469645
-0.382795 -0.39739 0.163163
-0.145069 0.402079 -0.232091
-0.388618 -0.60155 -0.344604
-0.145142 0.115316 0.913952
-0.739935 0.448825 0.719174
0.611293 0.252302 -0.597586
-0.383211 -0.537946 -0.0230481
0.605679 -0.557135 -0.25207
0.613597 -0.526886 -0.589525
-0.612391 -0.225641 -0.883497
0.439521 -0.661078 -0.276832
-0.561807 -0.570037 -0.0748451
0.438689 0.296909 -0.137221
-0.260381 0.265857 -0.105916
-0.0253467 0.178955 0.987342
-0.246309 -0.259148 -0.984958
-0.865276 -0.430005 -0.222933
-0.0197069 0.47734 -0.591853
0.753355 -0.226804 -0.111755
0.644883 -0.51283 -0.209889
0.330461 -0.690801 -0.241977
-0.164964 0.297515 -0.166728
0.581391 -0.442284 -0.856365
-0.117427 0.472835 -0.511516
0.794906 -0.296033 -0.334994
0.105302 -0.225439 -0.938317
-0.578041 -0.281005 -0.907216
0.139843 0.219695 -0.97823
-0.242566 0.13489 -0.675094
-0.193249 0.409595 -0.311628
0.41899 -0.547193 -0.975102
-0.770864 0.0575274 0.211584
-0.329476 -0.575711 -0.166327
0.0191203 -0.597195 -0.154047
0.482771 -0.20739 0.206918
0.330166 -0.649076 -0.181873
0.9767 -0.0872165 -0.57022
0.08387 0.488343 -0.404955
0.336342 -0.490815 0.0902801
0.650365 -0.238605 -0.963205
-0.200231 0.274636 -0.77885
-0.723407 -0.061233 -0.572075
-0.348285 -0.0219319 -0.98613
-0.778873 -0.427073 -0.451946
-0.714942 0.105413 -0.00525568
-0.0314307 -0.581804 -0.114644
-0.705831 0.0667654 0.110415
-0.974576 -0.168273 0.205662
-0.291284 -0.554252 -0.879636
-0.787723 0.235087 0.656417
-0.365755 0.164757 0.118463
-0.635276 0.203029 -0.387923
-0.591671 -0.597561 0.0759333
-0.646006 -0.240443 -0.951203
0.163217 -0.198089 -0.94552
0.790194 0.0112292 -0.458
-0.876189 -0.238654 -0.409331
-0.0757558 0.409499 -0.71266
-0.407763 -0.00679638 0.262581
0.778447 -0.319439 -0.270821
-0.463663 0.247917 -0.0905378
-0.665018 0.683563 0.751501
-0.535614 -0.0959061 -0.69631
-0.14967 0.176692 0.694295
0.0489454 -0.704742 -0.573472
-0.0774899 -0.689063 -0.443797
-0.907056 -0.182624 0.418026
0.0969977 0.464807 -0.541159
-0.466786 -0.483685 -0.782665
-0.199584 -0.146928 -0.9723
0.746996 -0.408981 -0.378095
-0.355609 0.224951 -0.421687
0.285984 -0.590618 -0.871493
-0.694334 0.0589825 0.413112
0.563667 0.0219023 0.113984
0.425578 0.174328 -0.968261
-0.720649 -0.121271 -0.970349
-0.431901 -0.464806 0.117905
-0.654994 0.0807968 0.665571
-0.873517 6.17732e-05 0.243437
-0.263792 -0.116709 -0.988478
0.988283 -0.166399 -0.694299
0.343965 0.156219 -0.993295
-0.270475 -0.417732 -0.9836
0.0703197 0.231454 -0.978919
-0.0232243 0.125774 0.638805
-0.769645 0.0348682 0.575641
-0.2062 0.104747 0.875026
-0.0979123 0.280473 -0.0514985
-0.405579 0.275292 -0.944334
0.931431 -0.109005 -0.514694
-0.452929 0.0519783 -0.984646
-0.272949 -0.480576 -0.982919
-0.747535 -0.495841 -0.408879
-0.714382 0.64169 0.939199
0.619592 0.0618128 -0.917002
-0.689488 -0.259457 0.616102
-0.933172 -0.410413 0.449339
-0.467514 -0.408305 -0.755597
0.283514 -0.722173 -0.562035
-0.372073 -0.273776 0.305167
0.774055 -0.10613 -0.140071
-0.117731 0.34408 -0.191298
0.116946 -0.356386 0.22459
0.851167 -0.370968 -0.741603
0.120897 -0.0331665 -0.933073
-0.456528 0.0351697 0.238981
-0.858859 -0.367261 -0.382426
0.273938 0.0606808 0.21765
-0.602405 0.363227 0.737588
0.143656 -0.692644 -0.748824
-0.571542 -0.225812 -0.982031
-0.283522 -0.559839 -0.550918
0.576208 0.195457 -0.789213
-0.442779 0.133924 -0.604507
-0.372586 0.115197 0.180575
-0.614034 -0.358093 -0.974001
-0.545274 -0.565203 -0.462593
-0.808551 -0.44468 -0.0103937
-0.201427 -0.0672423 0.628308
0.650908 -0.396078 -0.0303335
0.0288379 -0.331743 -0.936392
-0.405132 0.217701 -0.899763
0.179124 -0.515247 -0.977998
0.352405 -0.68146 -0.659776
-0.787571 -0.0556725 -0.499485
-0.906031 -0.48218 0.447506
0.266519 -0.346937 -0.938098
0.476557 -0.536612 -0.863758
-0.320831 -0.536036 -0.0272306
0.456502 -0.644313 -0.58154
-0.944027 -0.262555 0.528816
-0.566355 -0.0236841 0.546078
-0.346788 0.27635 -0.217935
-0.764347 0.63592 0.910411
0.882889 -0.168116 -0.50136
0.0861459 -0.492515 0.11074
0.0139512 -0.559779 -0.055347
-0.744258 0.280654 0.771149
-0.805486 -0.315635 -0.483608
-0.357109 -0.581956 -0.884115
-0.58796 -0.544294 0.468592
0.58936 -0.135055 -0.994408
0.143421 0.44911 -0.585198
-0.570511 0.225919 -0.374955
0.892829 -0.271387 -0.53372
0.228921 -0.707009 -0.708346
-0.499786 -0.615652 -0.254883
-0.292523 0.276933 -0.181179
-0.503832 -0.0133803 0.538042
-0.255718 0.289633 -0.367621
-0.52736 0.0531405 -0.9844
-0.113181 -0.671476 -0.37759
-0.758981 -0.321833 -0.527591
-0.675031 -0.297719 -0.607908
-0.845192 -0.450022 -0.148574
-0.00986558 -0.581212 -0.97892
-0.0116215 0.159487 0.109985
0.16916 -0.620834 -0.955332
-0.159704 0.328102 -0.763445
-0.00216257 -0.241215 0.227635
-0.583905 0.308889 0.690505
0.516609 0.0719044 0.122397
-0.864289 -0.050991 -0.0127426
0.102418 -0.626571 -0.142332
-0.513611 -0.170365 -0.98568
-0.542666 -0.000626654 0.478507
-0.741613 -0.000731982 0.61935
-0.533659 -0.534129 -0.0138777
0.493645 -0.65569 -0.406054
-0.14732 -0.560084 -0.452333
-0.921939 -0.104159 0.0817742
0.100708 -0.298548 0.241954
-0.748962 0.48819 0.760791
0.222077 0.31887 -0.894194
-0.218961 -0.651529 -0.960327
0.80849 -0.153538 -0.345694
-0.973326 -0.408071 0.195463
-0.190588 0.149045 0.652071
-0.902947 -0.609697 0.302145
-0.613178 -0.322463 -0.620414
-0.0837654 0.205827 0.726843
0.206919 -0.746432 -0.331719
-0.701295 0.397031 0.822428
0.59431 -0.431714 0.0127962
-0.376808 0.0474337 -0.983622
0.733232 -0.374278 -0.675239
-0.39219 -0.51641 -0.774564
-0.44501 0.151524 -0.936665
0.62036 -0.118132 0.101745
-0.587495 0.240052 0.673059
-0.265101 -0.323376 -0.97998
-0.0691263 -0.594825 -0.180473
0.0926994 0.0693028 0.205495
-0.859589 -0.309152 -0.411383
-0.129018 0.081529 0.738306
-0.122616 -0.557882 -0.519482
-0.0685525 0.0710554 0.692093
-0.134341 -0.664457 -0.981776
-0.392432 -0.227833 0.352051
0.743104 0.11254 -0.765941
-0.959263 -0.444325 0.238292
0.338336 -0.562495 -0.0839713
0.715482 0.0821355 -0.692799
0.782109 -0.336551 -0.390783
-0.0156816 -0.649385 -0.187747
-0.69132 0.606688 0.722737
-0.726434 0.14509 -0.110083
-0.282953 -0.0479734 -0.975847
-0.00186571 -0.681777 -0.90385
-0.946373 -0.209994 -0.208561
0.766823 0.0389744 -0.519131
-0.539574 0.214039 -0.433731
-0.310104 -0.532806 -0.979173
-0.747001 0.35379 0.671092
0.445752 -0.662254 -0.525129
-0.721354 0.515316 0.557582
-0.55683 -0.614134 -0.205769
-0.654917 -0.496915 -0.944589
-0.299025 0.317005 -0.985726
0.47843 -0.334274 -0.98852
-0.620026 0.217291 -0.317444
-0.139785 -0.117452 0.202627
0.0336681 0.333548 0.888909
-0.296681 0.286086 -0.257125
-0.539019 0.216399 -0.0884946
-0.0726156 0.170253 0.672039
0.499373 0.0268951 -0.970042
0.512805 -0.623434 -0.528351
0.133836 -0.576802 -0.114595
-0.320987 -0.440394 0.093503
-0.0204049 -0.345585 0.180397
0.305492 -0.543523 -0.0357003
-0.225228 0.351002 -0.326776
-0.136424 0.157225 0.103018
-0.138895 -0.54606 -0.766471
-0.343957 -0.489447 0.0340564
-0.365834 -0.0918119 0.718499
-0.22528 -0.526353 -0.982566
-0.201007 0.27819 -0.115954
-0.0453218 0.495065 -0.322071
-0.547913 -0.0502234 -0.742099
-0.794054 0.588702 0.890321
0.112531 -0.452423 0.160793
-0.399454 0.185125 -0.519019
0.90936 0.0392047 -0.658515
-0.476252 0.256773 -0.204453
0.0424313 -0.205762 -0.937745
-0.812633 -0.365368 -0.448411
0.538785 -0.294578 0.162925
-0.893899 -0.220919 0.570329
-0.145866 0.329886 -0.987462
0.208955 0.280119 -0.0632475
0.519031 -0.265504 -0.990614
0.293452 -0.536101 0.0276508
-0.426976 -0.473162 -0.735222
0.129887 0.259144 0.0260061
0.137366 -0.0487272 0.251203
0.139306 0.465543 -0.474453
-0.623057 0.441292 0.568422
-0.80337 -0.465079 -0.0865819
-0.347662 0.126038 -0.731681
-0.204393 -0.229678 0.215547
-0.019484 0.474022 -0.257079
-0.649635 -0.368284 -0.585371
0.574451 -0.0644277 -0.990063
0.510017 -0.624649 -0.294082
-0.829727 0.0221377 0.198335
-0.62035 0.672974 0.656258
-0.613816 0.186776 -0.450639
-0.39575 0.162061 -0.984083
0.047138 -0.127783 0.242952
0.786148 -0.00791061 -0.226898
0.104771 0.244974 0.729839
-0.569124 -0.00927305 -0.984405
-0.0662265 0.126443 0.958128
0.303809 -0.055717 -0.989064
-0.742522 -0.487267 0.561371
0.0438934 -0.188778 0.244161
-0.363721 -0.211161 -0.964794
-0.629874 0.25143 0.492289
-0.720557 -0.542783 -0.359812
-0.254736 0.375876 -0.974799
0.154768 0.463462 -0.288808
0.760746 0.0773611 -0.453574
-0.570629 0.0551055 -0.841047
-0.48327 -0.285931 -0.679819
-0.559047 0.0323132 0.420534
-0.335711 0.0803112 0.597986
0.711972 -0.426278 -0.637918
0.220836 0.455626 -0.479699
0.483404 -0.661022 -0.472292
0.222739 0.29684 -0.1324
-0.798332 0.339779 0.734804
-0.0151029 -0.455342 0.118161
0.187335 0.189723 0.100815
0.699188 -0.177764 0.000474628
-0.547682 -0.513867 -0.523605
0.0805157 -0.241716 0.247948
-0.219099 -0.069189 -0.952781
-0.499068 -0.511321 0.28911
-0.0483701 -0.60904 -0.78655
-0.675379 -0.182322 -0.900669
-0.580393 0.101978 0.533077
-0.918053 -0.226864 -0.0460466
0.841114 -0.300417 -0.556234
-0.084596 0.364517 -0.896535
-0.173966 -0.528706 -0.523498
-0.483061 0.219048 -0.040217
-0.945486 -0.362383 0.0832546
0.906628 0.0151397 -0.592036
0.804321 -0.39463 -0.711706
0.157384 -0.24802 0.258346
0.00445103 0.225328 -0.957962
-0.724873 -0.520858 -0.0382543
0.139184 0.288545 -0.0374436
0.195535 -0.327182 -0.936153
-0.716829 0.475765 0.658956
0.272112 -0.466944 0.135995
-0.773075 0.168551 0.679756
-0.30488 -0.568617 -0.938114
0.980788 -0.100684 -0.708404
0.743098 -0.388196 -0.842574
0.271798 0.402226 -0.67146
-0.413877 -0.59452 -0.410804
0.0744526 -0.378977 -0.935586
0.0393877 -0.748313 -0.372018
-0.608089 -0.672779 0.214268
0.165767 -0.730473 -0.62001
0.0598355 -0.745793 -0.436998
-0.549832 -0.117934 -0.783253
0.102872 -0.725601 -0.600848
0.215759 -0.268637 -0.962651
-0.51042 0.0597666 0.212881
0.0475528 0.465247 -0.243472
0.471045 0.244736 -0.854116
0.805576 -0.297319 -0.876188
0.191435 0.376295 -0.82598
-0.662045 0.500837 0.550911
0.610193 -0.458366 -0.0421247
0.451615 -0.402639 -0.99086
-0.611063 0.0314355 -0.593928
0.332969 -0.308969 -0.993379
0.584753 -0.222756 -0.985098
-0.223436 0.15025 -0.741735
-0.915098 -0.513511 0.398292
-0.106757 0.300849 -0.13805
-0.438722 0.117982 -0.984398
0.176512 0.446577 -0.529489
-0.855966 -0.422366 -0.345465
0.748604 -0.103248 -0.0806867
0.522543 -0.58008 -0.154417
-0.248713 -0.175146 0.235493
-0.695965 0.62485 0.792989
-0.468771 -0.572589 -0.451038
0.210385 -0.576513 -0.990723
0.326009 0.0866235 -0.992101
-0.35544 0.115524 -0.980804
0.0601871 0.460407 -0.607897
0.142278 -0.127361 -0.938415
-0.467773 0.00212038 0.603474
-0.386102 0.136268 -0.658087
-0.6024 -0.485201 -0.975047
0.522318 -0.589096 -0.659263
0.352826 -0.719513 -0.458201
0.271799 -0.299637 -0.980818
0.785297 0.0301047 -0.271263
-0.673357 0.423862 0.525136
-0.95645 -0.128703 0.138474
-0.779523 -0.102214 -0.533779
0.775321 0.0661019 -0.329619
-0.200129 -0.300892 -0.976708
0.199547 -0.734251 -0.258699
-0.416274 0.109362 -0.728891
0.953258 -0.174549 -0.523678
-0.576375 0.0688728 0.267349
-0.72856 0.410683 0.658185
-0.0252062 0.280402 0.877576
-0.779651 0.264783 0.726402
-0.277457 0.120133 -0.740533
-0.785162 -0.0329606 0.553974
0.242171 -0.0186372 -0.989851
0.76147 -0.368833 -0.315481
-0.144734 0.290639 -0.087545
-0.319128 0.0489338 0.541355
-0.653668 0.13279 0.00872604
0.541674 0.29611 -0.622007
0.395818 -0.16893 0.247732
-0.191409 -0.220672 -0.981457
-0.083135 -0.564931 -0.743077
-0.415382 -0.238673 0.414233
0.950653 -0.0922266 -0.775389
0.403749 0.116051 -0.988628
0.857414 -0.0504997 -0.865621
-0.17673 -0.688862 -0.932163
-0.186103 0.337686 -0.818188
-0.476402 0.256657 -0.276388
0.774412 -0.175513 -0.149643
0.0807585 -0.156569 -0.937645
-0.141771 -0.494192 -0.73123
0.536969 -0.625342 -0.451144
-0.17498 0.324509 -0.688024
-0.409851 -0.319569 -0.978082
0.615084 0.259565 -0.275445
-0.133802 -0.615333 -0.403293
-0.654631 -0.110395 -0.9792
-0.928889 -0.55194 0.292769
0.525496 -0.124152 -0.998667
-0.605953 -0.583724 0.392822
-0.25257 0.295706 -0.429753
-0.0151015 -0.741393 -0.412346
0.30671 0.394403 -0.740657
0.274582 -0.730435 -0.455251
-0.822475 -0.0224227 0.0347134
-0.741043 0.146085 -0.384364
0.459822 -0.471458 0.0582715
-0.476667 -0.536352 -0.502139
0.00677315 0.101002 -0.92738
-0.315144 -0.174608 0.250607
-0.983943 -0.291241 0.111958
-0.23617 -0.55837 -0.51949
0.316075 0.214905 -0.993952
-0.441064 -0.291911 0.523171
