4.56369 5.24065 -5.34489
3.92073 6.54408 -19
-4.58606 2.04809 -5.6657
-4.54212 -9.99964 4.44366
1.29884 9.84749 -5.97681
5.76065 5.76935 -13.5648
11.7995 5.69009 -5.62093
-2.50316 5.52214 17.3422
6.72118 -9.99947 9.8308
-8.19954 -1.09225 8.08058
-6.39277 6.33836 -9.99939
-5.95787 8.1788 9.99946
2.62439 5.09184 5.93956
-4.19697 7.96685 0.171377
7.91012 3.41241 -11.8067
11.7994 1.99072 -7.85112
-8.05571 -9.99942 -5.34198
-2.43102 6.25016 -4.27427
-4.97221 -1.79559 17.1563
2.3505 -5.16649 19
11.7995 -6.27085 -4.44256
-6.45709 1.07488 -5.90328
5.65865 6.27414 -4.60521
1.43622 -9.77298 -9.99953
6.53283 9.86948 -3.67863
-8.19933 -6.62312 9.87711
5.18332 -9.86715 -4.95421
11.7996 6.12158 -0.730309
-8.19947 -3.48008 5.07838
1.67883 -6.58919 -6.00315
-0.448693 6.64606 -17.1527
-8.1995 7.97548 1.8444
7.69599 4.14565 -10.0002
8.25157 -9.99935 -9.88046
7.18564 2.522 5.4422
11.7995 6.41029 4.70034
1.57298 0.818584 19
-4.42453 -8.44933 9.99952
10.2111 5.76378 9.99942
7.27018 4.36727 18.8507
-2.36465 9.99929 4.5957
-4.02667 -8.1017 1.45993
4.76979 -6.33871 15.4338
8.50907 2.08107 15.4304
4.78056 -3.08328 5.22577
11.7995 0.018596 6.16863
5.67685 5.66207 -18.9998
3.61576 -6.76342 -10.1603
3.47936 -6.02063 5.79939
-8.1995 3.22763 -9.784
7.83289 -3.54751 -16.9361
-8.19954 -7.9241 -2.24902
9.70238 -9.99957 -1.03554
2.15444 6.84096 18.9993
7.94305 3.10594 -19.0001
-1.19128 8.33811 5.19931
6.63003 -5.06697 -17.0516
-6.32546 -7.78603 9.99938
0.820595 2.66707 19.0001
-8.19931 9.8396 -6.23362
11.7994 7.60309 -6.15762
2.81143 0.839981 -5.95699
1.31045 -8.07244 5.97768
-8.19964 -1.14959 -6.0805
11.5979 -9.79539 -9.99893
-3.72474 -7.96955 -9.9995
4.32952 -6.53842 -15.4231
11.7995 -1.29243 9.82211
-3.17214 7.90999 -3.35034
-8.19951 5.9168 -7.8136
-0.601904 -6.58174 -14.4495
9.85013 -2.10966 -5.62976
7.71833 5.76371 -1.70761
7.77418 5.81389 1.49233
11.7995 -7.82492 3.62956
11.459 9.99955 9.8169
-4.28008 -9.99962 -1.03765
3.04717 6.89232 -11.7874
7.46814 -4.12109 13.5183
-6.59477 9.99953 -4.82859
4.32324 9.74406 -9.99946
-8.19954 -8.13868 5.57713
6.97734 4.97567 -3.37257
-4.15122 3.68844 12.4088
-4.93052 -1.57212 18.9992
5.06237 6.1918 17.2366
-4.32473 -9.99953 0.670302
-8.19955 -9.88186 2.53763
-6.26849 4.53621 3.94956
-8.19951 -2.69037 -7.86124
11.7995 6.91298 2.75356
-8.19993 6.07505 1.07111
-8.19956 -8.43255 3.60304
-3.52009 2.40912 5.50377
-2.50284 -5.5218 -15.3962
11.7994 -6.10684 -0.818401
1.15035 -9.99948 9.84881
-1.01379 -6.40969 -18.805
8.52358 -1.5148 -18.9998
4.37203 -3.19387 -19.0001
-4.6833 -2.66925 15.3682
-2.3193 3.76848 4.66719
0.217153 -9.99955 -7.96154
4.09714 6.46788 18.9999
4.23307 6.5806 11.9644
9.83473 -3.72705 -4.70476
-8.1995 -5.80163 8.26167
11.7998 0.8794 -9.85817
-4.69629 2.63318 16.8883
-4.39584 -3.26649 18.8587
-6.40038 6.33314 9.99946
-4.20462 3.61046 18.8122
-6.07945 -9.99963 -2.27534
11.6081 -4.52916 -3.95307
9.50037 -5.56878 2.2781
-5.9671 4.60727 -9.99954
11.7995 0.0786867 -7.89484
-4.9622 1.83238 12.1153
-1.88639 9.83837 -4.73261
-3.23299 -4.86012 18.8658
4.49477 7.90301 -5.37946
-0.516207 9.99946 -5.80713
10.1231 9.99953 -4.67587
-4.36752 6.23043 -9.99953
-1.81699 7.90579 -4.78227
-4.81335 0.942165 5.93486
10.0843 -3.07979 9.99958
0.975973 6.96965 -11.8912
6.44501 8.25177 3.8128
-3.90373 -9.9993 2.43501
0.502429 4.79681 5.88358
6.42009 -8.23934 3.84053
6.40242 -6.37192 3.88094
-7.99313 9.99966 -9.74921
2.32183 -7.00646 18.8068
1.87494 7.01234 -13.5602
8.33695 -9.99969 -4.63825
-4.37599 9.99949 -5.41554
11.7994 -7.84607 -8.22026
-6.32584 2.81337 -5.30749
7.11517 4.54956 -18.8732
8.45698 1.61236 -18.9996
-4.45148 4.09029 4.39907
-8.19948 -3.58404 -9.79076
11.7995 -2.87699 7.57
8.79255 -0.21774 15.6178
-0.719041 5.99055 -5.46759
-5.05865 1.41905 15.5612
8.98459 -9.99953 -6.50629
-8.19949 8.06951 5.83921
-8.19954 8.10337 -0.140836
-8.19953 7.88414 3.66725
11.5883 2.51528 -9.99945
0.0363238 -0.707961 -19.0001
5.03519 -6.84572 5.04801
8.33545 -2.49975 13.3309
1.83077 9.99951 8.01071
-8.19945 8.23749 7.90214
-5.03955 -1.53695 13.6247
4.89931 8.26093 5.13872
1.31051 -6.97906 -15.4516
9.85175 -5.73037 -1.8577
1.58444 -6.99511 12.0791
8.06485 -3.12487 -18.8539
-4.02674 -5.99919 1.46448
5.99655 -5.60951 -15.3166
11.6955 5.92087 1.02803
-4.08955 -3.78585 17.0754
-3.5015 -5.4581 2.85273
9.36556 9.99964 2.75481
-1.36633 -6.26007 13.5794
9.93306 3.80019 -4.65982
-8.19969 5.58999 2.72519
-6.16844 9.9996 0.312363
4.01815 1.55301 5.79885
-2.70767 2.41432 -18.9998
11.7995 -0.923993 7.96399
-1.0509 -9.99945 9.85074
0.397894 -8.47801 9.99958
-1.56919 -8.13788 -9.9995
0.0156101 9.99962 -7.93696
1.11178 -3.99624 19
11.7995 -1.67498 -8.16983
0.60432 -4.43459 5.91229
10.2302 -1.10573 9.99964
-1.66834 -6.07761 18.8501
2.11688 6.85218 -18.9996
-8.05604 9.99931 -0.934005
2.60765 -1.10879 -5.95526
-1.1171 -4.89674 5.24605
-3.84089 -9.9994 -2.63584
-4.13341 3.72048 -15.3934
0.658785 -6.92258 13.7042
9.0101 4.89955 -3.46859
-2.70174 -5.36113 17.0861
9.86588 5.683 -1.96041
1.92348 9.99966 -7.93005
-4.79795 1.92324 18.9999
8.39921 2.34695 -15.3655
-2.61605 -5.25244 -18.9997
-8.04717 -4.78409 9.99955
4.56873 -0.646477 -5.99216
0.867178 9.8534 -9.99945
9.1125 0.696035 -10
6.82507 -9.99964 3.56254
11.6719 -9.99939 -8.19394
-8.19955 -8.11696 -0.281521
-6.09215 5.5347 2.30961
-0.654092 -6.5594 -16.3354
11.7998 -4.45049 4.26297
0.252455 6.68625 18.9997
-3.74723 4.29375 16.8927
8.59034 2.36829 -9.99986
-7.97048 1.38935 -9.9996
6.92583 -9.99966 -5.91039
9.85318 6.00509 -0.0646765
-5.97065 -2.69721 5.35539
-5.83501 -5.34408 2.73832
-1.49127 0.513667 -18.9999
-8.19948 -5.25437 -8.15467
7.49281 -4.09853 -15.2281
1.62386 -6.06289 5.99698
-2.0613 -5.84185 -13.5965
11.7994 -8.10056 9.84421
-3.44742 -9.99964 6.13439
6.28565 -5.38328 16.6721
8.07754 -3.1335 -13.6637
11.678 8.28648 9.99927
-2.20201 -6.01914 -10.0001
11.5267 -0.841694 -9.99949
11.6407 -1.58909 5.78589
-5.19181 -0.188863 -18.8694
5.32028 -5.72092 -4.84559
2.18185 1.6318 6.01052
8.53894 -9.99962 3.89013
5.19837 9.86002 -4.94546
11.7998 4.45466 4.34005
8.71004 -1.13417 -13.7078
-6.11147 -9.9996 1.84782
1.40127 5.34265 -5.98108
7.72579 -9.99947 7.9427
3.90249 6.62322 5.61643
-6.00884 5.84882 -1.3508
-1.53648 6.15712 18.8456
-0.269233 -9.99878 -5.85208
7.82831 9.99961 1.29963
2.12076 -9.99942 -8.05073
11.5778 0.538532 9.99951
-1.45531 -9.89922 5.07071
11.7996 9.83535 -6.21326
6.03193 -3.13545 -18.9999
-2.42823 5.58337 15.4911
2.329 -9.99991 6.13025
-6.72232 -1.14557 -9.99974
11.7995 7.93141 -0.143997
8.59132 -1.07175 18.9997
11.7996 6.40054 9.8508
-0.795753 -6.49771 -12.2557
-1.09896 9.88027 -9.99929
1.26749 9.9995 9.89319
-5.20248 -0.287303 11.8959
5.89241 5.67906 18.8584
9.83506 2.08315 -5.64319
7.80108 -8.02183 0.263918
11.6512 0.59789 -5.97016
11.7995 -7.77705 1.69164
3.74028 9.9996 -8.23846
11.6435 -8.17151 -9.99963
11.7995 8.20658 -9.86118
4.49237 -6.47584 13.5895
5.98135 9.99957 -8.33883
3.82067 -4.39838 -5.66191
11.7997 -9.81446 2.74472
-4.91495 5.03625 -3.26694
-8.19954 9.71121 -4.37995
-2.05375 6.69947 4.59352
-4.78989 -2.35402 11.8127
2.00727 -9.99963 8.00659
8.98212 -1.1137 -9.99998
3.31494 4.68014 18.9999
0.543172 -1.65 -5.88242
-8.19957 5.62678 -5.80527
-2.75378 5.318 -11.9112
9.9317 -9.83031 -9.99953
-5.83282 2.88748 5.27557
11.7998 2.2372 -5.74965
-8.19949 9.8349 4.70933
-8.08957 -0.201636 6.00046
-6.43036 4.2171 -4.26604
11.7995 -5.60468 -2.55877
-4.09495 3.778 -11.867
7.96853 -9.99944 0.0914558
-6.35873 -2.76768 -5.3238
-0.239598 8.36663 -9.99957
-8.0665 -9.99945 -1.38261
11.7995 -6.6981 -6.36134
1.53574 -4.90071 -19
-2.01841 -5.87109 -17.2596
2.45436 -0.162771 6.00309
-3.62721 4.43482 -17.2101
-0.407477 -6.56014 5.59866
1.70575 -1.1047 -19
-1.75541 -3.3295 5.00394
-6.69388 0.450226 9.99964
5.453 -3.75395 -4.75527
-3.13831 9.99949 -3.71765
-6.00299 -7.85017 -9.99943
-2.94447 9.86557 -9.99925
8.05769 9.99952 -7.93511
7.11205 -4.55449 -18.8347
7.15935 9.99941 9.87686
6.16131 7.99595 9.99944
11.7994 5.88905 -7.7704
-4.70782 -6.2786 9.99964
-5.37935 -0.160673 -9.9996
-3.22921 -6.83707 -3.27146
-5.18657 -0.651673 15.4889
9.5685 9.99951 -6.37829
-2.27972 -5.70148 11.8567
7.82058 -3.37248 -4.95834
4.92916 -6.25912 -13.5754
9.38071 9.99935 9.88641
5.76277 6.40467 4.51151
-8.19952 0.225521 9.78928
3.99204 -6.49753 18.9998
5.66088 -1.40777 5.82768
-4.06644 -3.81502 -11.8225
-8.19952 -6.65472 6.61435
6.1159 -5.52522 13.9994
-4.65404 2.72741 -17.0668
-8.19955 -6.48561 -4.21296
-3.0006 5.11091 13.6357
-4.48187 -3.08544 -17.0928
-2.93584 4.87527 18.9997
6.04888 4.10469 -4.39987
8.80116 -0.125071 17.4
10.3319 -9.99953 -3.12319
-6.15586 -5.45875 -2.48328
-1.89141 8.05388 9.99945
-1.44459 -1.54658 -19
4.05918 -9.9995 5.77185
-6.26561 -0.788571 5.9815
-6.24054 -5.39215 9.99946
9.96104 3.62549 -9.99958
8.01074 -2.91234 19.0001
-8.19939 6.72534 -9.82506
-6.40024 -3.43199 -9.9997
-5.12619 1.05058 10.16
6.37464 2.21684 -18.9999
-5.06707 -1.94086 -9.99996
-1.07067 6.38851 -11.8794
6.38688 -7.82075 9.99942
6.89152 6.67504 -3.19016
2.96395 8.241 5.88769
-5.20524 0.442504 17.2762
10.0737 9.99948 8.11318
-4.928 -9.99951 -9.85707
5.95337 4.25582 4.32938
11.6116 5.28169 2.8696
-4.56787 2.90819 -13.6422
6.05499 -5.57117 -11.8591
11.7996 -9.76942 9.79338
7.85839 6.38895 -9.99958
-8.1994 -8.43081 -9.83518
4.10928 -2.45607 -5.54023
-3.87917 -9.9995 -7.95161
2.56783 9.99975 6.13047
8.19738 2.84119 13.6607
7.09493 -4.57495 18.8391
6.025 5.59164 11.8517
11.7996 9.85709 4.75065
9.78405 -0.0648419 -5.99712
-0.257883 8.21479 -5.6549
-8.09217 -3.87057 -4.60576
6.75027 -4.7425 -3.7087
3.51198 -1.1616 -19.0001
-8.19949 1.61104 5.95067
-8.19946 -7.97422 7.84451
-5.16282 0.819631 -17.1109
6.90417 -1.40907 -18.9999
-1.29877 6.28584 14
7.38696 -7.71201 2.21101
-8.19952 1.75123 -7.99432
7.56009 -5.57852 -2.21689
0.361676 -6.8416 10.1579
4.98625 6.22956 -11.8519
6.11858 9.99953 8.21243
-2.38353 5.61546 -10.1262
-5.20007 0.07115 -11.8124
5.12799 3.95415 18.9998
7.50224 -9.85533 1.86403
9.67285 -7.78427 -9.99945
-8.19962 -6.14063 0.871524
8.61253 1.62876 -11.7133
11.7995 9.76841 8.12073
-8.19943 0.508286 -6.17062
10.0864 0.823024 5.96193
-4.10868 9.86112 1.07403
6.53899 2.30756 18.9999
-3.69011 9.99952 8.20717
8.18244 1.12225 -5.89502
6.74532 -4.95752 11.857
7.5438 -9.99949 -7.95267
-4.22976 -4.00319 10
6.22204 5.43636 -10.127
-3.62731 4.4345 -10.1248
-8.19962 -2.55726 -5.62099
8.55405 -1.88301 -17.286
8.0959 8.37903 9.99951
-1.82409 4.05078 -4.78414
7.47271 9.88185 -1.9588
11.7995 -6.29763 4.97623
4.89911 -4.95919 5.16303
11.7995 -4.76923 8.2589
11.7994 8.39228 -4.38581
5.08864 -9.99947 9.77886
1.34897 -6.98199 15.5105
8.03282 3.9469 4.54044
8.27905 2.64064 -13.5901
-3.80559 -4.19921 11.8112
-2.93099 -5.16909 10.1267
2.98107 -6.90296 -14.2432
3.11597 4.27862 -5.86025
1.41019 4.70522 19
8.62237 -9.9997 -2.88059
4.21824 9.99929 5.63983
6.68997 -6.59847 -3.4706
6.57277 -9.90736 -3.62577
7.6591 8.07411 1.31655
-6.27289 -4.30237 -4.18415
-5.81339 9.99952 2.3066
6.75475 -4.95497 -13.5949
-4.60491 2.82644 10.1817
9.74362 -9.99933 -8.09273
-1.92273 -3.32534 -18.9999
-8.19952 -0.537146 -7.99714
-3.42914 -4.65198 -17.1322
-4.33486 6.33657 9.99952
5.17936 -1.00371 -19.0001
7.9502 9.99931 -0.285542
2.02746 -4.93646 -6.02539
-8.04768 9.99931 0.998948
-3.97744 7.95323 -1.69253
-2.43745 7.88024 -9.99944
-3.91191 5.4287 2.58354
-8.19952 0.972614 7.83512
-1.66422 -9.84426 -4.8983
-3.5063 4.56862 -13.5833
4.84866 3.18442 -5.17044
11.7995 -8.05981 -4.45996
6.59009 9.99966 -6.51526
1.86827 2.99673 -6.01827
8.16478 2.70179 18.9998
11.7995 7.94931 -2.21719
11.6275 -9.99925 -0.580816
-8.19949 6.12958 9.80703
9.12541 -4.88116 -3.49484
2.21264 -7.26092 -10.0001
11.7994 -4.83125 -6.20845
2.26446 6.99185 11.964
-8.06347 -9.99946 0.660198
-8.19952 -6.76738 3.77606
-4.19657 -7.95843 -0.391479
4.43402 -6.50053 -11.8215
8.52871 -1.98474 17.088
4.90711 6.26977 13.6714
9.93719 7.82836 9.99939
-2.63359 -8.28443 -4.03899
-2.18579 -5.77009 15.3345
-4.96471 1.8321 -18.8677
11.7997 4.27063 9.86513
10.0952 -4.66249 3.79126
11.7995 3.12449 5.26512
-8.19952 3.17705 6.9384
8.0454 3.4201 -4.92802
-3.64302 9.99915 2.87091
3.07153 6.88709 17.2332
-6.23621 -9.99964 -0.255728
-8.03573 -9.99956 6.44087
-1.89465 9.99956 -8.08713
7.55636 -7.66171 -1.68544
2.77093 -6.92962 -12.2546
9.47897 -5.48806 -9.99944
3.29254 9.99937 -5.97793
-8.03108 -4.9071 -3.4445
-8.19954 6.39685 4.88871
0.316031 -6.63187 18.9997
3.91341 6.67014 -13.5794
9.53714 2.61 5.40207
7.72419 9.90018 -9.99953
-5.12552 1.00812 -13.5621
0.441323 0.593376 5.99523
-3.96681 -3.96566 -15.2975
-4.73551 -1.79813 -5.73973
11.7994 7.5937 8.08037
-2.9996 2.91987 -5.24603
11.5944 -9.99917 -6.36525
8.52722 -2.0193 -15.4216
-4.30688 -3.44162 13.5511
-2.62072 2.63594 18.9999
3.08128 -9.82376 -9.99948
-2.37679 -9.99951 8.20954
11.7995 -9.8825 8.12742
-3.32027 -1.29553 18.9998
3.38489 -1.89795 5.81294
7.9431 -7.14214 -9.99943
11.7997 -2.66128 -9.86496
-4.28411 8.06421 -9.99937
2.56725 9.75991 -9.99951
11.7995 -5.80443 -8.136
0.857321 9.99966 6.12782
4.51219 6.46717 -15.3856
-4.19015 6.12675 -0.623571
-4.32207 9.99951 -0.644105
-0.447843 -8.37015 5.58909
11.7996 6.44013 -9.84813
11.7995 -8.02713 -0.363834
0.58704 -8.21535 -5.90269
-8.19935 -9.83743 8.17414
11.7994 6.70303 -3.94804
-0.84192 1.18148 19
5.16605 2.89642 5.24895
3.31198 6.85269 -17.1617
-0.477834 -2.58285 19.0001
-8.19958 7.2143 -4.03864
11.7995 -2.83722 -6.87884
-6.21532 8.12133 -9.99931
5.237 -6.1058 11.8519
6.06217 0.486833 19
-4.60539 9.99957 4.44934
-6.08908 9.99957 5.97983
6.74619 4.96202 16.9214
1.68024 3.42388 6.00412
0.212941 -0.493619 19.0001
-2.64306 -9.99965 -6.29852
6.05665 9.83101 -9.99939
11.7995 1.08628 8.04881
-2.90548 4.9048 3.74607
7.22819 -5.56098 2.56415
-2.38651 5.62537 10.1243
-3.46266 -4.61419 -13.5271
9.35767 -4.65826 9.99953
11.7992 -5.56336 2.74622
6.29621 5.62621 9.9999
-4.56533 -2.91087 -13.58
3.04142 9.99951 9.84269
4.66123 -6.39283 17.333
-1.99511 5.88473 -13.693
10.1307 -9.99939 9.79759
6.76858 -1.20204 18.9999
-1.68018 -8.30873 9.99951
-8.19952 -4.19955 -6.57282
2.39237 -3.03795 -19.0001
3.93842 4.65156 -18.9998
-2.19845 5.76264 -17.1946
8.31537 -2.55088 15.259
8.48672 -9.99941 9.83117
8.21731 -8.18066 9.99947
2.21628 -2.97015 -6.01045
11.7995 -8.44498 -6.41261
-5.19592 0.515663 13.7482
-3.37266 0.466626 -18.9998
5.06998 6.18969 -17.2193
1.46506 6.99291 -17.0873
8.74323 0.973083 13.8268
-8.03513 9.99969 6.58145
11.7995 8.28229 3.9353
0.272112 2.32512 5.80767
11.7995 8.12694 6.10098
9.68204 -9.99945 7.62157
-7.97011 9.69811 9.99977
0.534248 -3.88443 -5.88289
-7.77505 -9.99956 9.83139
5.68001 -5.58632 -18.9997
2.73096 0.76342 -19
4.08739 -6.61449 -18.8225
11.6171 9.99919 2.84419
8.91182 -0.374006 10.0002
10.1396 3.06501 9.99953
-8.19963 2.19229 -5.80632
0.0880189 4.04124 -5.75019
-4.88044 -2.08391 -15.3594
5.86477 5.6987 15.4151
-8.19956 -5.64357 5.21775
-8.19947 -8.32877 9.84604
7.94219 -5.97189 -0.643704
6.39913 -8.12306 -9.99937
-2.88297 5.21093 -15.3863
7.87582 -5.92419 0.983057
-3.33001 -7.72637 3.10287
-4.64636 3.06728 -10
-1.40249 -9.99962 6.79543
-8.05449 -4.75622 3.67285
6.04652 -5.74809 9.9998
-7.94936 -1.41847 9.99942
10.0837 9.99952 4.53513
11.6633 9.99921 1.00609
-1.96814 -6.29084 -4.66358
3.37826 6.82764 10.1663
8.34654 2.47721 11.8253
8.15697 9.9995 8.14801
4.6903 -1.29462 19.0001
5.60853 -7.7132 -4.66519
-4.93905 1.90196 -15.333
3.19604 -9.99948 9.82135
-5.62941 -9.99939 9.86093
-1.02618 -2.73582 -5.33256
2.93647 -6.90974 -16.7531
4.87959 -8.48786 5.14859
-2.95889 5.14757 11.818
1.04831 -6.96685 -13.5145
-8.19867 -9.8311 -7.60067
-8.04295 9.99962 -7.97898
-5.13123 -0.985906 -13.5672
2.62055 6.94879 -15.2931
8.76675 -0.8506 13.8269
2.767 -6.93018 14.186
-6.61234 5.28736 -2.8343
7.48434 4.10836 15.027
9.74547 -9.99954 5.51877
9.85383 -5.9933 0.217712
8.10433 -1.30783 -5.8517
-5.04536 0.121846 18.9997
-8.19908 8.39699 -9.84169
-8.19952 1.97521 9.885
6.20177 -2.11685 -5.64975
8.59431 1.69111 -17.1135
-3.92711 9.99911 -2.27249
-8.0211 -9.99837 -9.62136
11.6145 9.99937 6.45273
-4.73392 2.54056 14.0578
-8.04934 9.9994 2.79059
-4.75569 -4.88886 -3.48365
0.332298 6.84896 -18.8603
-8.19949 4.56283 4.13352
1.00639 6.96445 17.1908
11.7995 -7.72633 -2.46669
6.71208 4.98838 -11.8737
9.73799 5.57618 -9.99948
-8.1996 8.04887 -2.22521
-8.19946 4.92401 -9.82814
-8.19963 6.13931 -0.677101
-0.283934 9.99953 8.03764
7.46737 4.12341 -15.4245
3.49643 3.37982 5.79156
-1.40935 6.07265 -19
8.11939 9.99963 4.47336
-4.44649 -1.18143 5.88454
11.7996 9.89728 -4.20808
-6.28823 6.00895 0.444739
-0.186681 6.72191 -13.5925
0.48337 -9.99982 6.03415
-6.56519 1.18852 5.87511
11.7995 4.02182 -6.64124
-8.19955 -3.69338 8.44271
-3.80526 8.15393 9.99936
5.60863 9.99963 6.52299
7.29171 8.133 -2.43478
-8.00637 9.99966 8.34534
0.598201 1.87015 -5.89611
2.70546 -0.924261 19.0001
-8.1995 6.5493 7.388
11.7994 -8.14946 5.7149
9.52872 9.83688 -9.99966
-0.464442 -6.6369 15.3265
11.7997 -9.83994 1.05941
-6.52644 2.73119 -9.9996
11.672 2.2615 9.99946
-8.02816 -1.84411 5.72983
-1.28921 3.96564 -19
-8.1995 -8.30184 -4.18118
-3.9198 -3.80202 -18.9996
-3.88685 -3.01543 5.20774
1.11732 7.23601 -5.96314
-0.985255 3.22041 19
7.96893 -6.27157 9.99953
-5.35925 -0.934196 10.0004
11.7995 3.80406 -8.37503
7.96275 6.00119 -0.077388
-4.23655 3.54626 -18.863
-6.44031 -9.99959 -6.14243
-4.44172 -9.99945 7.93463
-3.05657 -9.99989 -3.98027
-3.78743 -8.15326 -2.17419
3.67506 -6.39719 -5.7184
11.7995 3.0323 7.96715
-2.97433 4.92429 -18.9991
-1.0963 -7.96459 -5.24982
11.7991 -3.0973 5.3621
7.27335 4.36131 -13.6329
6.55782 -9.99939 -9.80771
-3.23431 -1.53396 -18.9999
7.12372 7.08112 2.79199
11.7991 -3.15027 -5.24225
11.7998 1.76854 5.95451
8.19481 0.869517 5.95407
-1.2311 5.12512 5.1778
-8.19947 -8.10827 -6.1375
5.80677 7.90354 -9.99948
11.6204 -4.59548 -9.99934
8.53273 0.848617 18.9998
-5.87111 -9.99957 5.98063
4.99589 -6.22621 -17.1623
10.0278 -3.12477 5.13545
-0.910782 6.45232 16.9481
3.65745 2.27543 -5.72376
1.60637 -9.99967 -6.1593
-0.441854 -4.66908 -18.9999
-8.19963 -5.83284 -2.09823
4.05381 6.62559 15.5271
-8.0316 -9.99944 4.61779
-4.89381 2.04311 -11.7918
9.63842 -1.0698 5.90441
11.7994 -8.09654 7.87477
2.47121 -8.22531 -5.96421
6.60323 5.09025 -17.1521
-1.05804 2.49448 -5.46549
-8.02852 -5.57562 2.24701
-4.43245 -3.61092 -10.0002
0.972198 -6.96767 -11.6499
-8.19966 4.91707 -3.79294
9.992 9.99944 -8.15061
-8.08615 -2.958 9.99953
6.35185 -4.42291 4.04969
-1.27363 6.30012 -15.4309
-0.224678 6.70004 5.65375
5.59074 -9.99958 -7.38574
4.02808 -9.99962 7.85785
4.19927 -8.22514 -5.5104
7.66018 -9.99966 5.87536
8.11626 6.48831 9.99958
-0.468104 9.77454 9.99944
5.79813 -5.74719 18.8402
8.19065 2.88561 10.1238
7.23704 -4.40572 15.293
-0.172597 -9.79663 -9.99947
11.7995 6.16635 6.50804
3.16884 6.42028 -5.85336
11.6705 -1.1738 -5.88665
8.79393 0.36262 -15.1604
-3.90091 9.9996 6.27553
-0.0799443 -6.16098 -5.69579
4.58354 4.93325 5.33407
6.00057 9.99951 4.539
1.31432 -1.98056 19.0001
11.7997 -2.98575 9.78711
-4.27938 5.90387 1.04385
8.96151 1.24758 9.99993
8.28896 -4.36268 4.1211
8.38148 9.99965 -3.84045
-3.94807 -5.84899 -1.80008
0.937722 -1.16971 5.96755
-2.03886 9.99958 7.24844
11.4918 9.81366 -9.9981
-2.32118 -6.31218 4.36681
5.11674 9.99946 9.8617
-0.394547 -2.49557 5.60311
2.6525 8.3257 -5.93782
-8.19954 7.76542 -5.89837
0.639385 -6.7403 -18.9993
2.76478 2.69645 19
-4.5335 3.79121 -4.6604
-5.98428 -9.99942 -7.94272
-4.4331 -3.56303 -4.82214
9.704 -9.99953 1.14921
6.13262 5.51285 -15.3503
4.61269 -8.40561 9.99945
-7.99429 3.16229 5.10036
11.7997 -9.79945 -2.2823
0.362164 4.92704 -19
-0.888656 -6.45944 17.1283
-3.30898 -9.84835 -9.99946
-8.19951 4.86912 8.18234
-6.49754 2.70531 9.99972
-3.07346 -7.21381 9.99962
3.18783 -2.95585 19.0001
-2.32137 -3.10307 19
0.337264 -2.84745 -19
-2.39035 -4.03238 -4.46117
7.29156 4.34374 10.1976
11.7995 -4.76254 6.31683
-2.03376 -8.07727 4.6141
2.58853 -8.48615 9.99961
-0.787768 0.58151 -5.99528
2.94531 6.90608 13.7697
-8.1995 -6.03468 -6.09984
6.68722 -5.3246 -9.99978
-6.27209 -9.99961 3.77588
6.89084 5.23435 3.17378
-8.19964 5.79175 -2.26576
11.7995 8.24485 1.69596
11.7997 9.83709 -0.754632
8.59939 1.67934 17.2164
4.34407 -0.21398 5.99365
-2.84032 8.45199 3.80383
-8.19946 -7.46198 -7.98273
-8.1995 -1.91334 -9.82456
-2.75585 -4.39915 4.07717
-6.47154 -4.18169 4.3033
6.0745 8.12174 -4.21618
8.89037 5.12261 3.12494
3.54088 -9.99935 -5.96306
-3.2894 -9.99941 9.87341
4.85812 6.4425 -9.99974
-6.47385 9.99955 4.08232
9.45834 9.99958 6.30952
5.67644 -9.99932 4.88779
-8.19954 4.97026 6.15178
10.0437 -8.21423 9.99932
3.39277 -6.83231 11.9671
6.54217 5.14664 13.7062
6.08007 0.823345 5.96425
5.19217 3.41851 -18.9998
-3.72543 4.3132 10.1541
7.48266 -4.1104 -11.8672
-4.72036 -4.36536 4.1146
8.80092 -0.204152 -16.8345
11.5815 4.82329 -3.55966
-3.11248 -5.08063 -3.43615
4.62323 2.15168 18.9999
11.7997 -9.84129 -4.30129
7.77498 7.87767 -0.630671
-4.92428 -1.95026 -11.8011
2.19409 4.82361 -19
-1.0437 3.12473 5.2897
0.86288 1.00225 -19
4.30582 -8.28951 -9.99954
-8.01836 -6.75897 -9.99957
8.79064 -0.391763 -11.7574
7.43563 9.99965 6.31938
-1.80955 -9.99949 -9.81924
-2.88862 -2.42502 -5.48718
1.08423 0.122773 -5.993
9.69939 9.99955 -2.71267
-1.01187 -4.69844 -5.30464
3.17789 -7.94825 5.84619
-8.19954 2.89478 8.55616
-1.68234 -9.99955 -7.87174
8.79009 0.651882 11.9421
-5.80458 4.58607 9.99962
-8.0042 9.99931 -2.78088
-0.633775 2.24578 -19
11.5936 -4.73201 9.99936
3.73107 0.608626 19
4.93812 -9.99943 -9.81549
-8.19954 3.64234 -5.03782
1.75244 6.62348 6.00814
-5.79321 9.99945 7.85353
-4.35055 -5.99724 -0.184354
2.26045 -6.99168 10.156
9.05221 4.62173 9.99961
-4.40855 9.99943 9.86924
-4.86757 -2.13617 -18.8473
-8.0188 -9.99941 -3.34719
10.0043 -9.99948 3.08141
-8.19957 -4.56444 6.72704
11.6915 9.99904 -8.08526
11.7994 7.99889 -7.99989
-2.75647 -9.83866 3.89607
7.67981 -3.79682 17.0785
8.77336 0.807632 -13.3695
0.00528619 -9.99956 8.1174
3.99613 8.41672 9.99954
11.7994 -6.49133 7.26684
0.397236 7.25444 9.99981
-4.02428 9.99952 -7.89723
4.93745 6.43906 9.99971
-8.19962 -2.63825 7.15204
7.50315 -0.918813 5.94797
-4.48483 -9.99959 -5.80843
11.6396 -9.99924 6.42237
1.97328 7.01488 15.4304
7.81642 9.99966 -5.48082
6.62252 2.25977 -5.57541
-1.0647 -0.598567 5.99527
11.6338 -5.91591 1.00773
7.85158 3.51604 -17.1561
9.94146 -6.39202 9.9994
7.87478 8.20228 -9.99953
-5.96881 9.99951 -6.57728
-3.05143 -5.06114 13.5404
-6.13088 -5.95965 -0.870967
8.3666 -2.6313 5.38622
-0.725247 -4.59865 19
-1.3637 6.2564 12.1427
1.04998 -6.96778 17.2839
11.651 9.99919 -2.48709
-2.92002 4.79053 -3.7105
-2.50086 -1.71948 5.7548
4.86961 9.99968 -6.81277
-0.77914 9.99918 5.66008
11.6506 -9.99922 4.5475
-1.15663 6.52539 -10
-8.19948 7.87893 9.85632
-5.47562 9.99954 -3.53349
-3.03167 0.28483 5.99496
3.01283 -6.89479 16.5473
-6.39335 -0.834388 -5.96169
-8.19955 3.86916 -7.4645
-3.64934 -4.41359 15.3072
11.7996 -6.44954 9.76877
7.51047 -4.27555 10.0004
11.7996 5.75903 -2.24681
-8.06679 -5.99806 -0.538889
-2.66714 9.99969 -6.37914
-0.0824345 6.74314 15.3504
-1.33835 -1.02132 -5.9223
-8.02655 -5.12746 -9.99949
-3.74194 5.77493 -2.31103
5.70895 -3.03401 19
10.1732 -9.99952 -5.1179
1.93305 7.31246 9.99984
-3.97922 3.94717 14.9791
9.98537 -3.19116 -9.99955
-6.00159 9.99943 -8.26148
11.7996 -3.89917 -8.23632
11.7996 5.31441 8.21923
6.80753 -8.38274 -3.32391
7.56734 -9.82859 -1.68466
-3.11252 -0.636881 -5.99666
-4.67368 0.270709 -5.99746
11.7997 4.62784 -9.88093
9.90964 5.72228 1.80922
1.66433 -2.82796 6.00054
-2.32133 9.9995 9.80263
3.53605 -4.90021 -19
11.6783 3.7095 -4.7377
0.598108 6.90894 -15.3363
-6.04972 -5.50003 -9.99962
-1.62839 -0.854832 18.9999
-3.27813 6.81565 3.19173
-6.52393 -9.99948 -9.86938
3.92922 -9.99954 -8.0328
0.327063 6.84248 -10.1611
7.90362 3.43213 16.9674
4.64288 1.11015 -19
-4.41493 -6.26988 -9.99972
-8.19951 -0.0749743 -9.84092
-4.88643 -2.48032 10.0001
8.40462 -2.33887 10.1203
-8.19958 -7.88397 1.73708
9.87012 9.99953 0.922446
7.44782 4.15579 12.3477
0.88327 -6.95401 -17.3283
0.354546 6.84912 11.6714
8.79377 0.0319038 -18.8281
-1.02734 6.53886 10.0002
7.96572 -3.31681 11.6884
3.17108 2.73096 -19
3.96609 9.99951 7.91028
7.73888 -4.15372 -10
2.42748 -6.98168 -18.8466
-2.64777 1.12559 -5.89637
8.25966 -2.70598 -10.1633
-8.19944 7.94894 -7.83966
-6.38436 -9.99943 7.94968
3.45055 7.15428 -9.9999
8.44253 -2.24849 -11.9781
-0.515151 4.79951 18.9999
-0.410726 -6.662 11.9441
-1.56909 1.40711 5.82888
-3.32951 -4.76301 -10.1447
-5.19835 -0.0754297 -15.3391
5.07799 1.12897 -5.8971
5.88376 -9.99962 7.29345
-4.73098 9.87356 -9.99936
0.867545 8.31607 5.93827
-6.3723 -3.2369 9.99962
5.30769 -6.28547 -10.0002
0.735756 6.94508 13.5573
-5.28343 1.31424 -9.99953
-1.3425 -6.25751 10.1386
6.59661 -0.0577594 -5.99503
-3.86958 7.99881 1.96956
-8.01236 4.20988 9.99959
-2.97164 0.760784 18.9998
8.68423 -1.24348 11.8134
9.83823 7.6957 -9.99945
4.36028 -4.48218 19
-6.12475 9.99961 -1.74047
11.7995 4.29943 6.50412
4.28326 -6.68645 10.0001
3.02025 -4.14679 5.8746
-5.70962 -9.9996 -4.15917
-6.42159 9.99944 -9.88639
-5.09918 -1.17026 -17.1112
-6.20602 -5.9175 0.998434
6.6943 0.425008 -18.9999
9.77397 9.99952 -0.989719
-6.23098 9.99948 9.83079
-0.694241 -6.54592 -10.1973
7.07926 9.83143 2.84903
10.0516 4.22838 4.2546
1.18647 3.00439 -19.0001
0.646656 -7.28175 -9.99985
-2.58015 -5.4585 -11.8061
11.6125 -6.41284 -9.99931
1.83389 7.27727 -9.99992
6.70049 -3.00383 5.19713
