-4.27278 -3.93688 4.53554
-8.05167 -6.13735 -0.400287
10.0872 3.46102 -10.0074
-6.63307 -5.07662 -3.18318
-4.14869 -10.0098 7.82833
4.61244 -6.41197 16.1075
-6.07261 -10.0105 2.68216
7.25843 -4.41545 -17.4342
11.5656 9.89907 1.46124
-3.25068 -0.900793 -19.0048
-6.15297 10.0068 0.707514
9.44958 3.14824 5.10054
-6.24521 -10.0067 -1.04382
8.33196 -10.007 -9.10954
8.31039 1.76395 18.9436
10.0721 -10.0148 -5.93242
-8.21354 -1.48489 7.97093
-1.78618 -5.99913 -11.6815
-4.76096 -10.0159 -4.34577
-7.91334 1.37583 -9.97537
11.7502 2.97772 -9.74239
1.36668 6.9852 -14.8044
11.7927 9.67062 -4.69156
7.56969 3.4413 18.9407
6.36789 8.17047 -3.88092
4.06617 6.0408 5.55455
11.6802 4.20197 -4.54385
5.52121 6.06918 -4.7163
8.21813 10.0056 7.72839
-8.20743 -7.892 1.00403
3.50796 -6.80415 17.3796
-3.92246 9.85722 -9.84472
-6.65417 -0.310803 10.0085
-4.39803 -3.29993 17.2287
-2.91667 -9.81888 -3.99543
4.54137 -3.49703 19.0053
7.67127 -8.19049 1.16119
7.28945 10.0036 -5.96983
-8.08954 1.32929 6.04228
-6.37761 0.310535 6.00259
-2.10482 -3.13084 5.11774
-7.34076 -9.97488 -9.80827
-1.67755 1.69318 -5.75197
7.64134 5.97824 1.77027
-6.07555 -5.60248 2.12546
-5.8688 -10.0074 6.35356
-8.2067 -5.77373 -7.99639
5.84122 -6.16932 -4.42666
11.7165 0.933095 6.11138
11.5324 -9.96729 2.11779
-8.11652 -5.44527 3.13066
11.6789 5.29738 -3.18182
10.0466 3.1263 10.0046
-8.2095 7.85731 3.98374
8.5639 0.343456 -18.885
7.81754 -3.58886 -15.4681
-8.14372 3.60963 -5.12877
-1.62921 -9.77164 4.9122
-6.22044 4.55437 -3.92343
6.06331 -5.54547 11.4829
4.85106 -6.29282 -12.1862
7.3649 4.25255 -15.5085
-8.21154 8.13357 1.99374
11.757 -5.97585 1.92506
-8.20753 -8.21232 -5.54008
-8.05524 4.7026 -4.0518
6.78756 7.97692 -10.0091
-8.2078 -7.87745 6.39446
-4.74308 -2.50475 -13.7539
-4.86276 -10.0086 4.31592
-8.21199 8.19432 6.10193
-5.18927 0.495877 -16.9709
-1.94911 2.64127 19.0047
7.74467 -6.05925 -1.59599
11.7187 -7.72725 9.80376
-4.48399 4.12674 -4.3448
-1.04227 -6.66886 -10.088
-4.92332 -5.03429 -3.24625
-2.56325 -5.47794 -15.3491
11.8065 7.96627 -1.14242
4.0239 -10.0083 7.46568
-1.66989 -6.09584 17.1486
9.7832 -10.0105 0.872932
-2.47972 9.91783 4.44651
2.64191 -6.70868 18.9477
11.285 9.78219 9.9026
8.17744 2.8885 -14.8875
-3.65519 -5.42961 2.8743
3.19988 6.87084 15.3621
4.90109 -6.27534 14.283
7.41444 9.94702 9.6632
-2.24982 -7.91603 -4.42191
0.86879 3.31486 5.933
-8.07338 9.86148 -1.19822
-1.57983 9.84045 9.88966
2.14485 -10.0105 8.12867
-8.21001 -6.56452 -4.1771
-8.09557 -4.19152 9.81754
-8.20445 2.31486 -5.9042
11.8085 2.10648 7.81526
-5.37876 -9.92147 9.78926
2.0732 7.00001 11.815
-1.24786 0.14869 19.0024
-0.147752 7.50359 5.67308
11.6286 9.88739 -6.4854
-5.07948 -1.30608 -15.4978
11.6685 9.82186 6.55288
0.306568 9.94977 -6.13521
2.78212 6.92977 -13.3447
-2.10583 -10.0074 -8.53838
9.94216 4.26855 -4.20255
4.83742 6.30645 -15.3924
7.10105 4.6718 -10.1894
11.5536 -5.0087 3.41991
-2.64362 -4.59734 4.10319
11.5193 4.87476 -9.92732
-8.20691 -7.26284 8.04012
9.63057 -5.47166 2.44924
-8.21208 -7.65747 2.80509
7.77697 3.63207 -11.8297
11.7616 9.72579 -2.94878
11.7668 9.70612 -0.0138415
-4.9861 -2.59305 -10.0688
-2.696 4.60192 -4.06686
10.0825 10.0143 7.98881
3.79525 6.42946 -5.65774
6.10053 -9.88086 4.43298
-0.325101 -6.6111 -18.6703
-8.20952 8.1128 -8.15563
11.69 -3.98147 -4.78551
-2.40787 5.59576 14.9137
-3.08094 8.08772 -10.0108
11.695 -9.84749 -1.61533
4.30715 -6.45783 -5.4582
-6.37055 3.26148 -5.04694
7.51103 9.86371 -9.84078
-4.34 2.69025 18.9569
8.22746 -2.76007 12.2108
-4.75929 2.49778 -17.3111
5.52534 1.21826 -5.89748
-3.69417 -10.0111 -5.99657
5.48633 9.97587 5.14954
-3.66484 4.35764 -18.5994
-1.95309 -10.0071 -6.84271
11.8079 7.97234 5.80459
-6.57676 -10.0145 -4.87489
-8.2057 5.2933 -6.17268
-0.578663 -3.99471 19.0048
-8.21154 -5.96278 5.56174
1.67526 4.93594 -19.0038
-4.8149 -2.29831 15.3906
-8.20714 4.52211 6.39528
0.841237 6.95028 -12.467
2.39583 0.464404 6.00001
9.41236 9.90688 -9.84793
-8.03654 9.83142 0.585525
-6.16187 9.87884 -9.86159
-6.62091 -1.70505 5.74251
-3.64349 -10.0048 5.83258
-7.94921 4.78437 9.9623
9.84721 -10.0063 -1.37541
10.0816 10.0188 -7.89628
0.384206 -6.84379 11.2831
5.67249 9.9556 9.71364
-2.73649 -5.7426 -10.0589
11.6052 6.43112 9.92831
6.3229 -3.96082 -19.0074
-8.20679 7.97619 -2.07534
11.813 -8.0716 -8.17899
4.45132 -6.41769 -18.6905
-8.20661 6.40686 -4.77631
-6.20106 -5.99413 0.359757
7.54024 -3.99235 -11.8972
-5.16311 0.759411 13.6595
-0.61056 4.27794 19.0056
7.43752 8.17617 10.0111
11.8044 -6.79426 3.96566
8.45088 -5.71436 10.0025
-7.98559 -3.32097 -9.94503
3.74078 9.70774 9.96059
-8.09809 3.10862 -9.72935
-1.95092 -1.11932 5.89722
7.12584 3.05979 5.16221
-8.10818 -8.13075 9.74449
11.6856 -2.39255 -5.74544
6.07657 -8.03447 -4.19369
-4.09612 -10.0112 -8.00302
5.82191 -10.0104 8.15438
-2.65814 4.55981 4.14783
-8.22512 8.07946 8.14743
-3.31465 9.71715 -3.29095
9.85575 1.62781 5.76483
9.77952 -9.69046 -9.94439
8.3159 -10.0032 -6.97436
4.21109 0.847615 5.95427
3.39341 4.81197 19.0043
-8.09165 -9.84818 5.69454
0.854983 7.0054 10.2551
-8.2074 -8.25903 -3.51963
6.26433 6.24597 9.99774
11.805 -7.67348 -6.35668
6.3101 5.36076 -14.0336
4.52928 10.0101 -8.22673
11.4569 1.13004 9.9767
9.44285 -4.61523 3.82269
10.1455 7.03625 -10.0106
-4.47242 3.10429 -13.8012
-3.1446 4.97522 -16.5556
11.8064 7.937 -5.62361
-1.88459 -10.0091 6.81883
5.15753 3.63016 19.0061
11.7698 -9.70901 -3.3705
-2.36961 9.74639 -4.44352
-2.87681 7.35227 -3.7608
-7.9256 9.97887 2.3946
8.6629 -1.38541 -13.182
-6.20532 -10.0074 0.893037
11.7635 2.86158 9.68593
-4.76311 2.42225 -11.8513
-8.20427 -3.38306 7.77487
-0.287643 -4.43388 -5.62071
8.36553 -10.004 -4.9236
-8.21542 0.603014 7.92735
-7.88163 8.43152 -10.0006
-8.19332 6.0422 2.13802
11.8079 4.55692 -8.23563
-0.274096 0.730952 -5.97261
-6.05235 4.14155 10.0056
-4.59452 2.8394 13.8131
-8.21103 7.91838 -0.00985918
-1.51527 6.17492 16.5434
9.17051 0.159912 -10.0558
-1.60676 -9.78944 -4.99546
1.2633 -6.82643 -18.8195
-8.20106 -2.38118 -6.00479
11.8039 -3.85211 -7.34594
3.38248 -6.28411 5.80206
-5.77475 7.96887 10.0089
6.50258 -3.5745 19.0188
-0.791775 -9.88124 9.85997
11.8074 -8.24298 3.0239
7.82246 -10.0113 7.84995
10.1941 -10.0106 -3.85999
11.8104 0.331831 8.11456
-8.21567 -8.29458 -0.628377
-5.81836 4.77115 3.64663
0.0949749 2.33452 19.0032
-3.3964 0.923004 -5.93955
7.63153 -3.88098 15.7405
10.0454 -10.0146 -7.98497
-3.07342 2.96407 -5.22462
2.73083 -7.71704 -5.92621
11.6937 6.03147 -1.49755
7.32913 -5.23652 3.06559
-6.48717 10.0186 -5.33468
11.6369 5.08555 3.46061
-4.75473 -2.42269 11.7948
6.70047 -5.00215 -15.7612
7.55125 9.87834 -2.35002
3.68457 9.80718 -9.81616
0.920456 10.0096 -7.99433
-8.20971 4.47039 8.26378
9.34621 5.28811 -10.0031
10.0538 4.43199 4.03053
2.07501 5.51232 -6.01066
11.8032 -5.89546 -7.88664
-3.47368 -4.37624 -4.08971
11.7676 -9.71013 -5.26588
-2.62711 5.02479 18.8807
-4.15609 3.68962 -16.1735
7.38974 4.2078 11.947
4.55587 -8.2011 -5.32124
-0.0902386 -9.93747 -5.94884
4.78472 -6.53111 10.1162
-5.12447 -9.8502 -9.85996
-3.84675 -9.90694 -2.56136
-8.21283 -7.73956 4.51675
-6.60108 10.0172 -7.73845
3.95176 4.50135 -5.60354
-4.76316 9.92273 9.80274
8.32186 -2.58386 -16.9854
8.28391 -8.35112 -10.0099
1.62597 6.86663 18.8559
11.4956 9.97701 -1.39119
-7.72299 -9.93318 9.74244
9.27967 9.77724 9.86757
-6.12568 -4.30673 10.0055
-0.0646022 -10.0136 -8.03702
-8.00174 9.95103 -9.42305
1.51244 -4.35489 -5.99605
-6.5667 -2.47863 -5.45257
2.98328 10.0127 7.9426
3.98246 6.67236 11.7456
9.93796 -6.58624 10.0074
7.09906 -4.57944 -13.8425
-1.31094 3.59539 -5.13112
-0.920667 6.45414 -12.5123
5.95372 5.64811 16.842
0.503052 3.06416 -19.0045
11.7304 -0.885857 6.14276
7.54995 0.805203 -5.95552
5.22478 8.21374 10.0101
2.75571 -6.60751 -18.9596
-1.16639 9.88648 5.41195
8.54849 -1.90703 -14.9783
-4.54329 -2.33855 -18.8683
11.5613 -0.730868 9.90576
5.92953 -2.84447 5.27465
-8.07164 -9.8539 -8.05972
-4.60623 -5.87301 -10.0027
3.77762 4.68238 -19.0079
6.94183 4.75306 15.3396
-5.00647 -0.430557 -18.8456
-3.65753 -3.97553 18.9518
3.04901 7.24157 10.0076
-4.96459 1.22177 -18.8339
1.60273 -6.43477 6.00454
-3.46016 4.62089 13.639
-8.21207 -7.46055 -2.01326
2.52211 -6.96483 -15.2326
10.2157 10.0057 -4.25593
-5.92969 -3.95733 -4.51841
-8.16642 -6.00051 9.72598
4.72742 10.0134 7.88077
10.1019 -0.0236903 5.99953
8.45942 -2.16553 -11.5482
-4.22318 6.64773 -10.0024
-3.51125 4.56492 -14.4663
2.81319 10.0188 -7.75271
9.02162 -1.38294 -10.0403
4.5521 -6.24166 18.8419
-5.19432 -0.278392 15.3293
-8.21351 1.97485 -7.93983
8.73516 -10.0056 -3.0564
-4.27209 6.10588 -0.964698
5.69423 6.18094 4.56999
-8.20723 6.30919 7.85218
-3.82013 7.86223 -2.08034
6.08413 -1.93839 -19.0055
-7.75694 -1.80569 -9.97182
9.7463 -3.29992 4.99472
-3.22971 -4.89619 17.1928
-1.52114 7.85049 -5.0028
6.29472 -5.36514 -12.2649
-4.77726 10.0184 -8.28329
2.64393 -5.66178 -5.94382
-0.471915 8.27783 10.0054
-8.17936 4.78832 -9.60018
8.42566 -2.2845 14.5863
3.39409 0.142327 19.0022
6.48219 -2.32011 -5.53626
-6.01141 -5.78993 -1.55756
3.98759 9.91288 5.81167
-1.73149 -6.0403 11.9128
-8.207 -5.25464 7.4835
-2.03534 -10.0149 8.58536
7.75257 -3.91951 4.55769
-2.23919 -8.00421 -10.0065
6.77688 -10.0045 -5.96734
1.02285 -6.81799 18.7561
-6.16807 10.0064 4.36095
-3.10386 -9.84794 3.7039
11.5106 -0.535124 -9.92961
0.249184 4.60114 -5.79504
-0.0987675 -6.74363 -11.6581
8.10964 3.05281 -16.9462
-8.11615 -0.411853 6.23246
11.7784 -0.557851 -6.21822
-0.168924 -6.72459 13.1884
-1.46125 5.96038 5.03882
-6.12019 3.4606 4.90469
-4.35311 -3.33976 13.4674
-0.317507 6.67854 -14.3696
7.58971 -9.79697 9.91258
-1.08057 10.0116 7.82868
11.7795 -7.05272 -9.76469
-4.16195 3.66697 11.9236
-3.53123 5.62124 -2.79322
4.21956 6.41201 -18.8739
11.8072 0.389808 -8.07685
4.74835 6.34837 -13.5007
6.08282 -8.07712 10.0138
6.08384 -0.546492 -5.99318
3.17731 -4.74652 19.0095
3.89941 9.90637 -5.81046
5.98417 5.60218 11.4616
-0.154474 9.94624 -9.74028
7.93385 -3.10612 18.7936
-6.31366 -8.29012 10.0224
9.58095 10.0056 -2.24315
6.60052 9.83424 3.85315
0.704783 6.74238 -18.8016
8.77091 1.57778 10.1235
-1.62541 5.79434 -4.9356
9.81535 -1.68005 5.7634
4.21334 -0.898276 -19.0041
-6.46861 9.76424 9.92326
1.86689 9.94215 -9.77488
6.37032 1.78357 19.0028
2.74663 8.25955 -9.99437
-5.19481 0.3719 -15.0261
8.27634 -2.67492 16.9054
9.89481 -2.71329 -5.35528
-5.63795 -10.0032 -6.41782
0.291835 5.33352 5.80741
-8.06918 6.64658 -9.83148
-8.0383 -4.49793 4.22951
-8.09087 0.744634 -6.10011
11.8103 6.99087 2.6845
-4.18206 7.95823 -0.00324517
5.01276 -10.0039 -6.8502
6.73377 2.68095 -5.37355
-6.20647 -10.0246 -8.13243
6.40867 -5.27317 15.3988
11.8027 -4.68236 6.94558
-3.92716 -4.02952 15.4766
11.8111 -1.51014 8.03991
-5.05542 -1.43775 13.6521
-8.20383 6.39759 6.01427
-3.54646 -2.07873 5.63489
9.07146 1.7704 -10.0063
11.6825 9.81202 -8.3647
11.8054 6.40443 4.66449
-6.55061 -6.39393 10.0115
-8.20878 3.89732 -7.57094
8.4362 10.0044 -4.23484
2.57724 6.96485 -11.5583
7.43426 7.9859 -2.02816
11.8056 7.60904 7.70306
-3.15394 4.96989 16.9997
-7.9717 6.02253 0.680159
6.73144 -0.202871 -19.004
7.32606 -4.28207 12.0243
-8.20547 7.74331 -6.18429
7.9073 -6.20476 0.00864577
5.96001 5.29989 -18.9603
0.043242 6.46519 -5.73699
11.8132 -6.12226 8.2375
-8.19032 -3.56937 5.44863
2.0232 3.53763 -6.01115
11.5674 -9.92559 4.02571
8.35589 2.45399 12.0174
0.213229 8.36269 -5.78994
6.38779 -10.0099 -8.1037
4.48848 -9.88387 5.4966
0.672376 8.47582 -10.0033
-3.7809 -4.22975 -14.2682
8.09828 -3.0587 -13.4527
11.7383 -4.3688 9.70836
-6.28659 -10.0141 8.16004
6.22682 5.42487 -15.9103
-2.78724 -6.05968 -3.8567
8.09117 4.32882 4.14665
-8.12812 -9.79566 1.67815
3.82985 -10.0073 -8.12115
11.8073 -7.98393 -0.74739
-8.20456 -4.56502 -6.3114
-4.49751 1.79263 5.73449
9.79159 10.0104 0
-4.79869 2.72846 10.1154
0.00661166 6.54881 18.8797
-2.43965 -8.12515 4.24884
-4.94643 -1.87144 -11.8141
-0.883939 -9.67278 -9.93578
-4.22544 -6.06084 1.31637
7.52999 7.9558 1.72894
-8.06537 -5.05932 -9.83612
11.7227 4.05788 4.8357
-2.15245 -6.36366 4.51215
4.10553 -9.9386 9.6567
-7.98062 9.94816 5.81021
4.39034 -4.52173 5.41608
2.87608 2.45682 5.89732
-2.885 1.18329 -19.0049
-8.1615 -9.79141 -2.07265
7.23074 -4.61398 10.2333
-6.15133 6.02514 10.0074
-5.06661 -1.41049 -17.3007
-2.98081 -0.862038 19.0055
5.81925 4.24218 4.49194
-8.20453 -6.3966 -6.09814
7.77813 8.04431 -0.161284
-5.19872 -0.301876 12.0054
8.81116 0.340763 17.5683
-0.420761 4.62641 -19.0044
4.91521 8.06775 -9.99922
-4.32154 3.8137 4.63036
11.8091 -8.3507 5.239
5.05334 -0.976351 5.92669
-6.56131 2.02414 10.0026
0.070502 -6.80208 16.913
-8.21106 6.13756 4.36703
11.5477 -9.98063 -9.28195
3.45175 7.91637 5.77032
3.49302 1.29262 -19.0044
6.72507 -9.87317 -3.7126
0.18807 6.82945 16.9867
-4.76367 -6.25244 10.002
5.99079 -4.46093 4.30874
2.5272 6.87059 -18.8425
8.7209 1.0749 15.854
-8.2043 6.15427 -7.86083
11.8065 -5.4625 5.24504
-1.0445 6.44978 10.3526
-7.98866 -3.59745 -4.87252
-8.12566 9.77169 9.53664
9.65491 10.006 2.07902
11.8054 -7.98688 1.18295
-8.20859 8.09077 -4.06692
5.16965 6.13832 15.0407
9.74295 5.93488 0.904421
-6.09215 10.0049 -3.22516
-3.75165 -4.01846 -18.8073
-3.58927 -4.49351 -16.5762
9.40736 10.0051 -6.06767
7.84346 6.46326 -10.0009
-1.18409 9.90853 -5.45064
1.29244 4.78024 19.0061
7.85592 -6.44601 -10.0016
7.01083 4.70907 -17.3955
5.28385 -9.87842 -5.09134
5.58292 9.83964 -9.88328
-0.856472 -6.49412 -16.6288
4.17557 -1.6627 19.0026
-1.43578 -0.545955 -19.0034
-8.05639 -5.72407 -2.26455
8.18061 -3.33275 10.0893
-3.13214 1.05857 19.0056
-2.47506 5.54536 -13.3452
8.06657 -10.0034 5.38044
-8.0367 4.1988 4.42387
4.09575 1.99187 19.0027
4.96325 7.97373 -5.08351
6.35877 -6.0109 10.0003
11.8052 6.3135 -7.20529
-0.024528 -1.91666 19.0048
11.5289 1.33127 -9.94485
6.5411 4.95109 18.7566
-3.95645 3.98839 15.4881
0.745597 -5.00891 -19.0045
2.36344 3.19515 19.0025
-8.17875 1.21249 9.75851
-2.39206 5.32922 -18.8067
9.91256 -4.28648 -4.18533
0.831558 -9.92612 9.79014
5.69158 6.1506 -10.0773
-4.32345 -6.14139 -0.501711
7.58945 -3.93759 13.8888
-8.2015 6.03839 -2.78729
2.03521 -3.09346 19.0038
4.27922 -1.30258 -5.85306
3.79307 0.478021 -5.99144
-8.1373 9.78495 4.05953
6.69886 7.63401 3.45226
6.77797 9.93626 -3.71175
8.00466 -9.90409 -0.267861
11.8061 8.06578 -7.75979
11.7722 -3.95646 -9.68384
4.16983 4.04677 5.50322
3.20335 6.87035 -15.1867
3.31127 -6.85191 13.1708
-3.40308 -9.92938 9.79642
-2.64181 -5.40987 -13.3734
0.590402 0.182982 19.0023
-8.0709 9.88574 7.58597
-7.90015 5.12409 3.17133
-2.87584 5.20962 11.7778
-4.48755 -3.07546 -15.5008
3.25173 -8.17562 5.81201
11.7122 -2.54927 5.75374
-8.09443 6.47917 9.86569
-6.54003 1.51884 -5.78995
11.6779 -9.77085 -7.13155
-8.21496 -1.79203 -8.02516
8.73927 1.14253 -17.1425
-2.2963 5.67111 -11.5776
6.04528 -5.26724 18.9466
11.5807 -6.00642 9.90753
9.25666 5.29814 -2.81407
8.27532 10.011 -7.87324
11.8029 3.90574 7.40631
4.28364 6.55445 16.9912
8.06681 3.34086 10.1762
-3.84448 -5.87402 -2.18814
-5.00519 1.26278 18.8089
-1.3789 -5.88366 -18.9622
-8.12362 6.10478 -1.03729
8.52423 1.98658 14.1778
-2.36161 7.75198 10.0081
0.341797 -0.862584 -5.95288
-1.88765 5.95562 -15.1093
-6.3741 -6.27593 -10.0196
3.55088 6.80178 -17.0529
-4.25771 6.09294 1.09463
5.83048 -9.87076 9.90746
2.69801 3.07637 -19.0026
7.84998 -5.87236 1.53429
1.94852 -2.68453 6.00531
-4.35407 -9.84502 0.452789
-3.46185 -4.61127 11.9522
4.37086 -6.52367 -16.0085
7.87789 -9.91244 1.52072
-5.10356 5.38017 -2.6667
9.87259 5.89627 -1.08008
2.30309 -0.597568 -19.002
-2.39815 -5.70203 10.2342
-5.39801 -1.15574 -10.023
6.029 -4.14948 -4.4518
-4.19274 -3.62181 -12.248
11.7027 -9.79786 0.265632
3.50509 6.80374 13.58
-1.72314 6.05162 12.8011
11.5007 -8.57576 -9.97536
-4.54391 2.98125 17.1024
-1.85633 -8.63378 10.006
2.00657 -7.24445 10.0645
-7.97595 -9.93629 -0.160831
1.48539 8.26682 5.99977
-5.16815 -0.736428 -13.417
3.32385 -9.80333 -5.87425
-1.70812 8.06471 4.87094
7.2718 -7.01805 2.42926
9.21718 10.004 4.00329
7.5234 -9.8312 -2.06277
11.5364 5.72086 1.91463
-5.37271 0.427753 -5.99956
-2.39345 -5.6303 -17.308
5.11936 5.95477 18.8212
-8.12565 -8.53495 -9.70875
8.11713 0.0342295 19.0112
-0.817375 -6.49328 -13.1924
8.03919 -2.34312 5.53433
7.28734 4.74248 10.0947
-1.86135 -5.96828 13.7185
6.25769 -10.0054 6.39188
-6.34828 1.96948 5.68172
0.553515 -6.89493 -15.152
-4.56849 10.0121 -4.42268
-3.05688 8.39386 3.50428
5.61869 -5.87867 -17.0136
-7.90516 8.11974 9.97988
-2.01715 9.86574 -9.77312
4.25304 -6.55894 -13.993
2.02596 -1.22499 19.0029
-0.794565 -6.50367 15.2405
-2.85978 6.63229 3.77284
-8.20663 2.56527 7.71649
-2.08055 6.17157 -10.038
-8.20595 0.0821833 -7.99523
5.33534 6.05919 -17.3258
7.40137 4.22412 17.1387
1.11415 -6.96952 14.7025
4.00338 -2.78317 5.59491
4.10079 -2.80441 -19.0053
-3.50154 -7.61362 2.80561
4.62597 6.55064 10.1391
7.23201 -4.47498 17.5654
0.726099 -6.31124 -5.91782
5.77609 -5.77437 17.1758
2.04842 9.95955 9.70871
9.29966 5.38815 2.65448
9.46853 -9.97699 9.64358
7.93387 6.16438 0.00311265
-0.833778 1.50787 -19.0057
5.10749 -9.91761 -9.78211
5.18896 2.4677 5.46428
-0.796898 -7.87394 5.43027
7.65155 10.0018 5.5248
-8.12161 -4.81156 -3.97374
0.982209 10.0088 7.90078
-8.14957 -6.86018 -9.74524
10.1899 2.72994 -5.34203
6.32038 -5.34795 13.3974
1.02364 -2.61602 -5.95084
7.918 9.90242 -0.8491
8.39358 2.41701 17.3437
-2.97712 -7.26163 10.0014
11.6399 1.1648 -6.03157
11.7768 2.70203 -5.65947
-0.207172 6.72151 -16.5523
5.52945 0.175041 19.0045
8.55876 1.81878 -11.4432
-2.35976 -5.28795 18.9687
-3.94873 4.40062 10.0735
11.7095 4.50801 9.79693
2.79696 -6.93055 -13.2684
8.73893 -1.04918 16.3649
-4.2396 2.82671 -18.9505
11.7875 -5.36707 -3.48754
8.79619 -0.313935 14.5218
-4.89293 2.07224 -15.4138
9.58293 0.89679 -5.94527
9.44297 -10.0037 3.12048
-5.79114 -4.81737 3.58325
-5.16551 -2.55325 5.4324
-1.25719 -6.11805 -5.16501
-4.17203 9.948 -2.04092
1.75859 -6.99848 12.5062
-1.20675 8.2017 -10.0075
7.39504 3.88724 -18.8947
-0.398886 6.68501 -10.3266
6.38565 -1.53031 19.0091
11.8138 -8.25426 7.73083
1.70959 8.47089 10.0031
-4.33673 10.0049 5.22424
11.8067 -3.29083 7.83302
0.0972273 -1.87699 -19.0024
5.17092 0.785108 -19.0031
1.12278 -8.20802 5.98062
3.00574 -6.89701 15.1054
1.93732 -10.0138 -8.09404
3.37205 6.6832 18.8186
-5.20632 0.249271 -11.668
0.390895 -7.98545 9.99149
-1.062 10.0092 -7.66352
9.63608 -10.0081 7.28521
6.49619 10.0088 -8.12075
5.21951 6.1095 13.0558
11.8049 -5.60465 -5.80489
6.90594 -9.77723 -9.93264
6.35629 10.005 7.23056
-8.11983 9.78053 -5.11007
11.7577 8.13882 9.75647
8.65737 1.4091 -15.3672
1.71154 0.991447 -6.00304
11.5163 -9.63682 9.85287
-4.78138 2.35361 -5.52416
-0.362441 -2.30525 5.63909
-3.82607 -0.994759 -5.91752
11.7919 9.67837 8.2772
11.1666 9.71093 -9.99818
2.28748 9.90167 6.1204
7.91809 -4.29525 -4.18693
-3.76789 4.24561 -12.17
4.80631 -2.92601 -5.32721
11.8055 -7.43811 -4.4811
7.74025 -8.09388 -0.841611
5.06174 3.12344 -19.0034
-0.698132 -6.32825 18.852
-3.35502 4.8355 -10.2067
1.01174 -6.9597 -13.4497
0.474141 0.012195 -19.0015
8.79232 0.240646 -13.9023
6.28644 -6.4968 3.99164
1.05685 -8.24661 -5.94479
-5.06819 -0.449253 18.8456
-5.08592 1.26727 -13.3788
-3.14258 10.0119 -6.12029
-1.96317 3.19081 -19.0042
6.70437 -8.27947 3.44021
11.7917 6.47794 -9.59564
2.87932 -9.78852 -9.93698
-8.20764 -7.84975 -7.67994
-8.20871 -3.70493 -8.04533
0.22731 9.96895 9.75565
-4.30157 6.52266 10.0016
-3.82881 5.42582 2.80965
-6.23042 -8.20926 -10.0237
-4.58727 -2.26234 18.9407
8.74532 -5.267 -2.86045
-3.79962 4.02573 18.798
9.68008 5.22411 10.0046
-2.78037 2.8149 5.29035
-6.73773 4.99894 -10.0149
-4.19838 -7.78199 -10.0155
6.21668 -7.87756 -10.0069
-8.1363 -2.05125 5.94945
8.49282 2.52002 -5.4471
11.8026 5.7002 6.37353
-6.44633 -3.56757 4.82288
3.68655 6.88181 -10.094
11.806 6.15263 -4.94671
11.6344 2.55741 5.63145
-8.13474 -9.7176 7.74634
-5.73008 0.2822 -9.99391
-3.16085 -9.75526 -9.93794
6.01649 -5.44201 -18.7334
-0.951017 -6.69199 10.0807
11.6635 -6.15669 0.0907907
7.88158 9.85274 0.899448
-2.27582 1.10665 5.90216
1.90322 -2.60004 -19.003
-4.07259 -7.98313 -1.10495
9.93952 -4.37776 10.0098
-1.13557 3.87929 5.2389
6.34542 5.32375 -12.022
9.88779 -8.4017 10.0161
-4.95335 1.85996 15.4535
2.41986 -4.43629 -19.0042
-5.17981 -0.832069 10.2615
-6.1441 5.59362 2.16276
3.04758 -6.91157 -17.2148
-3.28142 -4.81386 13.8064
9.92781 -5.94365 0.827661
5.5752 9.85024 -4.87607
-1.83143 -0.61376 -5.9859
11.8067 8.08677 1.24181
-0.755299 2.13798 5.63875
7.54092 4.00674 -13.4894
1.80713 -7.01284 16.7041
7.10491 -4.70798 -10.1775
2.42701 -4.57066 5.97586
11.5407 -5.49669 -9.8772
8.5388 -1.55857 18.7013
11.6005 -9.91633 6.20949
-6.64265 -10.0096 4.58874
-3.81757 7.73654 2.00169
-3.78161 8.58951 10.0121
6.21213 0.78308 5.95975
-8.07599 -9.88595 -4.03374
10.0747 -0.900326 -5.93504
4.323 -4.66544 -5.44551
-8.04422 9.87766 -3.08745
11.8052 2.47195 -7.80372
-0.446336 -3.77056 -19.0066
-5.14986 8.42021 -10.0124
7.71813 5.90672 -1.71165
8.14857 -2.99799 -5.20657
6.54752 5.14186 13.5626
4.1167 -8.41833 -10.0067
-3.68508 -4.77215 10.085
11.7289 8.26699 -9.78149
8.70335 -1.16581 12.7003
11.8061 7.59405 -3.29693
8.07183 4.08512 -4.39262
-6.26705 10.0233 8.23178
-7.88346 -2.41486 9.97075
-0.593201 0.0557657 6.00112
11.548 9.92401 4.84248
-0.015369 6.76264 12.2644
3.17415 -1.12433 5.92181
-2.0983 -2.58466 19.0035
2.34048 -1.03259 -5.99674
2.2681 7.01032 17.1028
9.9385 -10.0109 5.15173
-2.10442 -2.67957 -19.0044
0.325226 9.86133 6.01651
-8.00918 -0.241126 -9.94685
-8.09353 -9.8229 3.58864
6.96933 5.34168 3.23043
-3.75165 9.96689 3.12642
9.66219 10.0051 5.97214
0.584126 -4.08874 5.88374
11.601 9.92031 3.08199
11.5541 -3.8043 4.69912
-4.31165 -9.89591 -1.11517
8.30897 -1.69902 -18.9997
11.8049 -1.80944 -7.88619
11.8107 8.30534 3.74622
-1.93652 -4.12516 -4.73311
8.08397 3.09378 15.6873
8.88746 8.23749 -10.0157
9.8624 -7.14132 -10.0075
9.78482 7.77284 10.013
8.28569 -0.14168 6.00337
-4.07821 -4.07113 -10.182
-0.142175 -6.08703 5.67616
8.22534 -3.32185 -10.1021
2.41723 -9.65001 9.95293
-4.33639 9.86551 -0.40923
1.00147 -9.71207 -9.94804
5.83808 4.11889 -4.49661
7.79536 3.61949 13.7591
-3.2166 -4.87474 -11.653
6.95038 5.05521 -3.3531
-6.08597 10.0074 6.32719
1.94081 1.41945 19.0023
1.56841 -7.0014 -11.6376
8.78392 -0.0227031 -11.8712
5.26595 8.11658 4.89207
5.71154 -5.80929 -14.4555
-6.25108 10.0151 -1.27884
1.51661 1.45852 -19.0045
11.5119 -9.96233 8.17157
-6.03774 -10.0083 -2.84759
-5.16355 0.781445 17.0665
-6.41941 3.03104 -10.012
1.78488 7.41557 -6.0144
0.913662 1.30717 5.95374
-3.00495 10.0034 9.25422
3.24193 -6.84981 10.7247
-4.50855 -2.90268 -5.25867
-8.08055 -0.686357 9.70942
5.1617 -8.13078 4.95877
-1.84805 5.9932 -17.0954
4.37299 -6.72195 -10.0935
-6.90086 5.42376 -2.54633
11.803 -6.85652 6.39022
1.62709 -9.94447 -6.25461
-5.95304 5.97751 0.470916
-8.05482 -5.98786 1.47194
1.49448 6.99104 13.6565
9.68471 -5.92729 -0.966911
-1.10156 -4.57095 5.26404
2.36413 4.58482 5.98616
11.7023 -2.62668 9.76551
-0.547201 6.60636 14.5408
-2.54596 -5.49209 15.4688
7.27279 -9.92306 3.13167
-4.38096 -8.24616 10.0143
8.79737 -0.445099 -15.8094
-3.50017 0.0231227 6.00146
4.2194 -4.67749 -19.0047
8.32 2.20447 -18.791
11.7268 6.1661 0.234017
3.96382 -8.2081 10.002
-3.44385 -7.86421 -2.9117
-5.19345 0.898038 10.2622
7.90707 1.68329 5.7629
-8.17146 9.74832 -7.08532
-3.98014 -9.87124 2.18979
8.65442 -1.60228 10.4419
-2.88677 10.0083 -7.91854
0.0809379 -9.87845 5.86814
8.30006 6.44501 10.004
7.14757 -7.68853 -2.71819
-2.6073 5.70331 10.0921
-2.69292 -2.52041 -5.44331
6.84699 6.69044 -3.25047
3.19964 2.23629 -5.80381
5.79142 -5.83253 -10.2346
-8.08303 2.95376 5.51288
-5.86372 10.0073 2.57884
-6.1948 -4.12936 -10.0071
6.99883 -5.48793 -3.13904
10.0334 -2.29729 10.005
0.11212 -10.0084 7.828
11.7128 -2.20083 -9.80063
-2.55928 -5.04484 -18.9644
2.19622 -9.89692 6.20472
10.3203 -5.37356 -2.62911
-4.42387 10.0071 7.56339
8.21368 3.44725 -10.0687
9.33969 -0.0659302 10.0098
11.8072 5.71769 8.23117
-6.29931 7.08381 -10.021
9.47882 -5.02246 -10.0032
1.19773 6.97597 15.4359
8.76562 0.790253 12.9988
0.481688 -7.36902 -10.0089
-5.18459 1.70546 -10.1032
-0.65643 -7.9872 -5.4743
1.05592 -6.97215 -16.9279
-5.15661 5.15478 -9.99964
2.98624 -3.12303 -5.88077
8.77434 0.349547 11.4228
8.18598 -1.07425 -5.90901
3.25557 8.25284 -5.81
-4.11651 -8.0192 0.936383
10.1104 -3.00322 -10.0075
-4.23048 9.85035 1.35888
-2.73616 10.0073 6.70415
1.63366 7.01653 -16.8453
7.57766 9.92806 2.49012
-8.11733 3.05698 9.77462
-7.91527 -0.718066 -5.99075
-5.07358 -1.36342 17.0973
-6.28078 5.90399 -1.06651
4.54202 6.43795 -11.7563
0.329988 2.54238 -5.81655
4.73339 2.81842 -5.30964
8.50925 2.02917 -13.2097
1.03145 -0.956572 5.97305
5.41782 10.0062 -6.68672
11.8051 4.43682 -6.42634
4.75833 -6.33516 12.2222
-4.38821 -3.48277 10.2281
1.32316 7.05555 -10.2278
-4.4687 -3.15527 -17.2694
-5.03742 10.0048 -6.41621
-5.76723 -1.14624 -5.89178
-4.95461 1.86423 12.0075
-0.81964 -2.49005 -5.50931
1.09079 -4.91961 19.0056
6.65511 1.90113 -19.0134
2.31537 -7.36181 -10.0128
-0.862429 6.3583 -18.7124
-1.51543 6.13696 18.6224
1.97411 9.75557 -5.97955
11.8052 -7.72899 -2.70447
-5.42989 -2.23894 10.0099
-1.20889 -6.32022 -14.7356
7.86078 -3.32817 -18.8149
-7.95308 -9.88537 -6.25592
1.94784 6.44619 6.01758
11.6871 -6.00593 -1.64689
3.28517 -6.85164 -11.5076
6.81246 -1.13089 5.90091
-4.99558 -0.610692 5.98725
4.9667 -6.30062 5.09871
-4.51107 3.36436 -10.105
8.77495 -0.86489 -17.4991
8.03572 -7.74033 10.0062
