1.50007 5.64735 0.419211
-3.15252 5.88466 -0.988608
-2.769 5.37256 -1.37729
0.681634 5.68026 -5.29217
0.66255 7.04403 -4.60972
2.3632 5.03897 -0.869897
-1.27138 6.81012 -2.93126
-2.1941 6.98372 -3.15759
-2.89194 6.22763 -0.912348
-2.58792 4.97405 -2.65337
0.692037 6.77233 -5.15105
-0.0308332 6.10093 -3.42384
-2.9672 5.47983 -2.13799
0.633701 5.01679 -0.282621
-0.544467 6.52577 -5.30256
-2.26361 6.56798 -0.375272
0.734554 6.40428 -2.81281
3.11522 6.42838 -1.74225
-2.92381 6.60847 -2.88117
-1.94873 4.84071 -4.15728
1.45848 5.27183 -1.89566
-2.28922 5.27438 -0.58312
1.21391 6.38843 -2.13058
-0.0672575 5.46458 -5.33739
0.0522627 5.90231 -1.03534
1.28045 5.27712 -5.16315
-2.79553 6.72304 -2.49574
0.490047 7.01822 -0.572642
-2.93112 5.47023 -1.70612
-1.30735 7.14637 -0.284607
0.911758 5.97398 -2.767
0.719669 5.85166 0.773291
1.40496 6.39867 -4.91567
2.10292 5.78203 0.0177808
0.180125 6.91922 -5.24551
1.60533 5.09806 -1.55158
1.79541 7.17834 -4.2007
-1.14485 5.13868 -3.34873
-1.5131 6.02275 -4.95731
1.1882 4.78782 -3.41722
-0.790194 5.3113 -3.0051
-1.3046 6.52316 -2.54594
-1.43741 6.53347 0.370946
-3.31045 6.24738 -2.10726
-2.73211 6.12418 -0.546063
-1.83872 4.69398 -1.39689
0.224218 6.47275 0.839925
2.36375 6.54811 0.0610275
-2.52778 5.08082 -3.35594
-1.09424 6.82253 0.461012
-0.760235 6.88823 -5.19812
0.0717732 6.33775 -1.05185
1.08027 6.539 -2.77657
-1.48984 6.72817 -2.24421
0.553245 5.04627 0.710056
-0.216694 5.01649 -3.94803
2.16047 4.70736 -2.08965
1.56326 6.98565 -0.539839
0.890844 5.92991 -2.27281
-1.91268 5.09046 -0.574517
2.48622 5.16662 -3.18405
1.4853 7.05602 -3.72988
0.102847 5.72086 -3.43529
-0.400178 6.49168 -3.39332
-2.15241 6.1499 -4.55241
1.40388 5.03491 -4.14015
-1.05441 5.47814 -1.4076
-1.21282 7.0325 -3.86157
-2.27376 6.86117 -3.55269
-2.20404 5.07796 -0.971835
-0.119059 6.99106 -4.01856
-2.63787 6.59391 -1.00975
2.34963 5.5069 -4.57719
1.08101 5.05375 -4.40749
1.86577 7.2821 -1.70919
1.30851 6.95411 -0.222755
-0.129123 6.11395 0.855327
2.25592 6.92381 -1.14039
1.49697 5.27466 -2.3341
-1.39204 5.12182 -1.4765
2.69914 6.49269 -0.315757
-1.57355 5.04138 -3.29027
0.710438 5.09926 -0.795983
-1.31898 5.23306 0.399258
-2.05662 4.68264 -1.7309
2.31434 5.15885 -3.51997
0.263594 5.02141 0.381049
1.24657 7.09627 -0.765575
-1.52124 4.72402 -1.19279
-0.822814 5.51458 -2.7592
1.03825 6.57128 -5.0528
0.649914 6.98477 -4.1728
2.58918 5.34381 -0.969414
2.66141 5.61701 -4.27387
-0.450175 6.59191 -1.31768
1.74309 5.78004 -4.91893
-0.729566 5.12856 -3.43499
-2.53455 5.28648 -1.00812
1.02017 6.82743 0.724157
2.92363 6.55184 -1.34733
-1.95462 7.29875 -2.41113
-0.19551 5.18184 0.875662
-1.26609 5.22521 -2.99372
-0.324266 5.76534 -1.05469
-1.63915 5.88691 0.50765
-0.55539 5.24758 0.88039
-2.73884 5.73177 -0.278908
1.01272 6.70633 -3.14809
-0.273079 5.82648 -5.3223
2.0871 7.28579 -2.02132
2.66268 6.75173 -3.06392
3.12377 6.40699 -2.18312
-1.08425 6.13884 -2.50455
2.82388 5.4445 -3.34432
1.40709 7.11807 -4.14261
-3.1327 6.45683 -2.50549
-0.520085 5.2778 -3.21678
1.7939 7.12836 -3.40854
-0.268932 6.23938 -1.13233
-0.933659 5.12534 0.285905
-0.667306 6.88847 -0.681208
-0.839804 5.89011 -1.4942
1.15476 5.31941 -1.54145
-2.45242 6.62898 -4.33719
2.10214 4.6969 -2.49188
-2.74008 6.52623 -4.04682
-2.45725 6.16331 -0.25286
-1.33652 5.12734 0.0211925
0.656796 6.90441 -3.77776
2.15549 5.19124 -3.88681
0.253668 6.98586 -4.27833
1.78324 5.09563 -4.03135
3.14189 6.3123 -1.01136
0.169075 4.99259 -4.08863
-1.4084 7.11867 -3.45846
-2.97203 6.56614 -2.11175
1.89464 7.23172 -3.85239
-0.131279 5.06675 0.492234
-1.45311 4.92761 -4.21004
2.12653 6.95052 -3.97623
2.42927 6.18368 -4.19519
1.7993 4.92636 -0.0929919
-0.131586 6.9616 -3.5008
2.94912 6.35634 -0.625132
1.7957 5.00828 -2.00906
1.66828 7.08891 -0.948883
2.82225 6.68044 -1.82442
2.93349 5.49808 -1.72279
1.39894 6.77483 -2.90946
0.559405 5.16224 -5.30055
0.504785 7.03099 -5.06614
0.508049 5.45732 -3.41291
-1.72965 7.26484 -2.74079
2.44883 7.0625 -2.87723
2.88091 5.65688 -3.9743
0.87433 5.11712 -4.92877
-2.05202 7.31259 -1.9872
-3.05262 6.41376 -1.70399
-1.85718 7.0205 -3.48365
1.43228 5.63479 -5.0986
-2.61267 5.03119 -2.23056
0.664889 6.14428 -3.0981
-0.886564 5.71894 -2.46373
0.933197 5.20509 -1.15468
1.62392 6.84539 0.0440233
1.34801 6.03278 -5.03972
1.82179 4.90827 -1.1709
-0.129014 6.77208 -1.1091
1.00462 5.01262 -0.451949
-2.4664 6.962 -2.52487
2.46783 6.99553 -1.98313
1.58376 4.99679 -2.794
-1.43646 5.0082 -0.389376
0.621124 5.35988 -1.40877
-0.215488 6.58916 0.797986
-1.17368 6.34857 -2.12617
1.28383 5.16023 -4.76626
-0.547723 4.9852 -4.74219
1.1107 6.39887 -1.60602
2.92178 6.46052 -2.97734
-1.6423 6.86533 -4.54581
2.38866 5.76941 -0.281206
0.243573 6.9368 -3.80239
-1.99481 6.88929 -3.88517
0.739349 6.55104 0.801953
2.72667 6.00369 -3.98019
-1.96747 6.92231 -0.314776
-1.87105 4.87874 -1.0135
-1.77426 6.28326 0.263422
0.547696 6.89851 0.784924
0.6718 6.79389 -3.41958
-0.214414 6.21745 -5.32731
-3.17865 5.74161 -1.79178
1.17696 5.62804 -2.41065
2.14418 5.04945 -0.452222
2.37307 5.38581 -0.530117
0.247656 7.0131 -4.72154
1.03712 7.07014 -4.37413
1.11771 5.78126 0.634843
2.01417 6.75097 -0.0275222
0.766959 6.3081 -1.25477
-2.19343 4.90007 -1.3741
-2.87717 5.55984 -0.99928
2.95597 6.532 -2.56228
1.62226 5.18389 -4.52046
-1.52592 6.92685 -2.62453
-1.59645 6.99777 -3.80854
0.187564 5.11711 0.823359
-2.66364 6.6707 -3.65052
3.03619 5.55588 -2.93805
-2.71331 6.1341 -3.96595
1.81885 5.41938 0.120544
0.28 5.01146 -0.0680875
1.53438 5.20892 0.277569
1.95715 4.87573 -1.61934
2.91098 6.12738 -3.58105
0.932305 6.16546 -5.16853
-2.53105 6.48143 -0.656634
2.83826 5.66009 -1.08069
-0.258623 5.09973 -3.42764
1.38926 5.10676 -1.18513
0.257965 5.94506 0.85483
3.21202 5.79206 -3.32756
1.66041 6.73027 0.491135
-1.2308 7.18068 0.164458
0.855344 5.20402 -3.35072
-2.98311 6.42562 -3.7002
-1.73341 7.04837 -2.25034
1.60006 6.84319 -2.56004
-0.861949 7.00552 -4.14446
-0.576862 5.02718 0.010068
0.656995 4.99146 -4.22405
0.385219 5.6321 -1.14969
1.07732 5.3831 -3.09713
2.9062 5.98722 -0.821558
0.986241 7.12498 -1.07487
2.09111 5.35803 -0.178019
-0.984817 5.06169 -3.72624
1.67563 5.32948 -4.98822
-0.480535 7.02514 -3.87648
0.429893 5.91841 -3.34639
2.561 6.841 -1.55148
-2.71238 6.67326 -1.37886
-2.14214 7.11552 -2.76332
0.3277 5.51695 -5.34081
-0.0193328 6.52929 -3.41735
2.09605 6.19709 0.18562
1.78887 4.94672 -2.42726
-1.86527 4.96659 -2.90507
2.30595 4.72795 -1.6206
-1.41636 6.43349 -5.05713
0.682031 5.04809 -4.59656
-1.56626 4.88948 -0.749738
0.248608 5.01662 -4.50772
1.74817 6.19611 -4.77509
-3.36825 6.14516 -2.51778
2.7857 6.57015 -0.860035
0.0899717 4.99525 -3.60073
2.01833 5.4181 -4.81409
-1.44427 6.90108 0.208188
0.403842 5.17426 -1.14615
1.78683 7.05999 -2.1592
2.29664 4.93193 -2.85223
0.797778 5.71252 -3.17744
-0.208372 7.02416 0.698061
-0.12378 6.63059 -5.31957
-2.0437 6.48366 -0.0676866
-0.52523 6.96877 -4.81971
-1.34433 6.17714 0.548396
1.16954 5.51855 -1.99858
-2.37259 6.74871 -3.96264
0.563831 6.21595 0.818538
0.921263 5.27266 -5.27714
-1.37755 5.00509 -3.75292
-0.691278 5.62341 -1.17105
-2.5884 6.77062 -3.24711
0.0987011 6.9635 -0.557653
0.37065 6.53476 -1.05169
0.0971157 5.05122 -0.976396
3.12382 5.62131 -2.49899
-1.37198 6.90957 -1.13686
2.45126 4.87444 -1.96793
-0.667718 6.75947 0.661468
1.03394 6.12483 -1.95675
2.31124 6.7048 -0.335051
-1.8769 5.42481 -4.57473
0.668806 4.9824 0.196103
-0.670305 6.13621 -5.27191
0.788413 5.53293 -1.6842
-2.27983 4.77923 -3.51508
1.45894 4.90062 -3.70621
-2.07008 5.20932 -4.29333
-3.11173 5.71065 -2.49036
2.17659 7.29317 -2.78046
1.05236 4.94877 -0.033488
-2.40937 7.02342 -1.42629
-0.544513 5.10923 0.468504
-1.25552 6.96066 -4.28663
0.0121285 5.59386 0.887005
2.43664 6.17736 -0.107383
-2.33687 4.70233 -2.43077
1.19904 5.34645 0.526321
1.73051 6.31183 0.447201
-3.27761 5.88368 -2.15569
-1.01732 4.96811 -4.98988
0.144593 5.09492 -5.291
-2.97863 5.79873 -0.637193
-2.91061 6.03795 -3.60097
-1.70234 5.15339 -0.199831
-2.76792 5.67195 -3.51922
-2.24174 6.87134 -0.667205
-2.83329 5.31905 -2.5239
-1.12831 6.12469 -5.14239
-1.01145 7.1081 -3.2991
1.5845 4.73632 -3.21197
0.911638 6.0422 -1.58006
-0.94718 6.66335 -1.29944
-2.70723 5.20064 -1.87661
-0.861632 7.07072 -3.68858
1.8795 7.09662 -2.58774
-2.93861 6.56433 -3.28509
2.69433 5.25233 -2.88031
-1.85995 5.88072 -4.71026
-0.253087 6.89348 -0.71576
1.59137 6.99665 -1.77218
3.19338 6.24201 -2.67255
-2.52631 5.33719 -3.67352
-0.346832 6.91705 -5.24989
1.08774 6.88045 -3.5434
2.08944 4.76784 -0.787328
0.515551 6.05954 -5.2831
-1.58537 5.59955 -4.84359
-0.510472 6.99486 -4.34392
2.58672 6.74269 -1.14993
-0.350782 4.958 -0.373432
0.427745 5.50344 0.826938
0.898005 4.99258 0.563707
-1.24132 4.7435 -0.979069
-1.00628 6.45742 0.609882
-1.75592 4.90687 -3.74071
3.40614 6.05873 -2.24431
-3.07819 5.67255 -1.36387
-3.17308 6.28843 -3.30856
2.77618 6.7427 -2.22532
0.849539 5.75624 -1.93896
2.46351 4.96359 -2.47021
-0.884641 4.80758 -0.888101
-0.187266 5.00554 -4.41736
2.26371 6.5541 -4.11896
-1.75402 6.73379 0.0429217
-1.61804 5.21409 -4.73883
2.58734 6.39147 -3.81165
1.34824 6.65069 0.661836
1.42969 4.91566 -0.370024
-0.422825 6.04351 -3.34781
-2.04198 6.80262 -4.31097
-2.41262 5.4581 -0.244407
-0.649235 5.0121 -5.15597
-1.7285 7.00469 -1.83685
-0.890635 7.13298 0.40522
3.07135 6.17821 -3.18505
-0.735364 4.91657 -0.448666
0.928934 7.05045 -4.95161
0.794844 6.9373 0.41706
0.649307 7.08233 -0.928028
-2.29355 7.13258 -2.26405
-0.611266 5.70568 -5.26562
1.02596 4.92673 -3.92026
-2.41361 5.90163 -4.20782
-1.28329 5.28179 -4.97462
0.690809 5.81266 -1.37376
1.87676 4.70859 -2.8605
2.1462 7.30171 -2.37574
-1.0372 6.86651 -0.906481
0.962197 6.956 0.0050363
-1.39852 7.06854 -0.692006
-0.19512 6.97815 -0.232085
2.00655 6.62644 0.329956
-2.01123 5.89522 0.289611
-1.02441 5.76523 -1.80425
1.9406 7.10767 -1.25438
0.335403 6.34565 -3.31155
-1.00353 7.00058 -0.489221
2.63238 5.68061 -0.675975
0.822811 5.41528 0.706007
-1.53661 6.78139 -4.98088
0.225741 6.94735 -0.972684
-1.00331 4.96058 -4.54127
-1.1671 5.41632 -2.61061
-1.25829 6.91025 -4.7048
0.451705 4.98506 -3.52773
1.05566 5.72623 -5.20441
-2.08022 7.31295 -1.58233
1.43338 6.91751 -3.2974
-2.60576 5.73848 -3.86208
1.93857 6.77617 -4.34566
0.545129 6.59601 -3.08977
1.48741 4.87561 0.0924453
-1.82121 6.31781 -4.82905
1.55699 7.1141 -4.51738
3.38254 5.92423 -2.585
-1.14368 6.84219 -5.115
1.87929 4.80242 -0.431796
1.30162 6.90708 -1.44156
1.28695 6.547 -2.47768
1.50823 6.74188 -2.15399
-0.369127 5.6279 0.891528
-0.280198 5.59883 -3.37007
-0.140473 5.02338 0.0710557
-0.706895 6.71576 -3.32171
-0.574079 6.97854 -0.319993
-1.08856 6.36658 -2.87849
2.22285 7.07842 -1.60219
-1.69583 4.9122 -1.64466
2.62279 5.40004 -3.75513
-3.34736 6.07594 -1.72962
-0.782991 5.22384 -1.0527
-2.0045 4.8849 -2.52148
1.62845 4.92592 -0.785857
-1.21799 5.37149 0.764401
3.06122 5.72277 -3.66744
-1.14221 5.59868 -2.18009
1.40931 6.11341 0.562606
-3.18081 5.94233 -2.85269
-2.99799 6.32309 -1.29426
2.80351 5.29817 -2.52295
2.22801 4.73715 -1.20181
-0.47053 5.36394 -5.28021
1.87946 6.86283 -0.361016
-1.73493 7.06698 -1.42761
-0.594735 6.76653 -1.01511
-2.67019 5.50164 -0.62813
-1.56938 5.17299 -1.92882
-1.4141 6.67757 -1.89614
0.0182297 4.99227 -0.413658
-1.4142 5.34479 -2.26729
-2.05145 5.30825 -0.143604
2.66662 5.15054 -1.71971
-1.877 6.71785 -4.8116
-2.19203 6.1121 0.0374167
-1.39214 6.78606 -1.50442
-0.0905007 7.02294 0.233854
-3.27437 5.99114 -1.36034
0.393188 5.05718 -4.92177
-2.62757 6.86894 -2.13063
2.14414 7.21739 -3.57769
1.2016 4.93484 0.363179
2.51815 5.04118 -1.32697
0.108562 5.325 -3.45837
2.93273 5.43002 -2.12942
-1.96354 4.87727 -3.29849
-0.969296 6.48407 -5.21848
-1.65916 6.91784 -4.16752
0.440061 6.07913 -1.11879
-1.90028 5.51796 0.466318
-1.75045 4.9138 -4.49197
1.29879 5.048 -3.11183
2.66908 5.13163 -2.14436
2.01375 5.2696 -4.37331
-1.09714 6.50143 -1.69636
1.35062 6.65151 -1.78902
2.71756 6.51628 -3.40961
1.03492 6.25565 0.719229
-2.33774 5.4781 -4.08474
-0.662691 5.73649 -3.14787
2.05989 6.31878 -4.48231
2.01409 6.91966 -0.755889
3.38206 6.12465 -1.84262
1.34496 5.33723 -2.73484
0.946163 7.03868 -0.510319
-0.665512 6.38225 -1.57195
0.136664 6.92485 0.79042
0.138926 5.91224 -5.33238
1.6032 7.25156 -1.42242
2.39641 6.7723 -3.70644
-0.886569 5.94791 -2.16602
-2.41016 4.91244 -1.80341
-2.3542 4.7437 -3.13697
1.86358 4.9707 -3.58659
2.78828 5.42109 -1.3695
0.25612 6.99902 0.455758
3.14349 5.82497 -1.58644
3.28791 6.22476 -1.41108
2.37114 5.90868 -4.42546
-1.28326 5.43774 -1.78643
-0.83002 5.63408 0.840768
-3.0114 5.87226 -3.21487
2.37267 5.36538 -4.15729
-0.107734 6.99069 -4.93584
2.05483 4.9135 -3.21714
-1.60249 7.17664 -0.105704
0.0241204 5.45495 -1.01097
0.257956 6.82106 -3.35919
-2.54349 6.85653 -2.87351
1.08488 5.66032 -2.81684
-1.39103 4.91966 -4.73608
1.19944 5.05568 -0.802527
-1.79817 7.15414 -3.1127
-1.76508 7.26124 -0.47085
-1.00156 5.01376 -0.165214
2.06254 5.86964 -4.69027
-0.818672 6.17133 -1.86585
-0.895507 7.08504 -0.069916
2.17787 7.27828 -3.18393
-0.591312 5.04497 -3.83689
-0.251923 5.04513 -5.24277
-2.13304 4.79897 -3.81833
-0.568197 6.35997 0.765803
-1.7089 5.10277 -2.3844
2.68697 6.06058 -0.448377
-0.376891 5.30299 -0.968523
-0.541282 4.86423 -0.83661
0.480555 6.97946 0.160711
1.33928 6.79963 -4.83367
3.07236 5.92503 -1.21318
0.343748 5.03864 -0.631097
1.6946 6.63956 -4.63917
-1.52527 5.1874 -2.72176
1.77583 7.04445 -2.99096
1.26068 6.87814 0.304571
-2.35738 6.95029 -1.03461
-2.24088 4.6871 -2.10429
-1.74248 5.29569 0.188185
-2.67678 5.16618 -2.95695
-0.534685 7.09414 0.548414
-2.46284 5.72575 0.0246346
-1.89214 4.90315 -2.0607
1.79008 5.88755 0.299388
1.0153 6.68499 -1.29853
3.32978 5.89684 -2.95417
-2.00622 7.25216 -0.786918
-0.885421 6.95661 -4.64163
0.567498 6.47232 -5.22941
0.819036 4.85114 -3.54903
-2.46353 6.28081 -4.31701
-2.18575 6.60735 -4.62289
-1.12859 5.08087 -1.18135
-1.13902 4.88417 -0.575275
0.888041 6.21708 -2.47659
-0.929165 6.0686 0.731784
2.4632 7.05779 -2.41045
0.204808 6.9875 -0.137296
-1.25713 5.69286 -5.04323
0.528402 4.939 -3.88306
-1.57599 5.43986 0.631465
-2.50267 5.11567 -1.44954
-2.29854 5.10059 -3.89895
3.19103 5.74714 -2.03636
-0.604628 5.00305 -4.28692
-2.75867 5.44045 -3.24399
-0.533857 5.96613 0.834861
2.42186 6.73801 -0.718011
-0.576995 6.07528 -1.28788
0.684172 6.74313 -1.09319
-0.0763973 5.0149 -4.85513
1.34064 7.21584 -1.18147
0.636175 6.99367 -0.208374
-0.494368 7.05238 0.11394
-3.27626 6.31848 -2.92784
-1.02768 4.99828 -4.1164
-1.69321 7.13984 -0.982369
-2.13299 5.68903 -4.41822
1.22237 7.11963 -4.71404
-0.192187 4.93392 -0.835766
1.05833 6.98883 -3.94505
-0.989967 6.66403 -3.14243
-0.143956 6.99288 -4.49686
-2.39634 7.08065 -1.82803
-2.32623 4.71416 -2.80505
2.69606 6.80456 -2.65211
-0.52853 7.02002 -3.45659
-0.917494 5.94922 -2.86618
-0.935814 5.79712 -5.18246
-0.770602 6.2435 -3.18604
-1.24848 5.77554 0.703798
2.4324 6.9508 -3.33592
-1.40725 7.20202 -3.0658
-0.905312 5.3721 -5.15793
0.19426 6.4016 -5.30467
-2.20416 5.52729 0.222768
-2.08133 7.29845 -1.18651
-2.94059 5.56748 -2.8786
-2.72675 6.75049 -1.75451
-0.901331 5.24724 0.772045
