1.47136 5.72632 0.453901
-3.18463 5.89204 -1.06969
-2.76623 5.37115 -1.37303
0.717174 5.55747 -5.29876
0.660212 7.04402 -4.6126
2.38585 5.03378 -0.930446
-1.26447 6.83365 -2.95521
-2.21901 6.98079 -3.12336
-2.83795 6.28932 -0.907402
-2.57122 4.94884 -2.56007
0.496636 6.68311 -5.22284
-0.0411547 6.15967 -3.42272
-2.89211 5.38523 -2.15647
0.691709 5.00635 -0.205611
-0.557344 6.51318 -5.30078
-2.18782 6.56224 -0.278498
0.705655 6.44613 -2.86868
3.12334 6.42197 -1.78756
-2.99076 6.5621 -2.87728
-1.88239 4.87421 -4.31175
1.48581 5.25702 -1.92427
-2.25793 5.25348 -0.592471
1.16606 6.36659 -2.28302
-0.0907407 5.5586 -5.33599
0.0547708 5.94901 -1.03713
1.32337 5.28987 -5.1549
-2.84179 6.68794 -2.47763
0.505401 7.02862 -0.649184
-2.92636 5.45896 -1.75224
-1.2283 7.12639 -0.260796
0.855163 5.97002 -2.92948
0.673462 5.76438 0.779823
1.37904 6.42476 -4.92225
2.09406 5.72172 -0.000767671
0.322347 6.98612 -5.17062
1.59091 5.10484 -1.54251
1.78001 7.19775 -4.16953
-1.14554 5.13742 -3.35252
-1.55187 6.02631 -4.93699
1.3875 4.75797 -3.31256
-0.658968 5.28802 -3.09594
-1.28847 6.52293 -2.60565
-1.45186 6.55904 0.351834
-3.38709 6.12837 -2.16973
-2.74696 6.11392 -0.555028
-1.78553 4.69329 -1.38833
0.251618 6.47551 0.839531
2.41009 6.53701 0.0204311
-2.49619 5.05084 -3.40471
-1.1549 6.83801 0.422761
-0.799607 6.86673 -5.21305
0.0945188 6.43214 -1.05211
1.07756 6.52135 -2.74689
-1.44334 6.67237 -2.30473
0.54305 5.05069 0.718011
-0.170554 5.01501 -3.90327
2.1974 4.69715 -2.12087
1.63258 6.98837 -0.603528
0.872703 5.98933 -2.27365
-1.87751 5.07682 -0.572067
2.47049 5.18226 -3.27864
1.48371 7.06517 -3.77135
-0.0939406 5.78098 -3.42074
-0.407439 6.41335 -3.38473
-2.18464 6.1712 -4.53226
1.32757 5.05161 -4.2502
-1.06502 5.45541 -1.39944
-1.25125 7.01433 -3.94209
-2.22482 6.874 -3.5835
-2.18993 5.07237 -0.964217
-0.167111 6.99483 -4.03086
-2.54032 6.68269 -0.957857
2.35625 5.51065 -4.57359
0.979065 5.05094 -4.44999
1.83037 7.28015 -1.6724
1.36287 6.95419 -0.262792
-0.109413 6.13285 0.854684
2.3277 6.89035 -1.15522
1.51973 5.25135 -2.33634
-1.4788 5.04986 -1.50905
2.6783 6.46956 -0.260121
-1.54059 5.05233 -3.2929
0.719481 5.12004 -0.878616
-1.35223 5.24196 0.400614
-2.05148 4.68253 -1.72639
2.23923 5.14386 -3.60121
0.263087 5.02044 0.358075
1.26366 7.08611 -0.737807
-1.49357 4.71716 -1.14097
-0.813712 5.47321 -2.79642
0.975898 6.65216 -5.06289
0.660577 6.98972 -4.19753
2.61406 5.34866 -1.0192
2.6291 5.58488 -4.3058
-0.491614 6.56239 -1.35638
1.81647 5.81417 -4.86741
-0.752125 5.12968 -3.4365
-2.53906 5.29582 -0.989893
1.00423 6.83017 0.727324
2.95604 6.53571 -1.41614
-1.95635 7.30271 -2.36189
-0.193773 5.1769 0.873312
-1.15326 5.26147 -2.98553
-0.322331 5.77959 -1.05698
-1.64976 5.84692 0.516711
-0.54945 5.23698 0.875842
-2.81891 5.74088 -0.388774
1.00292 6.70516 -3.15061
-0.18161 6.15978 -5.32854
2.02096 7.29662 -1.9994
2.63863 6.73592 -3.18848
3.13119 6.39764 -2.20461
-1.07825 6.12812 -2.49727
2.86331 5.47087 -3.32921
1.33431 7.09738 -4.14257
-3.14851 6.44179 -2.46749
-0.330926 5.12849 -3.38091
1.76368 7.12094 -3.4552
-0.25481 6.26548 -1.13073
-0.945237 5.14274 0.351349
-0.605461 6.87661 -0.709179
-0.841342 5.89181 -1.49895
1.16785 5.30571 -1.5213
-2.44603 6.59787 -4.38045
2.10046 4.69657 -2.48517
-2.73875 6.51878 -4.05876
-2.47334 6.16386 -0.270718
-1.33372 5.13207 0.038681
0.542435 6.91239 -3.80634
2.02478 5.14418 -3.91268
0.260226 6.98118 -4.22364
1.69117 5.08482 -4.08479
3.19577 6.27341 -1.12265
0.173549 4.99215 -4.08545
-1.39298 7.11341 -3.48016
-3.0455 6.4922 -2.05265
1.94569 7.22796 -3.8898
-0.155315 5.06226 0.431705
-1.31859 4.94293 -4.2924
2.21907 6.93317 -3.84167
2.36468 6.22421 -4.23838
1.73422 4.86232 -0.0984446
-0.23445 6.97559 -3.49202
2.8921 6.40253 -0.544263
1.84214 4.97012 -1.96408
1.66521 7.09978 -0.977373
2.82342 6.68445 -1.88503
2.9095 5.4435 -1.8254
1.39401 6.78254 -2.9418
0.557395 5.16172 -5.3004
0.689781 7.02373 -5.06116
0.507581 5.34368 -3.43621
-1.76783 7.27537 -2.70632
2.4548 7.04176 -2.95784
2.8417 5.63976 -4.03126
0.905248 5.11872 -4.90822
-2.06101 7.31388 -1.98573
-3.07223 6.37837 -1.64995
-1.84647 7.03797 -3.43182
1.46105 5.65955 -5.08159
-2.58826 5.01218 -2.16106
0.592517 6.13077 -3.18188
-0.883806 5.68122 -2.48939
0.963204 5.21027 -1.1767
1.66755 6.83096 0.0675354
1.43772 6.03365 -4.99905
1.82129 4.90578 -1.15248
-0.188907 6.76205 -1.12957
0.959465 5.02512 -0.492789
-2.5142 6.92731 -2.53191
2.43128 7.03083 -2.00925
1.57381 5.03502 -2.75557
-1.38786 5.01303 -0.348225
0.636 5.37452 -1.43023
-0.192304 6.61388 0.798474
-1.17277 6.34107 -2.14281
1.32407 5.16176 -4.73276
-0.535325 4.98595 -4.7441
1.08621 6.4506 -1.51711
2.90371 6.4888 -2.96076
-1.61869 6.86938 -4.55107
2.36221 5.66894 -0.311994
0.132874 6.94813 -3.75968
-1.96756 6.89491 -3.89654
0.686263 6.51868 0.808473
2.70745 5.99066 -4.01492
-1.89226 6.90136 -0.207372
-1.84146 4.88024 -0.982405
-1.72928 6.22825 0.318777
0.58987 6.90038 0.777112
0.684422 6.80681 -3.45535
-0.128508 6.58564 -5.32133
-3.1648 5.72328 -1.87507
1.20009 5.58556 -2.28707
2.19545 5.0587 -0.525687
2.40749 5.36774 -0.599591
0.286888 7.01561 -4.71139
1.02164 7.07169 -4.40309
1.09816 5.87328 0.654979
2.07721 6.73862 -0.0711085
0.771467 6.28106 -1.26751
-2.13747 4.87252 -1.34845
-2.8944 5.56853 -1.02418
2.94164 6.55382 -2.52429
1.6989 5.2121 -4.55105
-1.52629 6.94326 -2.64567
-1.61728 7.00291 -3.76976
0.155385 5.11424 0.823862
-2.63557 6.6794 -3.6839
3.02795 5.54948 -2.94735
-2.74779 6.1381 -3.92208
1.80123 5.35935 0.112859
0.311448 5.01128 -0.0999252
1.49308 5.28646 0.330696
1.94684 4.87973 -1.56464
2.92588 6.08483 -3.60764
1.0434 6.18495 -5.12766
-2.48056 6.4998 -0.601629
2.83462 5.68171 -1.04275
-0.00997777 5.04911 -3.50158
1.41076 5.0908 -1.15687
0.313346 6.00495 0.848358
3.21046 5.80839 -3.34604
1.69056 6.70396 0.499674
-1.25497 7.17761 0.167373
0.909279 5.21968 -3.31606
-2.98707 6.43377 -3.68873
-1.7081 7.00979 -2.22711
1.63646 6.88216 -2.6188
-0.850405 7.00334 -4.16719
-0.526691 5.0327 0.0507989
0.601767 4.99922 -4.27714
0.371679 5.65085 -1.13947
1.04978 5.52834 -3.02209
2.93003 6.03524 -0.812589
0.921212 7.13422 -1.02025
2.06772 5.27212 -0.199308
-0.999412 5.05423 -3.76128
1.71538 5.36581 -4.99754
-0.52545 7.02911 -3.86528
0.332929 5.83655 -3.39349
2.57689 6.83495 -1.57794
-2.7616 6.59247 -1.30814
-2.18592 7.10473 -2.71155
0.31588 5.52507 -5.341
-0.0690886 6.58771 -3.42282
2.12524 6.17873 0.157734
1.80796 4.93941 -2.38763
-1.9456 4.90015 -3.14946
2.27876 4.71342 -1.68014
-1.42133 6.41417 -5.05279
0.597173 5.05354 -4.69535
-1.50004 4.88559 -0.718454
0.205834 5.01642 -4.52816
1.75512 6.27147 -4.74239
-3.36997 6.17489 -2.52188
3.05063 6.37102 -0.843287
0.308544 4.97336 -3.55573
2.06203 5.44015 -4.7981
-1.55507 6.90666 0.118105
0.423861 5.21034 -1.19035
1.79352 7.04805 -2.24061
2.29257 4.93886 -2.88202
0.724651 5.67531 -3.2517
-0.130102 7.01238 0.716477
0.0215999 6.93516 -5.25041
-2.10359 6.26802 0.0171999
-0.490643 6.96973 -4.84184
-1.3389 6.18162 0.549393
1.15329 5.48655 -1.90194
-2.35286 6.74883 -4.00738
0.734528 6.14706 0.785908
0.968925 5.23009 -5.24776
-1.38395 5.00689 -3.73647
-0.708547 5.62239 -1.18185
-2.51767 6.79733 -3.30722
0.137647 6.97126 -0.497173
0.460388 6.58472 -1.06023
0.163675 5.07045 -0.998899
3.16036 5.6584 -2.54202
-1.35268 6.89821 -1.14007
2.47515 4.90714 -2.04002
-0.693357 6.74932 0.654905
1.07765 6.19249 -1.92093
2.31605 6.72159 -0.424694
-1.90479 5.35009 -4.52588
0.690004 4.97918 0.222398
-0.654989 6.14535 -5.27517
0.778447 5.55515 -1.6927
-2.24157 4.77924 -3.59331
1.37983 4.91587 -3.78501
-2.14723 5.22273 -4.20223
-3.00671 5.56612 -2.52058
2.20452 7.29419 -2.7774
1.09129 4.94325 -0.041623
-2.44447 6.97002 -1.3705
-0.559727 5.11525 0.491216
-1.20512 6.95591 -4.36554
0.0287171 5.64422 0.883464
2.40624 6.0918 -0.120962
-2.31521 4.69516 -2.42224
1.17559 5.40123 0.548713
1.80089 6.28122 0.401205
-3.19622 5.78866 -2.27114
-0.997422 4.9857 -5.02863
0.112847 5.10394 -5.30544
-3.02716 5.81801 -0.725012
-2.95299 6.0501 -3.53709
-1.7169 5.15657 -0.20454
-2.84229 5.67987 -3.36541
-2.16259 6.9037 -0.574572
-2.78298 5.25321 -2.5812
-1.12564 6.10521 -5.14162
-1.06123 7.14038 -3.3045
1.64638 4.72783 -3.09599
0.909755 6.01457 -1.60415
-0.978631 6.65256 -1.33595
-2.66858 5.18013 -1.77833
-0.952793 7.0674 -3.71904
1.91427 7.12634 -2.65386
-2.86571 6.60938 -3.28084
2.65957 5.23419 -2.93147
-1.9081 5.86112 -4.66872
-0.211112 6.90298 -0.695642
1.62063 6.98509 -1.85283
3.17515 6.25904 -2.68594
-2.59162 5.41051 -3.61235
-0.385953 6.89939 -5.26531
1.0871 6.88698 -3.56409
2.11443 4.76646 -0.814227
0.636795 5.95852 -5.27126
-1.62164 5.62166 -4.82328
-0.505204 6.993 -4.37608
2.69988 6.67346 -1.15025
-0.298484 4.95915 -0.396557
0.394193 5.46708 0.833135
0.895699 4.99607 0.568142
-1.17129 4.75433 -0.962985
-1.01562 6.47541 0.601141
-1.63547 4.90903 -4.01073
3.41014 6.04083 -2.25396
-3.07426 5.66067 -1.41799
-3.17652 6.34566 -3.29672
2.73337 6.78442 -2.25796
0.85826 5.77506 -1.99185
2.4809 4.98594 -2.49814
-0.836968 4.80593 -0.86384
-0.188153 5.00575 -4.38884
2.29457 6.58205 -4.05654
-1.82966 6.56886 0.0723218
-1.60397 5.24755 -4.75746
2.60812 6.33366 -3.83887
1.36575 6.76541 0.631238
1.40552 4.92296 -0.376389
-0.455152 6.0022 -3.33052
-2.00672 6.81245 -4.31208
-2.4255 5.44862 -0.296706
-0.6468 5.01914 -5.16614
-1.75319 7.03221 -1.79799
-0.873497 7.1235 0.43033
3.08388 6.17506 -3.16097
-0.679634 4.92929 -0.409568
1.02887 7.07277 -4.88679
0.839271 6.93382 0.38384
0.566591 7.04443 -0.963877
-2.33037 7.10819 -2.23524
-0.414237 5.80767 -5.30511
0.965204 4.93468 -3.95414
-2.4426 5.88439 -4.16617
-1.27733 5.33486 -4.98581
0.673193 5.83089 -1.34406
1.89364 4.70539 -2.81534
2.14196 7.30176 -2.35802
-1.03143 6.86386 -0.90948
0.969933 6.96701 -0.0859126
-1.3976 7.07927 -0.654701
-0.188769 6.98273 -0.196193
2.05341 6.62655 0.29581
-2.0042 5.91319 0.285845
-1.05155 5.72417 -1.77883
1.97298 7.09134 -1.24787
0.29539 6.34644 -3.3319
-0.959506 6.98417 -0.511328
2.64419 5.69734 -0.679498
0.823008 5.409 0.705295
-1.56818 6.76756 -4.97549
0.172693 6.92508 -0.988855
-0.948454 4.96323 -4.5783
-1.24466 5.38074 -2.59572
-1.25139 6.90453 -4.76307
0.704798 4.87998 -3.54945
1.07324 5.73747 -5.19741
-2.10583 7.31503 -1.5839
1.41925 6.91856 -3.32244
-2.67987 5.77625 -3.77294
1.98801 6.84312 -4.24759
0.519733 6.63784 -3.12557
1.5003 4.89134 0.132869
-1.84564 6.31267 -4.81282
1.58792 7.1523 -4.44121
3.39156 5.96453 -2.60027
-1.17474 6.82144 -5.12606
1.93046 4.81066 -0.40872
1.37734 6.8787 -1.55853
1.35925 6.62424 -2.52428
1.50461 6.7347 -2.18014
-0.362716 5.61107 0.89343
-0.387827 5.52878 -3.3184
-0.0877455 5.01501 -0.00754238
-0.611559 6.70651 -3.35624
-0.561298 6.97977 -0.308994
-1.0798 6.37584 -2.8997
2.22368 7.08019 -1.60975
-1.78121 4.90002 -1.77685
2.64195 5.39581 -3.68784
-3.36795 6.06492 -1.84265
-0.821874 5.19523 -1.05887
-1.97818 4.90781 -2.69806
1.64894 4.91254 -0.753974
-1.23232 5.35703 0.753854
3.04167 5.72169 -3.71277
-1.14573 5.59855 -2.16805
1.45237 6.20408 0.559769
-3.17021 5.87229 -2.733
-3.04694 6.24866 -1.25446
2.81824 5.31824 -2.58176
2.23793 4.73435 -1.24297
-0.505807 5.4083 -5.27476
1.86224 6.86587 -0.352956
-1.72833 7.06991 -1.3866
-0.63455 6.74582 -1.06142
-2.66627 5.48914 -0.660946
-1.61674 5.13959 -1.98082
-1.4505 6.7051 -1.93052
0.0832022 4.99747 -0.500016
-1.4118 5.35176 -2.20813
-2.07326 5.32415 -0.124739
2.63269 5.10668 -1.71767
-1.8837 6.71942 -4.80503
-2.32371 5.94492 0.0279369
-1.40113 6.78165 -1.53387
-0.101418 7.02912 0.295079
-3.30928 5.98571 -1.48296
0.319371 5.05345 -4.96615
-2.67949 6.82397 -2.11001
2.09553 7.25491 -3.54951
1.20083 4.94396 0.380632
2.52396 5.04081 -1.35352
0.0867579 5.43158 -3.45053
2.98058 5.47715 -2.23381
-1.82179 4.90263 -3.59351
-0.984427 6.46669 -5.2132
-1.60862 6.92755 -4.16542
0.426393 6.12138 -1.10775
-1.98167 5.51951 0.412811
-1.64445 4.90721 -4.57306
1.27891 5.11228 -3.08349
2.71789 5.18632 -2.16301
2.06371 5.28078 -4.34458
-1.1067 6.48835 -1.72937
1.31592 6.56211 -1.86656
2.79242 6.41511 -3.40797
1.11306 6.37762 0.70869
-2.40711 5.51081 -4.00695
-0.698427 5.75729 -3.1161
2.03878 6.42918 -4.44264
2.07577 6.90394 -0.782979
3.38532 6.11471 -1.85999
1.3105 5.40283 -2.69945
0.926486 7.04271 -0.529749
-0.684323 6.36484 -1.60006
0.219034 6.9561 0.771628
0.20047 5.9294 -5.32859
1.58278 7.25009 -1.39877
2.50358 6.6668 -3.63557
-0.880679 5.92762 -2.1559
-2.38492 4.90504 -1.75492
-2.33516 4.74336 -3.19879
1.76732 4.9324 -3.57686
2.81875 5.44512 -1.4152
0.336738 6.9898 0.405956
3.12438 5.78203 -1.62791
3.30945 6.19517 -1.46819
2.43802 5.88247 -4.37894
-1.32055 5.38297 -1.75373
-0.828701 5.66596 0.835634
-3.07958 5.93308 -3.13068
2.39634 5.34854 -4.04643
-0.0929339 6.99262 -4.88701
2.05014 4.9201 -3.24042
-1.591 7.22699 -0.174237
0.00502825 5.46252 -1.00736
0.218531 6.82544 -3.36508
-2.60885 6.81205 -2.90167
1.056 5.7808 -2.63221
-1.33691 4.9475 -4.82816
1.20933 5.05354 -0.802102
-1.85324 7.15394 -3.0585
-1.81111 7.2606 -0.498023
-0.954564 5.02985 -0.0930101
2.11024 5.97126 -4.61069
-0.816565 6.14791 -1.8773
-0.875513 7.08838 -0.034693
2.16968 7.28059 -3.16486
-0.555985 5.04672 -3.81111
-0.268005 5.05679 -5.25841
-2.08162 4.82134 -3.97093
-0.551321 6.36981 0.76795
-1.65534 5.1402 -2.46773
2.66436 6.03742 -0.436687
-0.414971 5.32462 -0.977231
-0.491226 4.87541 -0.837223
0.583075 6.9756 0.095491
1.35504 6.78497 -4.82822
3.06628 5.89105 -1.25095
0.465983 5.04697 -0.586666
1.70651 6.72503 -4.59246
-1.58375 5.12253 -2.88138
1.77883 7.05425 -3.03915
1.26753 6.8866 0.232764
-2.285 7.00799 -0.966801
-2.2244 4.68546 -2.07503
-1.73754 5.29281 0.184689
-2.61219 5.05987 -2.95945
-0.48132 7.06577 0.612526
-2.59563 5.6865 -0.105645
-1.93029 4.90836 -2.22641
1.80069 5.84449 0.279013
1.10889 6.83774 -1.29974
3.3284 5.8875 -2.9592
-1.97424 7.28405 -0.835971
-0.860942 6.95434 -4.69146
0.668942 6.34979 -5.21802
1.05284 4.81129 -3.46729
-2.49512 6.23821 -4.26883
-2.1714 6.65439 -4.61677
-1.18994 5.07829 -1.22706
-1.07069 4.8946 -0.534056
0.826753 6.2166 -2.5663
-0.926893 6.08172 0.729514
2.46173 7.0633 -2.47332
0.182875 6.99092 -0.0307189
-1.251 5.72893 -5.05047
0.518161 4.94206 -3.89414
-1.62284 5.43845 0.607777
-2.45903 5.10722 -1.3664
-2.35201 5.12547 -3.82218
3.19933 5.75418 -2.05134
-0.562789 5.00546 -4.26684
-2.71189 5.33515 -3.20894
-0.508397 5.97126 0.837598
2.56567 6.67435 -0.758483
-0.569413 6.07575 -1.28041
0.810093 6.69306 -1.16007
-0.113853 5.01239 -4.85768
1.28067 7.2035 -1.17631
0.548689 6.99822 -0.281538
-0.496793 7.05931 0.156571
-3.2984 6.26913 -2.91418
-0.950888 5.00269 -4.1298
-1.66119 7.12328 -0.971478
-2.16356 5.67412 -4.38174
1.33926 7.12319 -4.65955
-0.15386 4.96269 -0.881975
0.989922 6.9731 -3.93162
-0.962811 6.70119 -3.17561
-0.103349 6.99311 -4.46946
-2.42181 7.05502 -1.79693
-2.35885 4.71672 -2.82959
2.69052 6.79988 -2.73045
-0.663269 7.05753 -3.43935
-0.92503 5.95867 -2.85658
-0.842041 5.78541 -5.21085
-0.776678 6.26065 -3.18565
-1.25858 5.7691 0.702032
2.37963 6.99082 -3.40859
-1.45186 7.22111 -3.05839
-0.911736 5.39746 -5.15794
0.229765 6.36468 -5.30255
-2.29238 5.57857 0.17709
-2.07144 7.30526 -1.21494
-2.90687 5.53258 -2.92647
-2.74683 6.72252 -1.70854
-0.879774 5.27941 0.826956
