4.61643 5.52192 -5.32533
3.99352 6.61762 -18.9998
-4.66428 2.0022 -5.68689
-4.77343 -9.99963 4.16156
1.09274 9.95294 -5.96181
5.55447 5.91204 -13.6462
11.7994 5.75265 -5.73807
-2.33475 5.65986 17.2167
6.49738 -9.99947 9.93854
-8.19955 -1.20879 8.05776
-6.37248 6.11418 -9.9994
-5.4759 8.23244 9.99944
2.56091 4.99395 5.94952
-4.19677 7.9778 0.135347
7.71871 3.73926 -11.8479
11.7994 1.97806 -7.86139
-8.1376 -9.99942 -5.44367
-2.75572 6.49186 -3.90849
-5.0607 -1.39689 17.1582
2.60236 -4.96908 19
11.7995 -6.40213 -4.47013
-6.40253 0.950333 -5.93196
5.81742 6.34108 -4.45273
1.73874 -9.89863 -9.99952
6.2833 9.96296 -4.00545
-8.1993 -6.5696 9.95424
4.74422 -9.99958 -5.3543
11.7996 6.05195 -0.502357
-8.19941 -3.47364 4.98726
1.89693 -6.77927 -6.01962
-0.376176 6.67058 -17.17
-8.1995 7.80032 2.07213
7.60049 4.06918 -10.0005
8.40226 -9.99934 -9.954
7.10524 2.61514 5.39869
11.7995 6.34865 4.83045
1.503 1.01125 19
-4.72939 -8.27765 9.99949
9.97138 6.00397 9.99944
7.2371 4.40568 18.9511
-2.37388 9.99925 4.44352
-4.03826 -7.9998 1.39974
4.27211 -6.55474 15.3686
8.38463 2.38448 15.3611
4.89537 -3.17672 5.15106
11.7995 0.0657602 6.07313
5.56253 5.86354 -18.9998
3.84955 -6.77175 -10
3.03339 -6.17229 5.87259
-8.1995 3.2581 -9.92748
7.67137 -3.81254 -17.0686
-8.19954 -7.86576 -2.32064
9.81479 -9.99956 -0.983967
2.15549 6.9695 18.999
7.81235 3.51858 -18.9999
-1.30243 8.2147 5.14021
6.46917 -5.21285 -17.1299
-6.44914 -7.49939 9.99938
0.675234 2.87212 19.0001
-8.19916 9.94564 -6.43346
11.7994 7.78015 -5.99371
2.63584 0.711124 -5.98333
1.21536 -7.83084 5.96984
-8.19953 -0.946077 -6.01054
11.7207 -9.91117 -9.99868
-3.51707 -7.98302 -9.9995
4.00978 -6.64 -15.3259
11.7995 -1.24013 9.93669
-3.14022 8.18663 -3.40355
-8.19951 5.93355 -7.83396
-0.245516 -6.70287 -14.9792
9.86161 -2.16285 -5.60567
7.65196 5.78433 -1.64963
7.63686 5.76082 1.67709
11.7995 -7.84086 3.81703
11.6531 9.99957 9.92556
-4.20904 -9.99963 -0.905306
2.73014 6.93525 -11.855
7.15303 -4.50925 13.7244
-6.52458 9.99954 -4.22892
4.59304 9.95953 -9.99943
-8.19954 -8.10154 5.63651
6.86603 5.02897 -3.28857
-4.32475 3.41892 11.9863
-4.9807 -1.63492 18.9992
4.97113 6.23741 17.1409
-4.23162 -9.99944 0.705636
-8.19954 -9.95788 2.53767
-6.45536 4.34252 4.14332
-8.19951 -2.55772 -7.92427
11.7995 6.91858 2.93532
-8.19997 5.98523 1.05059
-8.19956 -8.51877 3.66942
-3.51912 2.49416 5.46171
-2.27505 -5.70974 -15.4882
11.7994 -6.02794 -0.740822
0.556431 -9.99947 9.94457
-1.15604 -6.35136 -18.9456
8.60471 -1.46291 -18.9998
3.9798 -2.44977 -19.0001
-4.76699 -2.43661 15.3952
-2.1553 3.82961 4.62112
-0.0618772 -9.99957 -7.81034
4.0196 6.63552 18.976
4.07478 6.62574 11.8705
9.96277 -3.89212 -4.58656
-8.19949 -5.73731 8.31832
11.7998 0.903406 -9.9582
-4.64697 2.73574 17.0945
-4.42746 -3.20004 18.9539
-6.51427 6.66763 9.99946
-4.17509 3.65478 18.945
-6.09496 -9.99963 -2.1597
11.7415 -4.51211 -3.97035
9.52555 -5.59954 2.2136
-6.08626 4.23799 -9.99956
11.7995 0.0326284 -7.93742
-5.0207 1.61086 11.9447
-1.93759 9.9469 -4.68966
-3.37073 -4.70738 18.9499
4.16747 7.90725 -5.51032
-0.52782 9.99899 -5.62389
9.96389 9.99955 -4.4733
-4.41404 6.211 -9.99953
-1.66126 7.95488 -4.90536
-4.87859 0.910209 5.94256
10.1389 -2.36861 9.9996
0.736849 6.9337 -11.9005
6.32122 8.28454 3.97665
-3.80609 -9.99903 2.35359
0.567165 4.59073 5.90413
6.26501 -8.18666 4.03329
6.26991 -6.32183 4.0187
-8.12296 9.99968 -9.90191
1.88919 -7.01542 18.9526
1.75335 7.00535 -13.6358
8.19216 -9.9997 -4.51755
-4.08329 9.99949 -5.6716
11.7994 -8.05861 -7.93346
-6.3326 2.83233 -5.29889
6.80793 4.90812 -18.9486
8.50308 1.93628 -18.9995
-4.48929 4.18784 4.29754
-8.19948 -3.54076 -9.92648
11.7995 -2.71527 7.72114
8.80191 0.465901 15.4053
-1.19662 5.89447 -5.19008
-4.9457 1.87944 15.3885
8.5081 -9.99956 -6.41333
-8.19949 7.76501 5.96847
-8.19953 8.08008 0.0297248
-8.19952 8.30227 3.94319
11.7609 2.71935 -9.99944
0.128926 -0.821657 -19.0001
4.78007 -6.82022 5.2138
8.23647 -2.74775 13.7177
1.75355 9.9995 8.00357
-8.19944 8.34407 7.8955
-5.0619 -1.3988 13.6475
4.84467 8.17599 5.17265
1.87963 -7.01642 -15.3039
9.80889 -5.7303 -1.85729
1.7146 -7.00185 11.9122
8.06416 -3.12485 -18.9536
-3.99616 -5.86041 1.61627
5.88529 -5.68515 -15.3286
11.7998 5.97606 1.13179
-4.30814 -3.44893 17.1181
-3.46984 -5.28329 2.91297
9.33423 9.99962 2.88602
-1.20827 -6.32632 13.6301
9.94333 3.99854 -4.4834
-8.19971 5.48117 2.61118
-6.22979 9.9996 0.0788583
3.83032 1.47644 5.82224
-2.74536 2.25515 -18.9998
11.7995 -0.711275 8.00601
-1.56747 -9.99942 9.94391
-0.506572 -8.31561 9.99956
-1.28274 -8.2084 -9.99952
-0.256708 9.99961 -7.87003
0.786849 -4.73693 19
11.7995 -1.79195 -8.17182
0.716947 -3.87727 5.93359
10.2968 -0.22188 9.99965
-1.90643 -5.94403 18.944
2.2932 6.95689 -18.9995
-8.14735 9.99929 -0.961745
2.54235 -1.15455 -5.9658
-0.871617 -4.95313 5.38783
-3.80242 -9.9994 -2.41603
-4.20968 3.60895 -15.3625
0.854595 -6.95607 13.6687
8.33236 4.74593 -3.70702
-2.96032 -5.15209 17.1109
9.79508 5.35176 -2.72572
1.68318 9.99965 -7.94704
-4.90115 1.90346 18.9998
8.54416 1.92563 -15.3233
-2.75708 -5.26154 -18.9997
-8.14552 -4.74949 9.99955
4.5178 -0.74958 -5.98404
1.00685 9.95134 -9.99945
8.85512 0.890923 -10.0002
6.61732 -9.99967 3.69626
11.7461 -9.99933 -8.31879
-8.19955 -8.09889 -0.301398
-5.8868 5.37627 2.67368
-0.534408 -6.60928 -16.8367
11.7997 -4.3555 4.23432
0.286127 6.80277 18.9995
-3.65079 4.40843 17.078
8.34251 2.68944 -9.99986
-8.15589 1.46264 -9.9996
6.60002 -9.99966 -6.089
9.77673 5.96081 -0.76576
-6.04353 -2.5727 5.41338
-5.92863 -5.29059 2.85938
-1.32931 0.699415 -19
-8.19948 -5.22631 -8.16935
7.387 -4.22588 -15.3205
1.07063 -5.74538 5.95959
-1.59772 -6.12453 -13.7363
11.7994 -8.31633 9.95218
-3.67898 -9.99964 5.98678
6.3798 -5.29617 16.8587
8.03203 -3.22416 -13.6392
11.7544 8.35246 9.99926
-1.95791 -6.01824 -10.0002
11.7022 -0.834225 -9.99948
11.749 -1.5588 5.78993
-5.19132 -0.117001 -18.9531
5.38406 -5.93039 -4.8083
2.04837 1.3366 6.01576
8.3844 -9.99964 4.18289
4.74224 9.94064 -5.21906
11.7995 4.46199 4.14095
8.69746 -1.19627 -13.6129
-6.02567 -9.9996 1.96003
1.91258 4.84214 -6.02189
7.56027 -9.99948 8.07532
3.85636 6.57509 5.63449
-6.02206 5.91209 -1.10154
-1.55145 6.14822 18.9537
-0.42878 -9.99857 -5.66902
7.67455 9.99914 1.51974
1.91365 -9.9994 -8.04542
11.759 0.794466 9.99949
-1.57166 -9.99972 5.04684
11.7996 9.93462 -6.64231
5.24918 -3.82857 -18.9999
-2.41186 5.597 15.3775
2.17398 -9.99995 6.06368
-6.70216 -0.66299 -9.99971
11.7995 8.02485 -0.121209
8.69547 -1.00599 18.9997
11.7995 6.54031 9.94638
-0.726031 -6.5267 -12.1961
-1.00943 9.95335 -9.99929
1.13465 9.99951 9.97392
-5.20396 -0.441493 11.8839
5.77336 5.75675 18.9513
9.86805 2.16566 -5.60538
7.76768 -8.01564 0.681484
11.7485 0.544024 -5.973
11.7995 -7.76772 2.0117
3.53269 9.9996 -8.20064
11.7431 -8.22464 -9.99966
11.7995 8.20731 -9.95335
5.07796 -6.18596 13.4969
5.77386 9.99958 -8.32952
3.8 -4.46006 -5.67072
11.7997 -9.93906 2.73989
-4.86469 5.02979 -3.27604
-8.19955 9.9144 -4.63903
-2.04025 6.50227 4.60477
-4.75435 -2.46313 11.8696
1.54802 -9.99962 8.0183
8.89828 -0.697929 -10.0001
3.54058 4.81054 18.9999
0.532062 -1.82302 -5.88281
-8.19957 5.65822 -5.70793
-2.95981 5.15217 -11.8179
10.0708 -9.94185 -9.99921
-5.69882 2.91273 5.26407
11.7998 2.12796 -5.69766
-8.19949 9.94923 4.87947
-8.15626 -0.18519 5.99822
-6.38905 4.2514 -4.23107
11.7994 -5.55145 -2.50399
-4.21096 3.60825 -11.7989
7.86108 -9.99938 0.450279
-6.30204 -2.88105 -5.27121
0.116786 8.42286 -9.99957
-8.14884 -9.99944 -1.34968
11.7995 -6.71054 -6.4642
1.43563 -5.01401 -19
-2.05056 -5.85203 -17.3117
2.53819 -0.413238 5.99249
-3.60632 4.4584 -17.134
-0.635957 -6.75158 5.4987
1.90175 -1.14209 -19
-1.4821 -3.23608 5.07632
-6.6679 -0.0831207 9.99961
5.4869 -3.77955 -4.72839
-3.04508 9.99949 -3.66704
-5.95944 -7.82722 -9.99943
-3.00888 9.94685 -9.99925
7.78483 9.99954 -7.94026
7.09017 -4.5797 -18.951
7.14298 9.9994 9.95754
6.05796 7.9536 9.99945
11.7994 5.9553 -7.83052
-4.80732 -6.12999 9.99966
-5.2222 -0.702271 -9.99969
-3.23852 -6.66162 -3.2578
-5.19714 -0.32764 15.4101
9.94004 9.99946 -6.5111
-2.16632 -5.77954 11.8869
7.89254 -3.43076 -4.91607
5.10684 -6.17189 -13.6201
9.37094 9.99935 9.95821
5.82664 6.42806 4.44786
-8.19952 0.248544 9.92878
3.8527 -6.65411 18.9997
5.85123 -1.31782 5.85031
-3.82851 -4.17437 -11.8984
-8.19951 -6.64444 6.76327
6.13521 -5.51154 15.0032
-4.63909 2.75844 -17.1562
-8.19955 -6.57889 -4.24729
-3.22874 4.87113 13.6178
-4.49658 -3.05497 -17.166
-2.99796 5.01977 18.9998
5.9995 4.13732 -4.37013
8.79387 -0.449755 17.1262
9.76801 -9.99959 -3.08205
-6.30747 -5.5008 -2.39512
-0.832865 8.31412 9.99952
-1.59299 -1.33546 -19
3.90928 -9.99945 5.71711
-6.32556 -0.705247 5.98199
-6.23352 -4.96532 9.9995
10.0985 2.69341 -9.9996
8.0727 -3.01692 19
-8.19929 6.73832 -9.93876
-6.39767 -3.24759 -9.99971
-5.17738 0.787102 10.0497
6.62743 1.70806 -19
-4.93646 -2.14408 -10.0002
-1.24302 6.31746 -11.8637
5.95918 -7.85722 9.99939
6.99665 6.96387 -3.01357
2.93181 8.25166 5.89253
-5.16978 0.724537 17.1362
10.0894 9.99947 8.18015
-4.79285 -9.99951 -9.94932
5.96553 4.23367 4.31693
11.7998 5.3286 2.8749
-4.67684 2.685 -13.5592
6.13611 -5.51323 -11.8682
11.7997 -9.92056 9.91438
8.30335 6.17524 -9.99957
-8.19931 -8.41979 -9.94496
4.12561 -2.47089 -5.53305
-4.15779 -9.99948 -7.7847
2.40483 9.99978 6.05525
8.02165 3.24102 13.5832
7.01174 -4.67686 18.9543
5.9478 5.64326 11.8213
11.7996 9.95289 4.65126
9.87837 -0.0797207 -5.99707
0.0181682 8.02279 -5.73083
-8.19979 -3.7902 -4.78025
6.69084 -4.81724 -3.6188
3.51912 -0.406577 -19.0001
-8.19945 1.60603 5.87993
-8.19946 -8.02059 7.95038
-5.16105 0.830789 -17.157
6.3567 -2.21634 -19
-1.39667 6.24406 13.7389
7.25289 -7.69814 2.50758
-8.19952 1.86094 -7.95171
7.53385 -5.67672 -1.98376
0.666609 -6.89878 10.0564
4.66689 6.39333 -11.839
6.07655 9.99952 8.28514
-2.3656 5.6293 -10.0405
-5.19534 -0.377804 -11.8507
5.12088 3.79379 18.9998
7.41426 -9.95098 2.14526
9.61274 -7.72388 -9.99945
-8.19966 -6.04471 0.606904
8.57349 1.83774 -11.8218
11.7995 9.93135 8.16339
-8.19943 0.657873 -6.04934
10.0195 0.814059 5.96435
-4.12326 9.95167 1.00641
6.58647 2.38122 18.9999
-3.79353 9.99952 8.17393
8.21598 0.992455 -5.92503
6.54568 -5.14288 12.076
7.5514 -9.99948 -8.11591
-3.9998 -4.07172 10.0003
6.56005 5.29877 -9.99974
-3.79292 4.30528 -9.99997
-8.19964 -2.37869 -5.58825
8.44 -2.25695 -17.2209
8.02914 8.22898 9.99952
-1.81616 3.7733 -4.78843
7.48791 9.95958 -1.90836
11.7995 -6.21467 4.98621
4.77788 -5.06489 5.24591
11.7995 -4.71687 8.30557
11.7994 8.37734 -4.01171
4.75896 -9.99946 9.92736
1.94246 -7.01276 15.4111
8.09809 4.07232 4.42304
8.19964 2.8428 -13.5657
-3.72989 -4.30925 11.8924
-2.85341 -5.23199 10.0543
3.16272 -6.87874 -13.6515
3.5004 4.11899 -5.78754
1.66965 4.83127 19
7.26844 -9.99948 -2.65843
4.08857 9.99922 5.61931
6.75635 -6.56541 -3.37233
6.21601 -9.94934 -4.09713
7.73176 8.01487 0.931526
-6.31511 -4.34976 -4.13697
-5.9325 9.99953 2.12412
6.78839 -4.92463 -13.5885
-4.70244 2.61915 10.0481
9.74623 -9.99934 -7.83303
-1.97496 -3.32855 -18.9999
-8.19952 -0.365697 -8.02067
-3.42623 -4.65523 -17.1727
-4.51934 6.2624 9.99951
5.23018 -0.687626 -19.0001
7.87607 9.9993 -0.197329
2.01581 -5.06103 -6.02492
-8.14615 9.99929 1.0196
-3.96267 7.82663 -1.76469
-2.1194 7.98544 -9.99945
-3.70689 5.42736 2.58651
-8.19952 0.791481 7.86449
-1.92644 -9.95111 -4.7333
-3.63449 4.42993 -13.5879
4.89307 3.1465 -5.14153
11.7995 -8.01661 -3.58544
6.49906 9.99968 -6.26016
1.92391 2.84856 -6.02187
8.2531 2.67263 18.9997
11.7995 7.86058 -2.06717
11.7516 -9.99922 -0.787685
-8.19949 5.88153 9.95097
9.02793 -4.91715 -3.44121
2.42705 -7.10796 -10.0001
11.7994 -4.88989 -6.14604
1.92451 7.01759 11.882
-8.14728 -9.99946 0.689075
-8.19952 -6.83168 3.59433
-4.19687 -7.94232 -0.487901
4.44969 -6.49289 -11.8357
8.42378 -2.29625 17.2675
4.99924 6.2247 13.6103
9.93398 8.00502 9.9994
-2.62224 -8.18954 -4.05196
-2.12208 -5.80824 15.375
-4.94797 1.88441 -18.9558
11.7997 4.5549 9.95015
9.98272 -4.71303 3.72054
11.7994 3.10332 5.2181
-8.19951 3.51182 6.74374
8.02901 3.22388 -5.07177
-3.61933 9.99914 2.73462
3.09398 6.88386 17.1403
-6.25897 -9.99964 -0.118746
-8.14516 -9.99957 6.54413
-2.17594 9.99955 -8.3661
7.67105 -7.88775 -1.26007
2.61407 -6.95019 -11.884
9.7539 -5.17206 -9.99943
2.95321 9.99958 -5.96073
-8.149 -4.73889 -3.69447
-8.19957 6.48454 4.23563
-0.113953 -6.69605 18.9996
3.70211 6.73927 -13.6215
9.47287 2.60173 5.40604
8.28489 9.92581 -9.99964
-5.17468 0.707403 -13.5795
0.307932 0.568363 5.9952
-3.84872 -4.14092 -15.4015
-4.65368 -1.90213 -5.71548
11.7994 7.79881 8.12979
-2.97904 2.77018 -5.31879
11.7411 -9.99913 -6.50001
8.42198 -2.29329 -15.368
-4.32353 -3.40769 13.6295
-2.77974 2.39999 18.9998
3.27734 -9.91148 -9.99945
-2.72183 -9.9995 8.25975
11.7995 -9.95789 8.23423
-3.28811 -1.20918 18.9998
3.71625 -2.03378 5.70289
8.14868 -6.30958 -9.99949
11.7997 -2.73421 -9.94671
-4.02373 8.01987 -9.99937
2.7551 9.89875 -9.99949
11.7995 -5.94796 -8.19626
0.685353 9.99949 5.99297
4.61958 6.41354 -15.407
-4.19029 6.04029 -0.597423
-4.24281 9.99948 -0.623697
-0.478945 -8.50339 5.57252
11.7996 6.44589 -9.94964
11.7995 -8.01728 0.107957
0.635663 -8.22625 -5.91673
-8.19926 -9.94479 8.28516
11.7994 6.63885 -3.94089
-0.75805 1.24767 19
4.99016 2.92999 5.23222
3.5775 6.78065 -17.1587
-0.243908 -2.59948 19.0001
-8.19958 7.38732 -3.94557
11.7995 -2.94014 -6.81829
-6.0829 8.03275 -9.99933
5.19276 -6.12748 11.6376
6.40885 0.490309 19
-4.62051 9.99955 4.30543
-6.07104 9.99957 5.98765
6.64639 5.05218 17.1131
1.78985 3.20582 6.01241
0.571692 -0.73619 19.0001
-2.49515 -9.99963 -6.44782
6.49929 9.93533 -9.9994
11.7995 1.33263 8.00702
-2.89903 4.7655 3.75764
7.19941 -5.34872 2.76613
-2.7064 5.48879 10.0002
-3.18617 -4.91791 -13.7018
9.5719 -4.2826 9.99954
11.7991 -5.4319 2.74476
6.21342 5.52617 9.99993
-4.39619 -3.26289 -13.6426
2.88248 9.99951 9.95014
4.81705 -6.31499 17.163
-2.14012 5.79808 -13.5946
10.1397 -9.99939 9.93557
6.85542 -1.32495 18.9999
-2.48347 -8.52604 9.99942
-8.19952 -4.05401 -6.6906
2.14286 -3.16862 -19.0001
4.03022 4.68483 -18.9998
-2.15283 5.79121 -17.1886
8.56687 -1.81303 15.4503
8.44129 -9.99941 9.94147
7.77524 -8.20591 9.9995
2.24156 -3.06374 -6.0065
11.7995 -8.33111 -5.66162
-5.17227 0.74266 13.6991
-3.27803 0.29493 -18.9998
5.4864 5.95972 -17.1792
1.63599 7.00359 -17.1536
8.6934 1.2169 13.5589
-8.14131 9.99971 6.60327
11.7995 8.3053 3.99483
0.224694 2.15106 5.79246
11.7995 8.20189 6.04073
9.60598 -9.99945 7.68505
-8.11569 9.88512 9.99981
0.591789 -3.93217 -5.90097
-8.05815 -9.9996 9.92783
5.66868 -5.79362 -18.9993
2.55376 1.1508 -19
4.07794 -6.61726 -18.948
11.732 9.99916 2.69608
8.79242 -0.894509 10.0003
10.1521 2.24633 9.99958
-8.19962 2.22243 -5.66388
0.169031 4.14878 -5.77744
-4.81967 -2.27401 -15.3816
5.88216 5.68698 15.3409
-8.19955 -5.85961 5.16456
-8.19946 -8.37928 9.9509
7.86477 -6.00431 -0.391094
7.13999 -7.96426 -9.99937
-2.94315 5.16196 -15.3756
7.73618 -5.86365 1.26962
-3.36624 -7.65419 3.04669
-4.70106 2.74652 -10.0001
-1.69228 -9.99962 6.74495
-8.14617 -4.77499 3.64374
6.04115 -5.66652 9.99981
-8.1434 -1.44387 9.99939
10.1306 9.99951 4.54003
11.7486 9.9992 0.704729
-1.88785 -6.25055 -4.72885
3.2407 6.86695 10.0548
8.46807 2.18855 11.8385
8.14333 9.99949 8.15846
4.80116 -0.974185 19.0001
5.84559 -7.98851 -4.43296
-4.98774 1.75078 -15.3582
2.711 -9.99948 9.93699
-6.0454 -9.99938 9.95213
-0.97642 -2.68854 -5.356
3.10672 -6.88847 -17.0665
4.76604 -8.47101 5.22128
-3.25677 4.84051 11.7298
0.986247 -6.96359 -13.5024
-8.19865 -9.94998 -7.6982
-8.15072 9.99963 -8.15809
-5.07242 -1.33032 -13.6036
2.65726 6.94354 -15.3887
8.78007 -0.783957 13.7416
3.04962 -6.892 13.7728
-6.49531 5.34805 -2.70931
7.38655 4.22627 15.3342
9.78143 -9.99954 5.55708
9.83245 -5.99303 0.256928
8.14036 -1.34629 -5.84228
-5.16748 0.0927633 18.9997
-8.19901 8.38739 -9.9477
-8.19952 1.89703 9.95231
6.25035 -2.15311 -5.63056
8.72362 1.11184 -17.0817
-3.89146 9.99901 -2.15342
-8.12638 -9.9979 -9.84764
11.7338 9.99935 6.44855
-4.57984 2.88107 13.7304
-8.14845 9.99939 2.81501
-4.78703 -5.00893 -3.31034
0.473755 6.88528 -18.953
-8.19948 4.50031 4.093
1.05479 6.96973 17.1024
11.7995 -7.81471 -1.7948
6.38728 5.29038 -11.871
9.8361 5.01778 -9.99949
-8.19961 7.96924 -2.03905
-8.19946 4.93722 -9.93085
-8.19963 6.05284 -0.590356
-0.327203 9.99953 7.99166
7.71035 3.75048 -15.3579
3.4421 3.31014 5.80374
-1.33677 6.21409 -19
8.09097 9.99965 4.60009
-4.46514 -1.11259 5.90126
11.7996 9.95083 -4.96537
-6.26156 5.96237 0.781203
-0.29296 6.6975 -13.6417
0.344965 -9.99981 5.91242
-6.60862 1.39996 5.83046
11.7995 3.97214 -6.70703
-8.19955 -3.60187 8.40741
-3.14619 7.91674 9.99935
5.4665 9.99962 6.62522
7.03516 8.66046 -2.95219
-8.12904 9.99962 8.3437
0.616745 1.55477 -5.89815
2.61913 -1.01847 19.0001
-8.1995 6.59799 7.98819
11.7994 -8.09008 5.87057
10.0696 9.93101 -9.99967
-0.18886 -6.71862 15.3908
11.7997 -9.94454 0.986502
-6.55326 2.10336 -9.99963
11.7603 2.75387 9.99943
-8.16194 -1.87814 5.71137
-1.66726 3.96237 -18.9999
-8.1995 -8.38245 -4.26601
-4.04974 -3.80071 -18.9995
-3.96389 -3.03025 5.20101
0.729889 6.34074 -5.93755
-1.4014 3.46059 18.9999
8.00092 -6.27813 9.99953
-5.17165 -1.1333 10.0006
11.7995 3.91224 -8.38479
7.87677 6.00372 0.0644505
-4.13634 3.70055 -18.9527
-6.24185 -9.99957 -6.20859
-4.62865 -9.99945 7.8788
-3.07672 -9.99986 -3.65358
-3.75762 -8.11415 -2.24936
3.6556 -6.36825 -5.72672
11.7995 3.26903 7.79342
-2.92881 5.13204 -18.9987
-1.08868 -8.00672 -5.25379
11.7989 -2.98632 5.30701
7.09616 4.57927 -13.6361
6.5778 -9.99939 -9.94584
-3.31505 -1.7272 -18.9999
7.18454 7.47288 2.65858
11.7991 -3.13997 -5.18738
11.7998 1.73396 5.83595
8.13563 0.950264 5.93504
-1.04009 5.02345 5.29165
-8.19946 -8.09936 -6.24085
4.78783 8.24416 -9.99955
11.7419 -4.6062 -9.99934
8.70668 0.840247 18.9998
-5.96072 -9.99957 5.95031
4.91114 -6.26836 -17.0931
10.0701 -3.17755 5.09883
-0.775134 6.50912 17.1073
3.69696 2.07583 -5.70766
1.36206 -9.99979 -6.06375
-0.498375 -4.6623 -18.9999
-8.19963 -5.59918 -2.37114
4.00334 6.64151 15.3419
-8.14785 -9.99942 4.77101
-5.00903 1.69703 -11.7909
9.78294 -1.02409 5.91358
11.7994 -8.07092 7.98585
2.67082 -8.33172 -5.93425
7.06868 4.61206 -17.1165
-0.838662 2.49081 -5.47034
-8.14448 -5.634 2.12016
-4.23967 -3.70936 -10.0002
0.862681 -6.96343 -11.6689
-8.19967 4.88743 -3.63513
9.68443 9.99947 -8.28929
-8.15763 -3.02013 9.99953
6.20097 -4.32861 4.15608
-1.28578 6.29505 -15.3913
-0.192627 6.61422 5.66322
5.57002 -9.99956 -7.67985
3.64221 -9.99963 7.94244
4.44481 -8.06197 -5.41626
7.48408 -9.99966 6.05051
8.03617 6.25606 9.9996
-0.635061 9.96166 9.99942
5.65475 -5.84001 18.9408
8.21195 2.82339 10.0461
7.67743 -3.80576 15.5015
0.246344 -9.92235 -9.99947
11.7995 6.46296 6.74431
2.96017 6.37716 -5.88768
11.7483 -1.21791 -5.87342
8.79836 -0.245563 -15.2972
-3.87374 9.99961 6.17507
0.0912417 -6.2549 -5.74734
4.59455 4.93379 5.32941
5.81756 9.99956 4.57658
1.67649 -2.85315 19.0001
11.7997 -3.12838 9.93783
-4.17665 5.88657 1.11983
8.79087 1.01084 10
8.26304 -4.27553 4.21312
8.05776 9.99964 -3.83485
-3.97058 -5.82454 -1.74446
0.871481 -1.00438 5.96385
-2.05629 9.99958 7.27449
11.7227 9.91221 -9.99761
-2.37487 -6.21389 4.32032
5.01016 9.99946 9.95107
-0.294749 -2.20233 5.64837
2.08954 8.11511 -6.02429
-8.19954 7.81383 -5.89604
0.507936 -6.85386 -18.9991
2.8505 2.81323 18.9999
-4.48321 3.76682 -4.67829
-6.15448 -9.99942 -8.12164
-4.3459 -3.67915 -4.73708
9.7694 -9.99953 1.10369
6.36349 5.31159 -15.4076
3.93262 -8.39775 9.9995
-8.12837 3.16555 5.09637
11.7997 -9.94754 -2.54157
0.169754 4.76746 -19
-1.18756 -6.33587 17.149
-3.06892 -9.95022 -9.99946
-8.19951 4.72656 8.17671
-6.53674 2.45482 9.99974
-3.09359 -7.0267 9.99966
3.64775 -2.79981 19.0001
-2.3127 -2.88948 19
0.169979 -2.8062 -19
-2.21145 -3.95847 -4.52421
7.37615 4.24232 10.0411
11.7995 -4.57356 6.36871
-2.15007 -8.1178 4.52432
1.68928 -8.51471 9.99964
-1.03438 0.756166 -5.98484
2.9862 6.90185 13.5868
-8.1995 -5.96535 -6.12891
6.75639 -5.03685 -9.99982
-6.58613 -9.9996 3.8635
6.91098 5.19088 3.13864
-8.19961 5.69689 -2.16445
11.7995 8.2227 1.73088
11.7997 9.94582 -1.19325
8.61667 1.59553 17.2094
4.41846 -0.343727 5.99318
-2.86125 8.39838 3.78016
-8.19946 -7.50586 -8.0468
-8.1995 -1.83405 -9.94229
-2.52865 -4.24525 4.23784
-6.49249 -4.10815 4.37857
5.78854 8.17869 -4.48574
9.31413 5.2296 2.97362
3.13866 -9.99905 -5.94577
-3.92289 -9.9994 9.94526
5.23612 6.19108 -9.99989
-6.48704 9.99955 3.99083
9.47227 9.99958 6.35632
5.45171 -9.99932 4.8978
-8.19952 5.50021 6.10548
9.74614 -8.01153 9.99934
3.51829 -6.79396 11.9123
6.72795 4.97916 13.5632
6.00494 0.869054 5.95393
5.52117 3.37089 -18.9998
-3.92326 4.14923 10.0007
7.52429 -4.04271 -11.8556
-4.66968 -4.34286 4.13767
8.80127 -0.641366 -17.0856
11.7467 4.77037 -3.62718
-3.05475 -4.93448 -3.52079
4.77885 1.85447 18.9999
11.7997 -9.95295 -4.42616
7.70416 7.91997 -1.06547
-4.78334 -2.38319 -11.841
2.11763 5.00271 -19
-1.04949 2.95825 5.28529
0.74149 0.975765 -19
4.94126 -8.22157 -9.99949
-8.13211 -6.73254 -9.99958
8.79248 -0.220739 -11.85
7.33306 9.99964 6.34285
-1.36488 -9.99948 -9.9437
-2.84085 -2.41784 -5.49116
0.840778 -0.179302 -5.99184
9.64997 9.99952 -2.54657
-0.865192 -4.75356 -5.39189
3.12422 -8.12229 5.85479
-8.19954 2.64543 8.2841
-1.97876 -9.99953 -8.13013
8.79359 0.131794 11.8181
-6.06103 4.59684 9.9996
-8.15204 9.99928 -2.84998
-0.516477 2.53813 -19
11.7378 -4.88661 9.99934
3.55499 0.651041 19
4.93417 -9.99942 -9.93146
-8.1995 3.63499 -4.89223
1.80596 6.59071 6.01199
-5.88498 9.99945 7.93456
-4.27327 -5.99701 -0.0606593
2.59656 -6.95312 10.0488
9.61124 4.23703 9.99956
-4.40856 9.99943 9.9539
-4.89992 -2.02311 -18.9434
-8.13293 -9.9994 -3.32087
9.82738 -9.9995 3.0601
-8.19957 -4.64339 6.63756
11.7462 9.9991 -8.28882
11.7994 7.95766 -7.97337
-2.82006 -9.94088 3.81174
7.55534 -4.00048 17.2936
8.76921 0.832855 -13.5879
-0.432199 -9.99954 8.11837
3.79125 8.42765 9.99956
11.7994 -6.39055 7.32043
0.270887 6.90575 10
-4.18197 9.99951 -7.83986
4.78685 6.41013 9.9997
-8.19963 -2.7837 6.97599
7.65029 -0.785931 5.98001
-4.28221 -9.99963 -5.48819
11.7412 -9.99922 6.48987
1.93216 7.01301 15.3268
8.20589 9.99963 -5.78404
6.5369 2.11531 -5.64632
-1.26173 -0.585802 5.99564
11.7434 -5.90479 1.0581
8.14346 2.96707 -17.1359
9.95604 -6.08807 9.9994
7.07443 7.81525 -9.99949
-6.05332 9.99952 -6.16072
-2.99743 -5.11846 13.629
-6.16024 -5.9904 -0.749724
8.51142 -2.45331 5.47043
-1.06446 -4.40672 18.9999
-1.90214 5.9384 11.9734
0.811388 -6.95012 17.1588
11.7432 9.99916 -2.99051
-2.82299 4.68718 -3.83212
-2.60457 -1.82572 5.72997
4.67986 9.99968 -6.91396
-0.907359 9.99895 5.45986
11.7429 -9.99919 4.56261
-0.968983 6.49759 -10.0001
-8.19948 7.9912 9.95241
-4.91173 9.99952 -3.84841
-3.10642 0.38149 5.99485
2.90773 -6.90842 17.1096
-6.37541 -0.93236 -5.93874
-8.19955 3.9023 -7.43374
-3.71733 -4.33007 15.3665
11.7996 -6.64071 9.92089
7.36997 -4.36051 10.0005
11.7996 5.7021 -2.08427
-8.19967 -6.02363 -0.937372
-2.31405 9.99967 -6.5963
-0.321782 6.68432 15.3349
-1.14415 -0.916328 -5.94864
-8.1397 -5.09619 -9.99948
-3.75808 5.64138 -2.27137
5.81138 -2.96968 19
10.0733 -9.99951 -5.30719
1.71189 7.14394 9.99984
-3.97253 3.95719 15.2847
10.0598 -2.82713 -9.99956
-6.16037 9.99944 -8.07999
11.7996 -4.0143 -8.20076
11.7996 5.37327 8.25384
7.03378 -8.2968 -2.93105
7.73545 -9.99973 -1.27603
-2.95353 -0.722333 -5.98788
-4.65109 0.141511 -5.99672
11.7997 4.62915 -9.9571
9.82896 5.88303 1.24417
1.98051 -2.51739 6.02271
-2.41254 9.99949 9.93197
3.43064 -4.77488 -19
11.7993 3.61339 -4.86074
0.664889 6.92527 -15.3984
-6.11046 -5.40531 -9.99961
-1.40005 -0.808919 19
-3.27073 6.80433 3.20396
-6.50404 -9.99944 -9.95929
3.81578 -9.99954 -7.93236
0.527909 6.88523 -10.0516
7.8896 3.4558 17.1343
4.72579 1.32843 -19
-4.42452 -6.30018 -9.99971
-8.19951 -0.0621808 -9.93951
-4.69164 -2.78174 10
8.23674 -2.7423 10.0509
-8.19958 -7.91309 1.69468
9.80953 9.99953 1.13457
7.47682 4.1202 11.8722
1.16207 -6.9726 -17.1105
-0.142204 6.72592 11.9049
8.79992 0.284397 -18.9483
-1.28259 6.36569 10.0008
7.763 -3.66369 11.8885
3.40522 2.93109 -18.9999
3.84009 9.9995 7.95943
7.82967 -3.73954 -10.0001
2.3573 -6.99204 -18.9512
-2.80841 1.04264 -5.91639
8.42481 -2.24259 -10.052
-8.19943 7.96308 -7.89365
-6.45161 -9.99943 7.94967
3.56531 6.85668 -9.99989
8.45809 -2.2112 -11.895
-0.218748 4.80289 18.9999
-0.319609 -6.68573 11.8726
-1.66652 1.36649 5.83875
-3.16164 -4.95463 -10.0508
-5.19946 -0.277525 -15.3608
4.9939 0.920533 -5.9478
5.60361 -9.99961 7.43144
-4.796 9.9509 -9.99936
0.739782 8.28124 5.92705
-6.45857 -2.79399 9.99963
5.47172 -6.06661 -10.0005
0.78043 6.95099 13.6307
-5.2125 0.902048 -9.99949
-1.22539 -6.30798 10.0492
6.57213 -0.168264 -5.99461
-3.88923 8.00652 1.92032
-8.14453 3.92207 9.9996
-3.00032 0.62119 18.9998
8.57273 -1.84296 11.918
9.62307 7.71332 -9.99945
4.53898 -4.49241 19
-6.11298 9.99959 -2.00651
11.7995 4.62593 6.26235
4.39598 -6.57421 10.0004
2.9634 -4.19449 5.88414
-5.83288 -9.9996 -4.08359
-6.5191 9.99945 -9.95312
-5.10228 -1.1503 -17.1366
-6.14552 -5.89849 1.08579
6.94352 -0.189351 -18.9999
9.82321 9.99954 -0.744809
-6.39405 9.99949 9.94854
-0.499742 -6.63187 -10.0597
6.98684 9.94154 3.00999
10.0713 4.13022 4.35609
1.41097 3.05424 -19
0.930437 -7.10383 -9.99997
-2.41391 -5.59518 -11.8936
11.7295 -6.50187 -9.99931
2.05375 7.12342 -9.99997
6.84037 -2.89452 5.25396
