1.48438 5.68353 0.437015
-3.16788 5.90942 -1.03172
-2.7625 5.37432 -1.34677
0.709704 5.53864 -5.30167
0.67827 7.04495 -4.59947
2.38301 5.04308 -0.910707
-1.2935 6.84428 -2.92524
-2.22144 6.97922 -3.12502
-2.84461 6.29076 -0.921192
-2.57285 4.95069 -2.57902
0.53977 6.66276 -5.21377
-0.0204948 6.15656 -3.42267
-2.90743 5.4052 -2.13505
0.672805 5.0143 -0.275523
-0.498357 6.54208 -5.30811
-2.23152 6.56192 -0.329963
0.696369 6.45835 -2.88504
3.12426 6.42083 -1.75538
-2.96827 6.5758 -2.91623
-1.91691 4.85414 -4.2339
1.50243 5.23674 -1.8854
-2.27621 5.26352 -0.593111
1.1461 6.34181 -2.27012
-0.0952378 5.49812 -5.3356
0.0471275 5.93075 -1.03619
1.31177 5.2807 -5.15093
-2.84344 6.68613 -2.49605
0.434891 7.01353 -0.602974
-2.92756 5.4643 -1.72171
-1.28469 7.14154 -0.273193
0.878982 5.97582 -2.86722
0.726395 5.82417 0.769905
1.37201 6.41486 -4.92885
2.08832 5.76144 0.0219801
0.224198 6.96433 -5.20981
1.60771 5.09342 -1.53517
1.77834 7.19041 -4.19319
-1.10618 5.14214 -3.35537
-1.53894 6.03927 -4.94595
1.29094 4.77047 -3.38084
-0.709715 5.30523 -3.04848
-1.28007 6.51622 -2.61867
-1.43628 6.53649 0.370425
-3.37619 6.16542 -2.16721
-2.74024 6.11408 -0.546395
-1.79105 4.69292 -1.3939
0.232979 6.45538 0.840427
2.38763 6.54217 0.0399757
-2.50574 5.07211 -3.40915
-1.10796 6.81642 0.455599
-0.7802 6.88118 -5.20067
0.090271 6.42001 -1.05217
1.06657 6.5403 -2.79114
-1.43716 6.66307 -2.29821
0.557571 5.05042 0.714745
-0.180665 5.01486 -3.92898
2.18769 4.69877 -2.10143
1.63586 6.98981 -0.611208
0.873305 6.00489 -2.32205
-1.90395 5.08279 -0.584477
2.46377 5.17128 -3.25557
1.49722 7.0625 -3.7385
0.0320103 5.76433 -3.43221
-0.398542 6.48174 -3.39295
-2.17876 6.18188 -4.54036
1.37594 5.06311 -4.26147
-1.05172 5.46341 -1.39137
-1.23741 7.01929 -3.92089
-2.26596 6.86217 -3.5633
-2.20013 5.07746 -0.967167
-0.130756 6.99198 -4.03366
-2.55887 6.68481 -1.0021
2.36854 5.51779 -4.56445
1.00316 5.05265 -4.4452
1.81769 7.27845 -1.65006
1.33796 6.96577 -0.299974
-0.124124 6.10755 0.856075
2.30635 6.89877 -1.14402
1.50807 5.26633 -2.30159
-1.41357 5.09892 -1.47884
2.67242 6.47559 -0.256813
-1.53126 5.05526 -3.29411
0.757411 5.10837 -0.830004
-1.34159 5.23675 0.391689
-2.05112 4.68239 -1.73596
2.23794 5.13277 -3.56834
0.29366 5.0177 0.353967
1.26171 7.08948 -0.747947
-1.51031 4.7184 -1.16402
-0.827037 5.49311 -2.76274
0.980886 6.63052 -5.06522
0.648778 6.98283 -4.16131
2.60648 5.35555 -0.992486
2.63429 5.59533 -4.30329
-0.491143 6.55685 -1.35787
1.80155 5.78447 -4.88568
-0.72049 5.11692 -3.4781
-2.54069 5.30251 -0.973235
1.02906 6.82217 0.724267
2.94234 6.54494 -1.40696
-1.9322 7.29825 -2.40598
-0.190069 5.17575 0.872661
-1.1799 5.25781 -2.97726
-0.32957 5.7682 -1.05673
-1.63244 5.86536 0.51848
-0.550614 5.2396 0.877229
-2.77582 5.74242 -0.328491
1.02368 6.7146 -3.1596
-0.248277 5.88685 -5.32488
2.00665 7.29449 -1.95965
2.6336 6.74726 -3.17665
3.13126 6.40044 -2.17431
-1.07545 6.12379 -2.50739
2.8533 5.46365 -3.33038
1.39345 7.11132 -4.12805
-3.15177 6.44154 -2.5163
-0.472346 5.19607 -3.2774
1.78211 7.12317 -3.41579
-0.247814 6.25509 -1.12568
-0.935483 5.13732 0.335651
-0.669478 6.88823 -0.682512
-0.837102 5.89455 -1.49409
1.1687 5.31359 -1.54102
-2.44586 6.60484 -4.37278
2.10606 4.69773 -2.49026
-2.73053 6.52883 -4.05948
-2.45801 6.15946 -0.250661
-1.3565 5.13329 0.0261452
0.629717 6.90083 -3.76286
2.07102 5.15598 -3.89013
0.264517 6.9852 -4.26977
1.72945 5.08793 -4.05875
3.16349 6.28149 -1.03977
0.200577 4.98801 -4.04568
-1.39752 7.11594 -3.47053
-3.03819 6.5041 -2.09085
1.92499 7.23269 -3.8728
-0.115195 5.06148 0.458427
-1.40068 4.93445 -4.23924
2.16723 6.95129 -3.91049
2.39153 6.2672 -4.17839
1.7611 4.88534 -0.0906599
-0.171102 6.96673 -3.49785
2.91629 6.39366 -0.580322
1.83304 4.97652 -2.00023
1.66941 7.09868 -0.97731
2.82033 6.68522 -1.86302
2.9228 5.46176 -1.81852
1.41674 6.78956 -2.92047
0.563716 5.1568 -5.29259
0.586371 7.02142 -5.0866
0.518385 5.41757 -3.4182
-1.7353 7.27068 -2.75526
2.45944 7.04221 -2.92285
2.85117 5.63185 -4.00613
0.905844 5.11585 -4.88864
-2.05683 7.31331 -1.98671
-3.08024 6.38184 -1.68988
-1.88673 7.01721 -3.46443
1.44788 5.63525 -5.09236
-2.59893 5.02481 -2.16257
0.639972 6.1282 -3.13464
-0.885023 5.69381 -2.47728
0.955623 5.21209 -1.17974
1.61888 6.85019 0.02441
1.45086 6.012 -4.9987
1.83024 4.90455 -1.17539
-0.210542 6.75033 -1.14178
1.01358 5.01626 -0.478106
-2.50517 6.93402 -2.53067
2.43067 7.0279 -1.99119
1.57954 5.01724 -2.77216
-1.41579 5.01517 -0.358612
0.649546 5.3791 -1.44188
-0.195981 6.59819 0.799748
-1.16993 6.34118 -2.13381
1.34758 5.16567 -4.72779
-0.543485 4.98528 -4.75034
1.06815 6.44265 -1.4973
2.90438 6.48791 -2.96097
-1.60642 6.87186 -4.55094
2.34978 5.68188 -0.2893
0.215436 6.93971 -3.79601
-1.97878 6.89285 -3.89084
0.677076 6.57518 0.81108
2.70715 5.99575 -4.0112
-1.95447 6.91381 -0.291542
-1.86059 4.8812 -0.998455
-1.75458 6.27689 0.279877
0.578291 6.91755 0.756353
0.698557 6.79107 -3.41503
-0.165511 6.28713 -5.3277
-3.16894 5.72915 -1.82686
1.17997 5.61285 -2.32086
2.18362 5.06117 -0.504301
2.38663 5.36923 -0.564803
0.29432 7.01753 -4.73968
1.04483 7.07032 -4.36588
1.12152 5.85052 0.642823
2.02307 6.75092 -0.042157
0.755816 6.28381 -1.25525
-2.1473 4.87522 -1.35709
-2.89495 5.57369 -1.00511
2.95841 6.53808 -2.51006
1.73457 5.21668 -4.52725
-1.55069 6.94987 -2.60217
-1.61567 7.00532 -3.76078
0.180884 5.11004 0.818463
-2.63167 6.68181 -3.68037
3.02449 5.54739 -2.95588
-2.74382 6.14459 -3.93146
1.81326 5.44952 0.136623
0.30459 5.01136 -0.0940861
1.5464 5.22991 0.274933
1.95886 4.8741 -1.61056
2.91847 6.09829 -3.60416
1.07129 6.14324 -5.12551
-2.51643 6.48063 -0.633648
2.82216 5.67992 -1.01917
-0.201329 5.08144 -3.45751
1.406 5.09766 -1.17562
0.286409 5.96363 0.8519
3.20538 5.79801 -3.35283
1.71413 6.71971 0.465566
-1.22408 7.17553 0.184708
0.895914 5.19925 -3.33164
-2.97721 6.43898 -3.70453
-1.71388 7.00786 -2.18506
1.61398 6.85558 -2.5612
-0.841595 7.00484 -4.15553
-0.556106 5.02949 0.0270655
0.599483 4.99553 -4.25181
0.362925 5.63156 -1.13738
1.09387 5.45383 -3.02581
2.91623 6.0289 -0.796591
0.889887 7.12833 -1.00711
2.05106 5.28929 -0.169948
-0.976956 5.05401 -3.77015
1.71427 5.35053 -4.98251
-0.495841 7.02679 -3.86964
0.417169 5.85961 -3.36263
2.56534 6.84174 -1.57124
-2.77954 6.58717 -1.34496
-2.16274 7.11201 -2.73384
0.306985 5.54762 -5.34029
-0.0254903 6.5677 -3.41778
2.09505 6.19943 0.187183
1.79326 4.94719 -2.41228
-1.94249 4.91165 -3.03699
2.30004 4.72253 -1.67147
-1.40709 6.436 -5.06136
0.609621 5.04807 -4.64068
-1.53764 4.88827 -0.73453
0.205237 5.01499 -4.50126
1.75994 6.2276 -4.7557
-3.3675 6.15072 -2.5291
2.88422 6.5239 -0.950417
0.170481 4.99512 -3.55902
2.06772 5.44014 -4.79316
-1.47121 6.90035 0.188016
0.439772 5.20091 -1.18333
1.77083 7.03405 -2.19219
2.30042 4.94272 -2.87662
0.801795 5.68256 -3.18816
-0.165219 7.01767 0.708363
-0.0337044 6.72565 -5.30951
-2.05692 6.38544 -0.0154463
-0.479074 6.97179 -4.81756
-1.34923 6.17195 0.547797
1.18316 5.48457 -1.94263
-2.34588 6.7518 -4.00528
0.644606 6.19847 0.805256
0.961319 5.23272 -5.25098
-1.37005 5.01041 -3.73227
-0.700531 5.62815 -1.17908
-2.5626 6.78056 -3.26998
0.0726554 6.96358 -0.503381
0.436332 6.59007 -1.05572
0.160774 5.06573 -0.992486
3.1654 5.66331 -2.55669
-1.36521 6.90777 -1.13209
2.48196 4.91556 -2.04779
-0.666157 6.73786 0.666506
1.06999 6.1813 -1.90465
2.30221 6.71942 -0.387148
-1.91466 5.41315 -4.53658
0.703176 4.97896 0.187808
-0.637437 6.14284 -5.27838
0.79197 5.56731 -1.71718
-2.25508 4.77978 -3.57274
1.37073 4.91996 -3.80025
-2.10793 5.2075 -4.24573
-3.0375 5.60759 -2.50728
2.19915 7.29621 -2.73769
1.08175 4.94616 -0.0546482
-2.46113 6.9605 -1.40569
-0.523532 5.10586 0.463863
-1.19635 6.9584 -4.35335
0.0355349 5.60028 0.884831
2.39126 6.10314 -0.100624
-2.31735 4.69522 -2.42185
1.20879 5.37207 0.526029
1.74925 6.32953 0.441436
-3.20985 5.80093 -2.22829
-1.03111 4.97719 -5.00321
0.135074 5.10889 -5.30808
-3.00161 5.8181 -0.678544
-2.95089 6.07138 -3.55985
-1.74896 5.16269 -0.217751
-2.81447 5.71812 -3.47219
-2.22731 6.87123 -0.642403
-2.79652 5.26941 -2.54754
-1.13953 6.13557 -5.13913
-1.02784 7.11803 -3.29975
1.60883 4.73255 -3.14797
0.902882 6.01096 -1.592
-0.98557 6.65992 -1.32647
-2.67576 5.19033 -1.76564
-0.919725 7.07044 -3.70019
1.89963 7.11443 -2.59433
-2.88677 6.5919 -3.32416
2.66548 5.2371 -2.92194
-1.88993 5.90065 -4.69255
-0.269146 6.89351 -0.706717
1.5936 6.96527 -1.82614
3.17889 6.25476 -2.68586
-2.5671 5.4183 -3.66908
-0.370311 6.9125 -5.25087
1.09403 6.88672 -3.55845
2.10794 4.76514 -0.815094
0.618079 5.93389 -5.27729
-1.62311 5.62055 -4.82207
-0.49176 6.99426 -4.35553
2.63638 6.71793 -1.17678
-0.313797 4.95895 -0.387762
0.433133 5.49212 0.82555
0.896159 4.99631 0.568228
-1.20465 4.74971 -0.964683
-1.00584 6.45137 0.61163
-1.70502 4.90626 -3.87277
3.4072 6.05538 -2.23665
-3.07654 5.6673 -1.38732
-3.17854 6.33572 -3.29502
2.74302 6.77464 -2.23905
0.863912 5.78801 -2.01619
2.48277 4.9861 -2.49116
-0.854782 4.80468 -0.870534
-0.198647 5.00554 -4.39146
2.25243 6.61339 -4.08685
-1.77785 6.70724 0.037241
-1.63968 5.22474 -4.72398
2.59744 6.3726 -3.8157
1.39363 6.72542 0.637902
1.4366 4.91462 -0.374871
-0.396963 6.0079 -3.35466
-2.00165 6.81288 -4.31832
-2.43486 5.4567 -0.288824
-0.66657 5.01377 -5.15488
-1.76105 7.04237 -1.76388
-0.868025 7.12708 0.424713
3.07442 6.1798 -3.1749
-0.707049 4.92417 -0.424741
0.918077 7.05037 -4.95624
0.84786 6.93216 0.390582
0.526371 7.03191 -0.962892
-2.30709 7.12382 -2.25383
-0.589395 5.70842 -5.27057
1.00356 4.94917 -4.00239
-2.42059 5.90139 -4.19964
-1.30497 5.30439 -4.9659
0.664608 5.82344 -1.33744
1.89265 4.70659 -2.83359
2.13829 7.29994 -2.31382
-1.03827 6.86635 -0.907607
0.993119 6.96291 -0.0704668
-1.39695 7.0715 -0.679839
-0.207707 6.98464 -0.184455
2.04907 6.62203 0.300555
-1.9691 5.91683 0.307185
-1.03867 5.74212 -1.78372
1.96138 7.09477 -1.24325
0.328111 6.31975 -3.32028
-0.996348 6.99914 -0.488545
2.62423 5.6947 -0.650536
0.845957 5.4249 0.698314
-1.56958 6.76865 -4.97364
0.125378 6.91295 -0.991534
-0.986742 4.96061 -4.56506
-1.25641 5.38096 -2.57772
-1.23757 6.90718 -4.75657
0.530474 4.94845 -3.53589
1.05928 5.71843 -5.20465
-2.11457 7.31328 -1.5774
1.4335 6.91958 -3.30394
-2.63239 5.78164 -3.85174
1.92897 6.82425 -4.32698
0.509004 6.63304 -3.13172
1.48434 4.88308 0.122096
-1.83175 6.33306 -4.82545
1.52558 7.1305 -4.52042
3.39319 5.96612 -2.58198
-1.16434 6.82104 -5.13096
1.92197 4.80733 -0.41804
1.35116 6.85878 -1.54094
1.31179 6.58331 -2.52315
1.47104 6.69692 -2.16382
-0.356825 5.62213 0.892508
-0.318052 5.55297 -3.35232
-0.113533 5.01847 0.0265801
-0.703104 6.70778 -3.3219
-0.5725 6.97963 -0.314369
-1.05363 6.32754 -2.90639
2.21691 7.08002 -1.59524
-1.72405 4.91444 -1.6966
2.63146 5.3837 -3.66416
-3.36473 6.06849 -1.82542
-0.79077 5.21381 -1.05251
-1.97657 4.90818 -2.6041
1.65309 4.91516 -0.777236
-1.22803 5.35622 0.755115
3.04176 5.71467 -3.70711
-1.13206 5.61152 -2.167
1.42436 6.17629 0.566953
-3.16571 5.87902 -2.76659
-3.04409 6.26458 -1.28029
2.82272 5.32222 -2.57772
2.23713 4.73466 -1.23854
-0.483421 5.36518 -5.27749
1.86971 6.86746 -0.369333
-1.73199 7.07721 -1.36529
-0.638605 6.75298 -1.0459
-2.67185 5.49852 -0.642501
-1.5982 5.1479 -1.94368
-1.4497 6.70858 -1.91209
0.0690713 4.99639 -0.466297
-1.4027 5.36146 -2.18512
-2.09371 5.32977 -0.135977
2.64313 5.12118 -1.71158
-1.89699 6.72411 -4.79055
-2.24293 6.00737 0.0580622
-1.40427 6.78761 -1.52331
-0.123348 7.02918 0.269674
-3.30035 5.98471 -1.44894
0.360331 5.05581 -4.94461
-2.66917 6.83301 -2.13329
2.11353 7.24482 -3.55307
1.1999 4.94253 0.379308
2.52649 5.05052 -1.33573
0.110854 5.37707 -3.45574
2.99433 5.49221 -2.24048
-1.88374 4.89323 -3.47243
-0.935725 6.47522 -5.22665
-1.60389 6.92988 -4.15689
0.414834 6.11126 -1.10481
-1.95048 5.51198 0.431306
-1.72298 4.90607 -4.50585
1.28406 5.0811 -3.10193
2.73213 5.20239 -2.15658
2.09944 5.28829 -4.31954
-1.0971 6.48811 -1.71826
1.29832 6.54468 -1.84538
2.76476 6.44894 -3.41393
1.06524 6.33483 0.718141
-2.35575 5.5029 -4.07428
-0.661852 5.73278 -3.14783
2.06106 6.36778 -4.45526
2.08443 6.89881 -0.776853
3.38151 6.11503 -1.83477
1.34761 5.35793 -2.68974
0.89686 7.04618 -0.548695
-0.680204 6.37005 -1.59361
0.194098 6.93452 0.785584
0.171756 5.95437 -5.32939
1.55954 7.24431 -1.38998
2.45168 6.73164 -3.65204
-0.882944 5.94 -2.15688
-2.39344 4.91269 -1.7561
-2.33417 4.74302 -3.19731
1.7558 4.92887 -3.57751
2.81981 5.45402 -1.39838
0.282546 6.99533 0.404473
3.12907 5.79359 -1.61514
3.29753 6.20596 -1.42406
2.40041 5.93923 -4.3809
-1.29733 5.41166 -1.75813
-0.827033 5.64109 0.84009
-3.04556 5.89514 -3.1625
2.43252 5.36279 -4.03021
-0.0846902 6.99214 -4.94618
2.03384 4.90685 -3.22812
-1.58881 7.19684 -0.114759
0.00317138 5.45409 -1.0064
0.247279 6.82522 -3.36477
-2.59298 6.82397 -2.88699
1.08333 5.72665 -2.68462
-1.39013 4.9275 -4.76177
1.22769 5.05123 -0.809501
-1.82493 7.14383 -3.11669
-1.77418 7.2583 -0.461426
-0.982089 5.0271 -0.11311
2.0985 5.92263 -4.64131
-0.814256 6.15748 -1.86797
-0.901202 7.09014 -0.0518657
2.16281 7.2812 -3.14229
-0.557738 5.04232 -3.84904
-0.265819 5.04738 -5.24621
-2.1099 4.81637 -3.92295
-0.555994 6.35242 0.769809
-1.64299 5.15114 -2.43744
2.65776 6.05044 -0.419274
-0.399701 5.31825 -0.974248
-0.504685 4.87099 -0.83257
0.577288 6.97405 0.137656
1.35065 6.7957 -4.82762
3.06019 5.8941 -1.23236
0.426071 5.0485 -0.630153
1.69933 6.65309 -4.6298
-1.59211 5.12334 -2.85537
1.78859 7.05338 -2.98987
1.27323 6.88194 0.258638
-2.29421 7.02116 -1.01674
-2.23851 4.6876 -2.08073
-1.75254 5.29633 0.17906
-2.62948 5.09232 -2.97268
-0.506301 7.07513 0.591223
-2.53488 5.69452 -0.0385317
-1.90446 4.91655 -2.15664
1.78155 5.90872 0.311162
1.08828 6.83042 -1.28745
3.32725 5.88921 -2.96665
-1.98189 7.26584 -0.774901
-0.850076 6.95615 -4.68086
0.713593 6.3053 -5.21215
0.925709 4.82957 -3.53056
-2.49831 6.25062 -4.27065
-2.18475 6.62772 -4.61598
-1.14553 5.07031 -1.18718
-1.10611 4.88981 -0.553865
0.828793 6.24892 -2.58674
-0.937552 6.0609 0.731008
2.46793 7.05571 -2.45026
0.198872 6.98959 -0.0707298
-1.26958 5.70652 -5.03909
0.60312 4.92864 -3.86849
-1.60843 5.44158 0.615834
-2.46207 5.11161 -1.36103
-2.34039 5.13221 -3.84921
3.20632 5.76202 -2.05456
-0.601112 5.00306 -4.28837
-2.7345 5.40328 -3.25502
-0.532824 5.96404 0.835317
2.53803 6.6825 -0.727414
-0.562681 6.07923 -1.27601
0.78907 6.70134 -1.14678
-0.0908439 5.01386 -4.8534
1.2612 7.20015 -1.1651
0.598939 6.99694 -0.253247
-0.525338 7.06027 0.136823
-3.29608 6.26898 -2.92554
-1.00478 4.99751 -4.13924
-1.68528 7.14103 -0.958128
-2.14814 5.71399 -4.41208
1.19076 7.11227 -4.74972
-0.159329 4.95659 -0.871908
1.04186 6.98368 -3.93644
-1.01395 6.67305 -3.12647
-0.100652 6.99328 -4.50477
-2.42008 7.0576 -1.82389
-2.35424 4.71689 -2.83203
2.70329 6.7889 -2.70659
-0.578562 7.04028 -3.4568
-0.903613 5.92288 -2.87431
-0.927717 5.81968 -5.18667
-0.748064 6.23502 -3.19989
-1.25344 5.76091 0.705853
2.37894 7.00965 -3.37123
-1.42482 7.21168 -3.07079
-0.916865 5.38347 -5.15485
0.272601 6.36287 -5.29712
-2.25757 5.56877 0.205259
-2.06917 7.30423 -1.19781
-2.90159 5.51844 -2.91284
-2.75258 6.72289 -1.74296
-0.891276 5.26126 0.802414
