-0.477808 -0.63125 -0.906461
-0.36025 -0.571131 -0.422106
-0.654872 -0.0930817 0.603739
-0.540989 -0.228511 -0.849031
0.0108414 0.304521 -0.14162
-0.532494 0.0887143 0.161771
0.516614 -0.144714 0.188377
0.00687764 0.290821 -0.0792965
0.485888 -0.460008 -0.966464
-0.680578 0.236207 0.478547
-0.704064 0.173297 0.730296
-0.94359 -0.208933 -0.135772
0.272786 0.413414 -0.223685
-0.405257 -0.490757 -0.672677
0.508795 0.285685 -0.798146
-0.925711 -0.191532 0.501309
-0.206504 -0.000342675 0.200298
-0.537833 -0.504466 0.430046
-0.406085 -0.445192 0.200398
0.797655 -0.200089 -0.243947
0.0438498 -0.316254 0.221427
-0.334231 -0.281828 0.214236
-0.523867 -0.288357 -0.864948
0.579056 0.231634 -0.158498
0.19161 -0.642866 -0.146355
0.764444 -0.132518 -0.929762
0.735079 -0.390247 -0.204343
0.60463 -0.0535023 0.106621
0.460425 -0.105116 0.216635
-0.583639 -0.386556 0.598894
-0.327971 -0.442679 -0.98049
0.380027 -0.128739 -0.985182
-0.609299 0.502575 0.621367
0.19937 -0.764309 -0.472343
-0.0959069 0.222187 0.8864
-0.80405 0.531799 0.843811
-0.582072 0.452274 0.689966
0.734181 -0.239021 -0.0654697
0.615511 -0.433508 -0.810044
0.845568 0.0396292 -0.604784
-0.381797 -0.143464 0.316208
0.480045 -0.519949 -0.0502111
-0.939043 -0.317669 0.530745
-0.642958 -0.425338 -0.558802
-0.125221 -0.581444 -0.149399
-0.906663 -0.351728 -0.0998078
0.426177 -0.0112539 -0.996322
0.27821 0.435763 -0.355274
-0.580136 0.219328 -0.200559
-0.715956 0.0387984 0.652651
-0.168677 0.399997 -0.554184
-0.836163 -0.300078 0.592982
-0.0573243 -0.556221 -0.0462718
-0.688683 0.0466225 -0.912352
0.390897 0.392786 -0.388677
-0.128516 0.419423 -0.608816
0.373921 -0.567528 -0.855906
0.988456 -0.0852871 -0.637137
-0.0246463 -0.664296 -0.60276
-0.928355 -0.353758 0.354585
-0.534205 -0.477643 0.37378
-0.293296 0.347769 -0.858375
-0.413897 -0.184294 0.450859
-0.101754 -0.000403512 -0.932562
0.567403 -0.386787 -0.91825
-0.50704 -0.461786 0.474903
-0.00703138 0.209166 0.065265
-0.80548 0.0253803 0.0047414
0.292319 -0.271012 0.25998
0.428063 -0.332431 0.208652
-0.333829 -0.564139 -0.0812172
-0.571306 -0.569122 -0.838454
-0.361538 -0.147668 0.564217
0.482148 -0.613412 -0.709672
-0.780386 -0.255209 -0.527607
0.0531304 -0.381958 0.192834
-0.526853 -0.601686 -0.317604
-0.425528 -0.0243967 0.32421
-0.0252864 -0.650351 -0.670662
-0.125581 -0.559657 -0.0819103
0.0178692 -0.431775 -0.93139
-0.540197 0.0323421 -0.618868
-0.761602 -0.391839 -0.498356
-0.231049 -0.586209 -0.183
-0.44062 -0.540425 -0.807456
-0.239773 0.15554 0.692131
-0.65431 0.136385 0.697719
-0.531182 -0.0961489 -0.984383
-0.795317 -0.636977 0.42078
0.404735 -0.674541 -0.252852
-0.140054 0.474148 -0.419664
-0.629198 0.0818616 -0.966404
-0.892319 -0.55061 0.420119
0.345475 0.402757 -0.60002
0.639851 0.189212 -0.147298
0.383244 -0.696474 -0.528931
0.0333596 -0.43052 0.153323
-0.723702 0.17396 -0.243156
0.146918 -0.385743 -0.934897
-0.0758867 -0.288001 0.185777
-0.634065 -0.546003 -0.0547432
0.0422691 0.160219 0.730951
0.216582 -0.246348 0.262709
-0.39616 -0.360363 0.305602
-0.514568 -0.0337854 0.593552
-0.921678 -0.641765 0.177869
0.152169 0.0998108 0.198194
-0.230053 0.301946 -0.503938
-0.0713532 0.442381 -0.649367
0.226609 -0.600269 -0.923549
-0.114023 0.035787 0.680151
0.319846 -0.419708 0.185576
0.620657 0.221104 -0.213309
-0.717069 0.101848 0.688262
0.0975282 0.281177 0.827535
0.183878 -0.0913299 0.261909
-0.399438 -0.561734 -0.0926487
0.425214 0.371729 -0.728644
-0.467988 -0.413608 0.468349
0.53318 -0.218563 0.176641
-0.0594435 0.355837 -0.83875
-0.348262 -0.536249 -0.648112
0.548145 -0.612921 -0.355441
0.816217 -0.0836981 -0.902278
0.289609 0.153498 0.151426
-0.879832 -0.0377825 0.101665
-0.16991 -0.599809 -0.191819
-0.569338 0.212803 -0.120991
-0.723415 -0.0052306 -0.963177
-0.941311 -0.221924 0.343942
-0.727751 -0.08229 0.603806
-0.711626 -0.193447 -0.6042
-0.0629768 -0.660884 -0.226771
0.412405 -0.699287 -0.459396
-0.727528 -0.130266 -0.589826
0.100135 0.370703 0.880081
-0.0591746 -0.520219 0.0190919
0.144001 0.416004 -0.188444
-0.625115 -0.105412 -0.812141
-0.859901 0.0315326 -0.147402
0.930092 -0.0376434 -0.544735
0.784617 -0.317336 -0.579657
-0.619864 -0.0303077 0.586176
-0.336313 0.083668 0.748231
0.65391 0.151298 -0.086964
-0.603216 0.626542 0.831724
-0.329993 -0.22945 0.242798
0.0688803 0.435196 -0.682545
0.105728 -0.572612 -0.0638669
0.669126 0.218849 -0.274568
-0.201108 0.256259 -0.698453
0.594437 0.1988 -0.0905694
0.241742 -0.434159 0.177891
0.677528 0.211689 -0.407191
-0.166031 0.0395319 -0.929504
0.244033 -0.557599 -0.00881995
-0.421842 -0.573839 -0.46126
0.0570782 -0.651491 -0.973312
0.467916 -0.271073 0.203155
-0.605191 0.565843 0.658754
0.781397 0.100742 -0.714885
0.578083 -0.553336 -0.650397
0.0554477 0.15215 0.671947
-0.921595 -0.336042 -0.259509
0.530634 -0.451026 -0.923336
-0.823296 -0.231211 0.598414
-0.579776 0.762232 0.850066
-0.713114 0.563585 0.761231
0.810659 0.0747627 -0.657708
-0.827039 0.0075792 0.116492
-0.688239 0.0649231 0.354268
0.405642 0.382582 -0.308638
0.0642595 0.284913 -0.0454027
-0.0661343 0.233962 0.0254438
-0.26859 0.240374 -0.798315
-0.099263 -0.709705 -0.959014
-0.35365 -0.112387 0.491338
-0.23652 0.289222 -0.189231
0.398763 0.34398 -0.784225
-0.197349 -0.5687 -0.117142
0.957922 -0.0206628 -0.608967
-0.358426 -0.4442 0.0848336
0.719727 -0.441526 -0.454906
0.358318 -0.461672 0.134658
-0.493377 0.245899 -0.369514
-0.0420951 -0.69798 -0.957277
-0.451805 -0.224676 -0.773984
-0.887802 -0.111769 -0.395087
-0.797545 -0.548322 0.00270712
0.826473 -0.158913 -0.898403
-0.39635 0.0563883 0.614355
0.911886 0.0286562 -0.72692
-0.936463 -0.155213 -0.188282
0.0179257 0.256345 0.999575
-0.447755 -0.470059 0.0824842
-0.201768 0.163445 0.821982
0.742668 0.107503 -0.488101
-0.272981 -0.100519 0.241821
0.0403753 0.237677 0.855333
0.746295 0.0545288 -0.632343
-0.716365 -0.54831 0.525082
-0.256765 0.18172 -0.570924
0.435993 -0.0407604 0.220433
-0.638137 -0.16527 -0.845424
-0.602474 -0.336545 -0.894587
-0.849011 -0.0359468 0.369562
-0.548682 0.246477 -0.313878
0.489332 -0.332679 0.173869
0.772546 0.0207235 -0.588551
0.364029 -0.0258358 0.243353
0.14724 -0.559546 0.00177984
0.806079 -0.0743826 -0.267499
-0.610315 -0.579039 -0.114366
0.731138 -0.355208 -0.142263
-0.38847 0.0218396 0.744267
0.281975 0.124798 -0.944711
0.093836 -0.740535 -0.269026
0.0154884 -0.663797 -0.727524
0.530529 0.0967847 -0.884223
-0.0738196 -0.580896 -0.688773
-0.411141 -0.0616101 0.441175
-0.728852 0.112671 -0.44749
-0.895832 -0.352366 0.0419085
0.577077 0.104465 -0.845568
0.0903667 0.198853 0.709448
-0.944783 -0.112359 0.211076
0.457139 -0.3867 0.15331
-0.954051 -0.292038 0.32386
0.360021 0.155895 0.141649
0.644306 -0.483951 -0.158559
0.313589 -0.724181 -0.527098
-0.507134 -0.469511 -0.575903
0.178895 -0.172422 0.265579
-0.544987 -0.360951 -0.979271
0.400181 0.248978 -0.959408
-0.106103 -0.606506 -0.480611
0.759027 0.0510476 -0.215567
-0.246401 -0.0492724 0.770309
-0.681029 0.164239 -0.435466
-0.788826 -0.106335 0.586179
0.0756932 -0.581958 -0.128927
-0.2176 0.171417 0.751659
-0.857328 0.00854224 -0.356293
-0.188862 -0.5664 -0.320044
-0.635812 -0.640407 0.332812
-0.0498896 -0.480073 0.0734027
-0.0265979 0.134368 0.736062
-0.47839 0.178956 0.0724269
-0.619599 -0.397163 -0.862235
-0.0295636 -0.00643389 -0.932537
0.308768 -0.68565 -0.707887
-0.388987 0.186143 -0.859872
0.378701 0.0845365 0.182282
-0.28775 0.23744 -0.396043
-0.729763 -0.546313 -0.153278
0.132426 -0.408666 0.193047
-0.0918027 0.127247 0.13088
0.659751 -0.494779 -0.569593
-0.77468 -0.167201 0.603155
-0.590274 0.58131 0.758635
0.902242 -0.343935 -0.721225
-0.939335 -0.288826 0.0513887
0.422677 -0.617294 -0.74528
0.362468 -0.511609 -0.996094
0.394764 0.249487 -0.0640394
-0.0497348 0.214383 -0.932967
0.7416 -0.380977 -0.579662
0.732735 -0.418413 -0.26631
-0.595696 -0.387103 -0.598581
-0.81071 -0.471645 -0.361583
-0.515996 -0.574276 -0.0775195
-0.380178 -0.39201 0.228279
0.215256 0.398149 -0.736947
0.367394 0.30083 -0.918596
0.383617 0.237955 0.00879768
-0.465209 -0.579002 -0.119793
-0.823982 0.0348883 -0.41268
0.514699 0.314629 -0.280604
0.773652 -0.206463 -0.919611
0.945982 -0.291094 -0.69879
-0.0777714 -0.715983 -0.330614
-0.651134 -0.40027 0.60062
-0.253968 0.0609863 0.198121
-0.574979 0.223024 0.629137
0.021526 -0.737647 -0.266544
-0.189156 0.0528293 0.170345
0.734437 0.0698378 -0.151787
0.475894 -0.644549 -0.337823
-0.891415 -0.293826 -0.0044364
0.128614 0.449427 -0.638156
0.90613 -0.207908 -0.506677
-0.610947 0.195727 -0.06318
-0.247258 -0.606053 -0.971579
-0.931473 -0.229069 0.440407
-0.640549 0.0791036 0.226559
0.195537 0.44723 -0.597451
-0.614807 -0.527033 0.0150882
-0.129125 0.0350561 0.586342
-0.428593 -0.600941 -0.234267
-0.289648 -0.0789519 0.72917
-0.706642 0.0661396 -0.496819
-0.253226 -0.184996 -0.984774
0.0811656 0.212515 0.0597891
0.745269 0.134013 -0.337288
0.256405 -0.158523 -0.997305
-0.809928 0.0119938 0.339541
-0.646846 0.721153 0.728621
-0.106947 0.082379 -0.929126
0.241729 -0.137578 0.269388
-0.529336 0.00332153 -0.698226
-0.64715 0.734688 0.86938
0.588412 0.22029 -0.715177
-0.370888 0.33039 -0.970934
0.333454 -0.661306 -0.780583
0.648672 -0.539012 -0.2949
-0.845207 -0.0824027 -0.454425
-0.110016 -0.472581 0.0457814
-0.873391 -0.350506 -0.0304878
0.664695 -0.490568 -0.636342
0.685811 -0.367899 -0.87822
-0.537912 -0.144964 0.610607
0.626805 -0.548608 -0.451908
-0.916585 -0.0887334 -0.207292
-0.447003 0.0948699 0.184967
-0.343537 -0.341271 0.177815
-0.0201136 0.497658 -0.463597
-0.562585 -0.501668 -0.807244
-0.759805 -0.540909 -0.221574
-0.493269 -0.205726 0.599999
0.752852 -0.058909 -0.930043
-0.100009 -0.551823 -0.617217
0.325489 0.422985 -0.408212
-0.705439 -0.375484 -0.546494
-0.902425 -0.235191 0.00905732
-0.555795 -0.0267277 -0.641627
0.641032 -0.00637372 0.0608292
-0.256556 -0.606613 -0.903584
-0.691344 -0.116097 -0.847724
-0.959428 -0.475064 0.102593
0.0858209 0.338146 -0.870094
0.269821 0.255987 -0.992291
0.597582 0.159468 -0.035004
0.615944 -0.342017 0.0750534
-0.320996 0.0791732 0.207351
0.467664 -0.621075 -0.636457
0.750142 0.10051 -0.41016
-0.266696 -0.0203826 0.230743
-0.92093 -0.290795 -0.077195
-0.127972 0.390946 -0.679817
-0.595519 0.68988 0.87594
-0.447616 -0.618109 -0.313674
0.798201 -0.0149165 -0.318425
0.570103 -0.574315 -0.483766
-0.503798 0.0682272 -0.671611
0.119967 -0.619774 -0.835941
0.433218 0.371555 -0.448297
-0.806169 0.421014 0.763353
-0.77393 0.0548501 -0.464812
-0.00303465 0.453112 -0.669954
-0.896686 -0.2748 0.572718
-0.928379 -0.497085 0.302943
0.628671 -0.197489 0.0934788
-0.588644 0.432314 0.627591
0.801839 -0.390224 -0.788849
-0.211011 0.309496 -0.262869
-0.283165 -0.536565 -0.680988
-0.644667 0.657284 0.916163
-0.0768124 -0.0577316 0.205547
0.736465 0.0169772 -0.10131
-0.168671 0.371821 -0.888095
0.7025 -0.264021 -0.0130902
-0.728038 -0.731106 0.158849
-0.756034 0.0390816 0.379326
-0.539658 -0.422809 -0.805033
-0.468909 -0.0627639 -0.985712
0.565269 -0.554821 -0.546642
-0.0568225 0.153353 0.804948
0.0492823 0.240228 0.0175657
-0.396896 -0.180205 0.376968
0.724639 -0.0403207 -0.0500822
0.616875 -0.339199 -0.922487
-0.765878 0.205286 0.71413
-0.206598 0.376859 -0.495618
-0.695892 0.0762371 0.171214
0.507978 0.339398 -0.434862
0.877941 -0.197865 -0.861053
-0.723079 0.44254 0.598965
0.349711 -0.705596 -0.592387
0.0152171 -0.509855 0.0553774
-0.20789 -0.065529 0.21753
0.0906253 0.117432 -0.926446
-0.360851 -0.587481 -0.222483
0.0518595 0.487579 -0.463823
-0.38959 -0.0728375 0.299352
0.670943 0.185914 -0.602032
0.0535854 -0.629178 -0.828271
-0.398258 -0.437058 -0.977986
-0.844074 0.0166685 -0.0514475
-0.759296 0.231007 0.54094
-0.454557 0.10188 -0.82166
0.117764 0.181828 0.110172
-0.609825 0.741435 0.916907
-0.21485 -0.522078 -0.63646
-0.825929 0.0585106 -0.101195
-0.527867 -0.435553 -0.976925
-0.328405 -0.106745 0.677948
-0.465119 -0.350714 0.565173
-0.897881 -0.428621 0.0552966
0.635573 0.204857 -0.666676
-0.0642859 0.298109 -0.104856
0.718782 0.160465 -0.274311
0.493635 -0.483675 0.000726737
-0.352451 0.244747 -0.359106
0.200236 -0.65315 -0.811851
-0.350171 0.136248 -0.796665
0.252306 -0.0679658 0.264173
-0.487271 -0.542982 0.201671
0.320127 -0.0737792 0.261595
-0.691411 0.319846 0.795933
0.179139 -0.038695 -0.939561
-0.90149 -0.186548 -0.378212
0.352401 -0.719787 -0.330624
-0.138419 -0.250502 0.191992
0.537939 0.2269 -0.825299
-0.704582 -0.151063 0.610603
-0.0162936 -0.0960664 0.225901
0.0248529 0.0947372 0.674845
0.312741 0.102954 0.187339
-0.30251 -0.100701 0.551219
-0.00593631 0.282628 0.822235
-0.227623 -0.358022 -0.981594
-0.586634 0.657126 0.75603
0.352559 0.38353 -0.733686
-0.862774 -0.56166 0.0215774
-0.137639 -0.0156828 0.187314
0.69323 0.136373 -0.147682
0.249217 0.358884 -0.17358
-0.0456532 -0.374477 -0.935097
-0.14702 0.45396 -0.289659
0.204392 -0.700473 -0.189512
-0.299016 -0.0518571 0.506852
0.325712 0.391735 -0.660536
-0.662636 -0.583974 -0.331887
0.237138 0.433132 -0.540922
-0.111719 0.0548982 0.166835
-0.947363 -0.162468 0.0678491
0.562884 0.271815 -0.227019
-0.229521 -0.417282 0.117144
0.414045 -0.679614 -0.324219
-0.974382 -0.231087 0.273109
-0.681995 -0.529903 -0.42961
-0.687481 0.0257275 -0.546717
0.480004 -0.578498 -0.772861
-0.7451 0.204318 0.587264
-0.0606242 -0.605933 -0.620451
-0.806616 0.00242608 0.422812
0.36011 0.402603 -0.463379
-0.316088 0.180373 -0.543246
-0.850175 -0.484412 0.0199716
0.270884 -0.526896 -0.995446
0.371562 -0.29262 0.242929
-0.445101 0.163219 -0.517748
-0.943585 -0.284579 0.393983
-0.292257 -0.573262 -0.218993
-0.145963 -0.510476 -0.586232
-0.0678636 -0.668503 -0.489773
-0.437324 -0.0438229 0.385476
-0.046161 0.487133 -0.52837
-0.0724529 0.00550353 0.640978
-0.919474 -0.270382 -0.295324
0.0318335 -0.691394 -0.653507
-0.546296 -0.587735 -0.143108
0.377312 -0.700271 -0.393201
-0.887715 -0.120408 0.0126072
-0.0153795 0.191679 0.849605
-0.0153654 -0.22094 -0.9377
-0.814315 -0.670707 0.363801
-0.201815 -0.290675 0.194346
-0.249444 0.206664 -0.942511
-0.482417 0.205338 -0.443204
-0.470726 -0.405936 -0.62539
0.142241 0.422783 -0.704583
0.21579 -0.495403 0.119123
-0.0908223 -0.42738 0.108895
-0.325701 0.365222 -0.933699
-0.884198 -0.0688463 -0.345933
0.0968761 0.132835 0.155016
0.141213 0.299727 -0.127097
0.000525082 0.253599 -0.00824166
-0.654676 0.177189 -0.116094
-0.524934 -0.411965 0.583055
0.400795 -0.631639 -0.188855
0.278294 -0.234997 -0.996875
-0.244578 0.380367 -0.897919
0.241261 -0.596261 -0.865602
-0.407177 -0.101472 0.368294
0.1642 -0.750498 -0.39845
-0.963082 -0.365791 0.293242
0.0128956 0.202775 -0.930528
-0.856849 -0.670636 0.314681
-0.670288 -0.648662 0.401714
0.207396 0.412621 -0.199206
0.00362717 -0.697785 -0.212014
-0.741777 0.393898 0.535237
0.429662 0.164231 0.0992545
0.267537 -0.688409 -0.766764
-0.293663 -0.567381 -0.474535
-0.897291 -0.178578 0.00866966
-0.233226 0.00670361 -0.933152
-0.000813314 0.393173 -0.797548
0.21409 -0.413068 -0.932612
0.0592619 -0.65723 -0.166622
-0.500928 0.108784 -0.872764
-0.387507 0.260806 -0.173727
-0.84298 -0.158328 0.580757
-0.640271 0.0675565 0.417134
0.919519 -0.231952 -0.816431
-0.0435407 0.0677099 -0.929639
-0.745739 -0.224539 0.612923
0.568129 0.300555 -0.43469
0.810044 -0.240381 -0.452337
-0.612814 0.0142074 -0.982692
0.552202 0.0947024 0.0767626
-0.868988 -0.0699592 0.0400454
0.64824 0.0959324 -0.853773
-0.887764 -0.352295 0.564042
0.726765 -0.311457 -0.0754301
-0.43973 -0.192637 -0.972875
-0.685325 0.0437683 -0.973167
-0.0639698 -0.704395 -0.880842
0.268547 -0.201133 0.270323
-0.228761 0.116225 0.133776
-0.682268 -0.0282258 0.62357
-0.354605 -0.5668 -0.502095
0.401044 0.291332 -0.115907
-0.615004 -0.535439 -0.470028
-0.0981591 0.491292 -0.475283
0.121122 -0.313923 -0.9377
-0.897322 -0.0214548 -0.172841
0.550551 0.148414 0.0195705
-0.605767 -0.109348 -0.644021
-0.690956 -0.539281 -0.0868284
0.808389 -0.343716 -0.839857
0.64724 0.106405 -0.777104
-0.263258 -0.250148 0.223554
-0.627553 0.559314 0.828981
-0.252438 0.153335 -0.632105
-0.447789 0.112161 -0.676993
0.789064 -0.30794 -0.460866
-0.935076 -0.3788 0.501538
0.0511093 0.324781 0.972727
-0.668972 0.0079991 -0.861871
0.988382 -0.215345 -0.604755
0.312492 -0.337304 0.239504
-0.453163 -0.23359 -0.709623
0.5085 -0.51641 -0.80186
-0.4765 -0.412923 0.544013
0.27143 0.42309 -0.600936
0.215059 -0.729073 -0.648788
0.0988408 -0.185805 0.254841
-0.880995 -0.397604 -0.277169
0.471886 0.330971 -0.764796
-0.569184 0.0997851 -0.910401
0.574863 -0.504138 -0.751727
-0.423551 -0.00584146 0.486943
-0.0778342 0.462812 -0.582942
0.278359 0.190661 -0.982878
-0.180135 0.218336 -0.927515
0.0243161 0.0595542 -0.928698
0.523959 0.291704 -0.716862
-0.960822 -0.227914 0.0641284
0.134636 0.379593 -0.830486
0.431639 -0.563536 -0.899522
-0.568492 0.100723 -0.974722
-0.476088 -0.466677 0.324778
0.962554 -0.282222 -0.62752
-0.772544 0.370947 0.796087
0.694601 -0.376537 -0.0875073
-0.60742 0.00568593 -0.827405
-0.0712085 0.496298 -0.403392
-0.472584 -0.256865 -0.829128
-0.510819 -0.0854313 0.641791
-0.208491 0.417767 -0.429418
-0.171613 -0.338819 -0.941502
-0.322561 0.195501 -0.980048
0.484713 -0.00135635 0.182038
0.82319 -0.128696 -0.49832
-0.172896 0.383615 -0.249758
-0.449764 -0.427947 -0.693947
-0.304826 0.210016 -0.46959
-0.656099 -0.450234 -0.959001
0.756436 0.101653 -0.272954
-0.491757 -0.344568 -0.807015
-0.17995 -0.490399 0.0149905
-0.700631 0.242738 0.765067
-0.732017 0.355155 0.597937
0.159725 -0.737436 -0.542044
-0.749511 0.0386057 0.459771
-0.0791572 0.346771 -0.969088
-0.882448 -0.14394 0.526203
0.455071 0.361646 -0.383182
0.048703 -0.286027 -0.937705
-0.645707 -0.601177 -0.266615
-0.798411 -0.692236 0.161885
-0.193835 -0.407949 -0.940161
-0.419458 0.195004 -0.458221
-0.808322 0.483535 0.805487
0.669599 -0.15287 0.0451159
0.842523 0.0877688 -0.724885
-0.793048 -0.729385 0.228482
0.165067 -0.461105 -0.935229
-0.525829 0.173315 -0.497084
-0.915071 -0.158714 -0.055185
-0.145534 0.19422 0.0531693
-0.715289 0.278985 0.501741
-0.152695 -0.389467 0.124218
-0.840629 -0.0912024 0.545396
-0.909776 -0.136826 -0.325511
0.148451 0.40447 -0.77043
-0.677627 0.102553 0.0450704
-0.733248 0.620152 0.860038
0.131783 0.456596 -0.243171
-0.0085813 -0.0796731 -0.934444
-0.108469 0.104917 0.841306
0.333073 0.358584 -0.811391
0.453931 0.0602895 0.166315
-0.576537 -0.627477 0.129453
-0.657807 0.123748 -0.491096
-0.667887 -0.574612 -0.149942
-0.382439 0.260742 -0.875258
-0.31082 -0.402276 0.130127
0.0530725 -0.567368 -0.981918
0.307844 0.417106 -0.537193
-0.827351 0.06917 -0.340515
0.414872 -0.236862 0.238029
0.415947 -0.639723 -0.674195
0.216259 -0.0842689 -0.991131
-0.586722 0.367978 0.589009
-0.720617 -0.0368621 -0.887187
-0.125789 0.360617 -0.744901
-0.208914 0.218744 0.0139428
0.665395 -0.302567 0.0359517
0.156913 0.0401969 -0.929699
0.343274 -0.567464 -0.983958
-0.662377 -0.494669 0.561855
-0.596413 0.71927 0.713245
-0.524693 -0.13152 -0.734256
0.651527 0.249242 -0.349836
-0.597371 0.0416525 0.571983
-0.221713 -0.593765 -0.250945
-0.6055 0.451525 0.760762
0.287382 -0.742454 -0.345264
-0.5469 0.163499 0.0658335
0.436828 -0.161792 0.231211
-0.858805 -0.155296 -0.439549
0.864017 -0.334004 -0.793068
0.210626 -0.736617 -0.585241
0.0420209 0.172269 0.111307
0.808496 -0.210531 -0.382407
-0.785988 0.107877 -0.123129
-0.679789 -0.495739 -0.483215
0.801184 -0.276882 -0.387187
0.428349 -0.445476 0.11799
-0.77528 0.0243464 0.0702059
-0.218966 -0.598025 -0.837566
-0.110194 0.22087 -0.932316
-0.497594 0.136793 0.125316
-0.167916 0.443614 -0.484186
0.397772 -0.408913 0.175771
-0.926382 -0.086427 -0.281908
0.467215 0.368587 -0.56363
-0.575126 0.370484 0.660124
-0.581614 -0.537379 0.388874
-0.649007 0.0836793 0.107212
-0.816921 -0.135642 -0.497806
0.444086 0.337517 -0.259239
-0.125902 -0.134913 -0.936625
-0.90051 -0.265069 -0.370318
0.406293 -0.60853 -0.121328
-0.786588 -0.503545 -0.154532
0.484768 -0.522665 -0.937125
0.041049 -0.0155309 -0.932577
0.158903 -0.700251 -0.701484
-0.915497 -0.417813 0.380896
0.44066 -0.26666 -0.994511
-0.931849 -0.142794 -0.11794
-0.829338 -0.20207 -0.493196
-0.372788 -0.376041 -0.985037
-0.146277 -0.529912 -0.959132
0.178319 -0.607012 -0.851095
0.539453 0.164039 -0.846519
-0.78018 0.0897926 -0.395331
-0.889382 -0.333588 -0.323851
0.529366 0.199272 -0.0403831
-0.647115 0.554888 0.575708
-0.536961 -0.574201 0.165481
-0.701035 0.585857 0.5888
-0.107058 -0.656206 -0.286012
-0.857065 -0.410044 -0.0746964
0.420035 0.118519 0.144837
-0.543039 -0.266496 0.607326
-0.5053 -0.18082 -0.791669
-0.739115 0.272523 0.612177
-0.751148 0.0552043 0.306559
-0.387572 0.165354 -0.57494
0.530312 -0.371013 0.134599
-0.473089 -0.278503 0.582219
0.129747 -0.754138 -0.469796
0.0587105 -0.750466 -0.333002
-0.675508 -0.523069 -0.00875606
-0.60377 -0.576217 -0.900385
-0.239103 0.342856 -0.438187
-0.502008 0.0915473 -0.602648
-0.108195 -0.601702 -0.221411
0.13634 0.480785 -0.375696
0.407091 -0.551137 -0.0625473
0.919122 -0.292434 -0.773142
-0.175687 -0.0169556 0.580629
-0.457024 -0.353323 0.491688
0.173478 0.143497 0.146829
-0.768236 0.0538672 0.143802
0.635796 -0.457492 -0.750617
0.809029 -0.0853197 -0.341373
0.598419 0.1264 -0.79726
0.614255 -0.509114 -0.690848
-0.209171 -0.663192 -0.892882
-0.808295 -0.362953 0.590819
-0.196172 0.296017 -0.629912
0.407824 -0.324143 -0.994814
-0.570091 -0.081707 0.593517
-0.322359 0.149428 -0.6106
0.653748 -0.439166 -0.100164
0.713743 -0.186276 -0.948947
0.222535 0.169409 -0.935012
-0.429906 0.208965 0.0233572
0.311607 0.245927 0.0381265
0.626702 0.256433 -0.425105
-0.448276 -0.48421 0.244829
0.0689949 -0.0863155 -0.935108
0.373986 0.0350678 -0.996592
-0.203883 -0.357047 0.159867
-0.629531 0.37209 0.530133
0.135053 -0.49067 0.121362
-0.0780882 -0.0746245 -0.933899
0.344401 0.2815 -0.97798
-0.806535 -0.622797 0.0258908
-0.960415 -0.163011 0.278616
-0.825986 0.0891377 -0.184701
0.757231 -0.376775 -0.455757
-0.753506 0.31247 0.542678
-0.952133 -0.581159 0.217206
-0.857425 -0.517771 0.489368
0.492105 0.353569 -0.502027
0.671813 -0.22593 0.0395551
-0.0269831 0.234445 0.750877
-0.687444 -0.685876 0.336367
0.417218 0.310854 -0.193382
-0.374731 -0.56902 -0.844744
0.508309 -0.0682962 0.185698
-0.113084 -0.526319 -0.690468
0.0141823 0.190416 0.78673
0.0810514 0.29953 0.893608
0.628619 0.160229 -0.729192
-0.0257006 -0.167323 0.227966
-0.620838 -0.517116 -0.865677
0.340244 0.407087 -0.335592
0.912776 -0.339292 -0.647028
0.551207 0.0495888 -0.944127
0.101054 -0.718841 -0.663133
0.735714 -0.26488 -0.922986
0.147556 -0.625855 -0.910089
0.656728 -0.079086 0.0569608
-0.440774 -0.457497 -0.610395
0.639079 -0.373175 0.0235194
-0.508088 -0.544784 -0.803632
-0.901567 -0.0263317 -0.242557
-0.482875 0.00393296 0.367593
0.752319 -0.289651 -0.134667
-0.627804 0.200438 -0.161592
-0.577188 0.0373644 0.502685
-0.778662 0.156404 0.613085
-0.176367 -0.591402 -0.981534
-0.442551 -0.301453 0.437082
-0.380709 0.226826 -0.0207479
-0.473447 -0.0348912 0.668645
0.759179 -0.0540837 -0.111676
-0.128622 0.0549122 0.896769
0.409883 0.0231696 0.207735
0.426152 0.387092 -0.513207
0.533501 0.233698 -0.10024
-0.304928 0.117898 0.689453
-0.509581 0.0653563 -0.807293
0.701869 -0.107439 -0.958453
-0.574695 -0.176089 -0.828211
0.610481 0.11129 0.0160935
-0.753118 -0.508395 -0.0877264
-0.502759 0.12641 -0.54593
0.684355 -0.0266456 0.0073945
0.803411 -0.22525 -0.315972
-0.494925 -0.239976 -0.983649
-0.0673649 0.249208 0.822524
-0.0676591 0.385109 -0.776007
-0.604808 0.166303 0.658061
0.499719 0.149652 0.0714649
-0.253599 -0.503451 -0.00973051
-0.296755 0.0239508 -0.955623
-0.239365 -0.581539 -0.36454
-0.36768 -0.209955 0.304474
-0.771471 0.14132 -0.184385
0.272703 -0.424395 -0.937664
-0.94464 -0.284705 -0.22173
-0.730886 -0.645452 0.430876
-0.883267 -0.0200191 -0.0973249
-0.191889 -0.532295 -0.0504059
-0.214934 0.19494 -0.761864
-0.74797 0.0700546 0.0241329
0.769808 -0.342126 -0.519755
-0.647834 0.305003 0.500672
-0.628453 0.0658792 -0.883263
-0.536561 -0.51228 0.497556
-0.138492 0.232808 0.00725286
0.54765 -0.0242795 0.145267
0.81915 -0.0669868 -0.509866
0.148058 -0.732198 -0.231095
-0.832599 -0.578713 0.453575
0.179116 0.27463 -0.989401
0.0790075 0.191117 -0.930395
0.205508 -0.705624 -0.75802
-0.61523 -0.146195 0.60478
-0.917351 -0.503611 0.0462221
0.316466 0.360666 -0.197354
0.887046 -0.0780314 -0.514168
-0.576889 -0.620793 -0.26636
-0.136889 0.207971 0.825202
0.0282222 0.103588 0.149241
-0.343396 0.0247867 0.788157
0.389807 -0.0972942 0.247141
-0.467998 -0.358169 -0.729222
-0.453095 -0.510903 0.0138786
0.584668 -0.243405 0.133203
0.699439 -0.101689 -0.00157338
0.238007 -0.74636 -0.404027
-0.124801 0.34812 -0.819654
-0.752519 0.516403 0.876784
0.273554 -0.55661 -0.0781373
0.44445 -0.680542 -0.396962
0.271758 0.377827 -0.786011
-0.268503 -0.372125 0.166487
-0.556346 -0.358676 -0.841261
-0.836515 -0.408277 -0.394801
-0.89613 -0.0212991 -0.306747
-0.250846 -0.533734 -0.816484
0.262717 -0.658069 -0.164
-0.342889 0.255693 -0.126082
0.767159 -0.000818404 -0.163747
-0.791878 -0.538507 0.514504
0.241786 -0.321129 0.247279
-0.342135 0.212987 -0.817099
-0.218724 0.175948 0.0807314
-0.637414 0.73625 0.799531
0.554543 -0.483664 -0.0290727
-0.273566 0.204964 0.0475778
-0.456538 -0.468575 -0.9767
-0.0468776 0.278829 -0.0374568
0.556953 0.25993 -0.761571
-0.228036 0.377574 -0.373869
0.692764 -0.458718 -0.208391
0.112369 -0.63434 -0.975036
0.52349 -0.582963 -0.589123
-0.676625 0.199612 -0.295683
-0.420135 -0.32094 0.362259
0.175861 -0.312333 0.249338
-0.862158 -0.679403 0.197221
-0.414641 -0.533459 -0.515061
-0.255746 0.218962 -0.509911
0.337105 -0.626207 -0.162872
0.254965 0.446342 -0.415952
-0.599309 -0.604952 -0.338189
-0.405241 -0.598946 -0.163035
-0.734767 -0.25077 -0.581962
-0.169023 0.0204064 0.863024
0.532103 -0.446798 0.0406257
-0.765248 -0.594704 0.479566
0.0639095 0.385534 -0.822636
0.0334662 0.338852 -0.918709
0.0988027 -0.758563 -0.392289
0.445496 0.211259 -0.923512
-0.775764 0.438685 0.825017
0.25603 0.262125 -0.0114482
0.780836 -0.25117 -0.191674
0.0524594 -0.500064 -0.934466
-0.535592 -0.14593 -0.672996
-0.619847 -0.0427711 -0.626514
-0.288892 0.161439 0.102182
-0.138132 -0.461806 -0.930006
-0.0769116 0.270042 -0.988465
-0.441741 -0.0962324 0.684937
-0.0270537 -0.401583 0.152283
-0.644245 -0.461705 -0.895018
0.0128841 0.424986 -0.736396
0.803608 -0.036906 -0.390315
-0.195672 0.0850596 0.582572
0.608033 0.0588012 0.0589056
-0.415113 -0.00652613 -0.984376
-0.441171 -0.495636 0.163289
0.00273367 -0.54507 -0.00543906
-0.298624 0.0681272 0.815555
-0.419862 0.256509 -0.323615
-0.605363 -0.692584 0.14326
0.872671 -0.115948 -0.865587
-0.609614 0.0812016 0.159737
-0.66166 -0.158879 -0.631574
0.437594 0.0636662 -0.981989
0.233985 0.0820495 -0.930301
0.373844 -0.667701 -0.726564
0.584057 -0.553903 -0.201533
-0.742921 0.169346 -0.315453
-0.738829 -0.598448 0.00668661
-0.0454073 -0.712312 -0.272475
-0.956561 -0.550996 0.0941313
0.270896 -0.707782 -0.219174
-0.578031 0.161075 0.586909
0.797729 -0.129183 -0.220677
-0.769946 -0.1874 -0.546226
-0.929612 -0.0710827 0.151787
-0.614532 -0.565435 -0.962538
0.960107 -0.240613 -0.748371
-0.625276 -0.570065 -0.403285
-0.535108 0.0470234 0.334946
0.59694 -0.484469 -0.096505
-0.638245 0.203582 0.719254
-0.637384 0.183081 0.470097
-0.509664 -0.506899 -0.976702
-0.280945 0.148331 -0.928883
-0.0181149 0.18072 0.677531
-0.682985 -0.699737 0.0646502
-0.675283 -0.32847 0.613741
-0.303692 0.0899695 -0.938108
0.798074 -0.0152626 -0.543236
-0.542056 -0.622662 -0.896613
-0.129588 0.108739 0.611453
0.656867 0.0465002 0.0100379
0.141288 -0.746074 -0.317603
-0.37058 0.071595 0.684165
-0.307679 0.228919 -0.00129591
0.00315936 0.497547 -0.394284
-0.950844 -0.299607 0.465451
0.708786 0.068834 -0.878529
-0.464284 0.0252756 0.304929
-0.097571 -0.319179 -0.937655
-0.429951 0.144481 0.140402
-0.407204 0.253187 -0.0903778
0.487261 0.0860484 -0.93427
0.482716 0.347554 -0.69394
-0.865562 -0.639732 0.0562208
-0.261211 -0.589378 -0.304075
-0.510036 -0.599705 -0.84143
-0.643616 0.396336 0.794117
-0.0421841 0.0856437 0.162549
0.171499 0.329157 -0.86896
0.866316 0.054082 -0.775958
-0.604619 0.100095 0.619114
0.951725 -0.252219 -0.553681
0.330822 -0.188107 -0.991747
0.696199 0.0857357 -0.0933152
0.624483 -0.379131 -0.861486
-0.596613 -0.571224 0.319251
-0.402296 -0.081203 -0.986815
-0.542765 -0.286552 -0.982634
-0.620963 -0.487286 -0.522945
0.315118 -0.14198 0.268446
-0.679819 0.152908 -0.063745
-0.597675 0.114872 0.465105
-0.677841 -0.0163427 -0.590513
0.19779 0.429643 -0.664637
-0.215208 0.186872 -0.692188
0.305861 -0.472359 -0.987531
-0.823884 -0.475706 0.54014
-0.650627 -0.393902 -0.931723
-0.131595 -0.0321777 0.638699
0.691567 -0.393231 -0.739015
-0.651288 0.202512 -0.229128
-0.209239 0.263933 -0.980912
-0.00308842 -0.619579 -0.793141
-0.69904 0.351277 0.507369
0.458028 -0.618593 -0.223683
0.253977 0.343296 -0.845063
0.0280218 0.495663 -0.315086
0.192218 -0.143125 -0.981527
-0.211052 0.153505 -0.923574
-0.385796 -0.489701 0.0368985
-0.996589 -0.311689 0.183351
-0.385616 -0.60928 -0.283831
0.429096 -0.509399 -0.00192765
0.112154 0.352057 0.826121
0.806071 -0.148052 -0.297037
-0.484042 -0.181198 -0.70894
-0.576245 -0.455503 -0.567706
-0.607229 -0.624889 0.269895
-0.223753 0.258431 -0.565243
0.527245 -0.601339 -0.21356
0.717194 0.103701 -0.814654
-0.00188717 -0.0261182 0.215312
-0.0122936 0.284588 0.946696
-0.269304 0.0773775 0.569567
0.523392 0.2721 -0.1608
-0.155499 0.167798 0.878607
-0.525204 -0.335843 0.596923
-0.247472 -0.0206106 0.688653
-0.842185 -0.060782 0.429384
-0.927813 -0.336931 -0.170009
0.598965 -0.563444 -0.333308
0.812995 -0.167464 -0.441443
0.367749 -0.44175 -0.994506
-0.525488 0.248063 -0.165858
-0.695856 -0.603938 0.477943
0.652277 -0.162326 -0.976064
0.679418 0.147559 -0.669772
-0.12188 -0.521619 -0.0173132
0.265838 -0.38109 0.216273
-0.684197 0.530431 0.86268
-0.925993 -0.0934797 0.276379
-0.412787 0.176001 0.0840013
-0.00937943 -0.512275 -0.930997
-0.196844 0.375715 -0.966323
0.110231 0.334089 -0.924923
0.278578 0.431367 -0.288885
-0.588765 -0.513783 0.539175
-0.554532 -0.563261 0.253927
0.281422 -0.00418893 0.249148
-0.657512 -0.689612 0.265114
0.20779 0.441951 -0.262712
-0.582233 0.750623 0.777042
-0.206803 0.0203574 0.740956
0.382203 0.356704 -0.231371
-0.723839 0.182584 0.48656
-0.27739 -0.561192 -0.136299
-0.578782 0.181917 0.00212481
0.0470102 0.311012 -0.978827
-0.264939 -0.533638 -0.0748989
0.0808281 -0.649771 -0.897017
0.9617 -0.0233945 -0.684275
-0.644151 0.0284912 0.626434
-0.598392 -0.181899 -0.65702
0.238977 0.239091 0.0652005
0.527451 0.324582 -0.363606
-0.867026 -0.677903 0.125487
0.510856 -0.388958 -0.962089
0.673813 -0.501691 -0.447399
0.667527 0.0424744 -0.925494
-0.150162 -0.493191 -0.656771
-0.859621 -0.110379 0.470037
0.0398257 0.275262 0.763472
0.492975 0.188479 0.0153658
0.879796 0.0687997 -0.6716
-0.452036 -0.553275 -0.977996
-0.581283 0.694455 0.8111
0.359195 -0.575757 -0.922192
0.371459 0.411051 -0.533841
0.841004 -0.349101 -0.613873
-0.14086 -0.318656 0.158544
0.230366 0.111312 0.179027
0.689519 -0.47451 -0.512742
-0.580395 0.237562 0.564907
0.71307 0.124056 -0.61134
-0.627977 0.33516 0.761938
-0.614604 0.135555 0.0573424
-0.789667 -0.517883 -0.285045
-0.0645544 -0.642798 -0.984325
0.782729 0.02582 -0.385655
0.441899 0.293014 -0.826085
-0.698875 0.679086 0.885239
-0.531829 -0.408732 -0.606137
-0.673516 0.126894 0.450776
-0.130491 -0.701099 -0.884647
0.514103 0.320086 -0.577912
-0.14151 0.260108 -0.979225
0.0261752 0.479693 -0.537889
-0.707152 0.0773298 0.252932
-0.913973 -0.0442405 0.231415
-0.672669 -0.641446 0.0310781
-0.780219 0.00246949 0.502828
0.410732 0.385162 -0.594576
-0.317911 0.128723 -0.679971
0.117843 -0.11642 0.255148
-0.58413 0.0492888 0.436812
-0.398231 -0.173765 0.512306
-0.158033 0.0585133 0.801295
0.791965 -0.2748 -0.259097
-0.4434 -0.400994 0.351631
0.221862 -0.581533 -0.123287
-0.0176408 0.329889 -0.971148
0.267505 -0.72896 -0.28491
0.549681 -0.00985045 -0.979718
-0.718986 0.461154 0.847692
0.748296 -0.171048 -0.0845085
-0.0754012 -0.214029 0.210444
-0.837809 -0.460905 -0.290908
-0.660414 -0.238405 -0.631128
-0.828257 -0.268406 -0.478347
-0.662335 -0.726875 0.121504
-0.215103 -0.540044 -0.570498
-0.939357 -0.271902 -0.147568
-0.489707 -0.529501 0.120472
0.694712 -0.420135 -0.150665
0.0901259 -0.727269 -0.53091
-0.587812 0.174816 0.515905
-0.63569 0.0761699 -0.541685
0.811052 -0.0926435 -0.431304
-0.610011 -0.0746641 -0.981991
0.679608 -0.310252 -0.926874
0.688734 -0.337384 -0.0224822
0.6059 0.265415 -0.497721
-0.661259 -0.202977 0.614686
-0.490636 -0.00403461 -0.9844
-0.474939 -0.0167328 0.442947
-0.499306 0.0560461 -0.738719
-0.572562 0.298737 0.625761
-0.432961 -0.238906 0.477847
-0.29483 0.123169 0.164122
-0.0370858 0.353541 -0.906351
0.675225 -0.452632 -0.694879
-0.598813 -0.415106 -0.97612
-0.157382 0.197877 0.755508
-0.639172 0.269624 0.748707
-0.118319 -0.39282 -0.934574
-0.85733 -0.411722 0.558202
-0.424943 0.229393 -0.3922
0.415264 -0.67085 -0.599185
-0.177684 0.265529 -0.043764
-0.916928 -0.0811566 -0.139623
0.74131 0.0928754 -0.558468
-0.677358 -0.0876079 -0.611225
-0.0670973 0.0733832 0.61038
-0.251309 0.115388 0.828704
-0.163378 -0.653728 -0.837775
-0.702875 -0.440977 0.586052
0.0686148 0.00409102 0.224992
0.787359 -0.0700882 -0.183371
-0.0590597 0.0141311 0.191686
-0.569072 0.0750015 0.219506
0.48572 0.105457 0.117721
0.338198 0.0380409 0.223817
-0.886499 -0.40293 -0.14631
-0.734761 0.112169 0.48017
0.452345 0.221498 -0.0304028
-0.930087 -0.428994 0.322536
0.570797 0.274799 -0.573188
-0.286297 -0.577767 -0.407756
0.915254 -0.309284 -0.579209
-0.465011 -0.392508 -0.978
-0.552913 -0.520214 0.32558
0.644695 0.225957 -0.547424
-0.712725 0.523129 0.707499
0.995313 -0.156422 -0.652455
-0.728408 0.463148 0.538668
0.0871474 -0.52876 0.0515953
0.766305 -0.31996 -0.201172
0.801426 0.0860094 -0.796789
-0.174974 -0.555887 -0.389652
-0.934414 -0.356178 0.426274
-0.939834 -0.153162 -0.257592
-0.636018 -0.598805 0.453385
-0.784658 0.138397 -0.251279
-0.286807 0.269544 -0.328237
-0.719262 -0.727748 0.224003
-0.182045 0.00637161 0.675763
-0.21692 0.0256812 0.548794
-0.503577 0.108488 -0.982611
-0.454851 -0.50047 -0.554974
-0.90082 -0.0738622 0.33462
-0.674684 0.679143 0.824806
-0.731799 -0.371796 0.604431
-0.388637 -0.134249 -0.965002
-0.313275 -0.157273 -0.964737
0.284078 -0.595162 -0.137239
-0.990261 -0.245902 0.197412
-0.697707 0.175232 -0.179057
0.172791 0.35678 -0.157193
0.11805 -0.510173 -0.958576
-0.84959 -0.69804 0.258821
0.630365 -0.272087 0.0881113
0.575012 0.26232 -0.661676
-0.17737 0.453635 -0.368031
-0.0324566 -0.690482 -0.538609
-0.555347 -0.58624 -0.392496
-0.213776 -0.505339 -0.767605
0.177401 -0.453207 0.166002
-0.589209 -0.247234 -0.652718
-0.655335 0.0752025 0.300685
-0.695414 -0.439414 -0.519239
-0.395224 -0.507424 -0.593521
0.310072 0.325915 -0.880541
0.694173 -0.484106 -0.270288
0.00875916 0.344703 -0.857532
-0.335383 -0.0478805 0.249062
-0.420335 -0.0307548 0.721351
-0.459985 -0.293887 -0.76569
0.17644 -0.257001 -0.941272
0.605676 -0.280579 -0.961871
0.401727 -0.201199 -0.984277
-0.75711 0.141299 0.550338
0.310669 -0.722068 -0.406093
-0.238817 -0.0444418 0.549735
-0.358949 -0.0448592 0.472078
0.369058 -0.511833 0.00098435
0.239031 -0.73544 -0.526615
0.0755212 0.425755 -0.193756
-0.644396 -0.555139 0.515699
0.480342 0.15494 -0.888497
-0.0521078 0.413352 -0.196142
0.332415 0.272008 -0.10115
0.43526 0.28276 -0.891788
-0.970058 -0.518583 0.163701
0.587967 -0.578924 -0.404878
-0.0850133 0.0979224 0.934753
0.316211 0.000464251 -0.997365
-0.247229 0.245572 -0.0410698
0.269324 0.0437948 -0.980072
0.208889 -0.542263 0.0455851
0.214964 0.0186597 -0.940469
0.0806856 0.227754 0.78074
0.771564 0.058925 -0.857168
0.981349 -0.228549 -0.67857
-0.480196 -0.350969 -0.652924
-0.168803 0.317128 -0.211632
0.552271 0.316153 -0.507776
0.151085 -0.52285 0.0701739
0.548364 -0.326009 -0.959639
0.500572 -0.428141 0.106255
0.26501 0.279577 -0.081671
-0.519171 0.0513394 0.26877
-0.4295 -0.615149 -0.95814
-0.282626 0.0195883 0.521804
0.358128 -0.262478 -0.992237
-0.524579 -0.224581 -0.677015
0.173687 0.326047 -0.949566
-0.352107 -0.525805 -0.722919
-0.306742 -0.36918 -0.983422
0.722388 -0.440124 -0.330602
-0.279507 -0.555154 -0.61431
-0.533336 -0.293455 -0.65993
-0.200942 -0.474477 -0.960997
-0.447311 -0.594399 -0.850059
-0.101184 0.166994 0.935155
0.155633 0.22533 0.0524988
-0.174624 -0.024019 -0.93122
-0.415492 0.259856 -0.242445
0.640112 -0.0808199 -0.977754
-0.0904827 -0.666702 -0.816752
0.341932 -0.222551 0.262112
0.58882 -0.525715 -0.145956
0.697939 -0.470203 -0.392882
-0.666946 -0.579034 0.0159776
0.73576 0.00768962 -0.912025
0.36562 -0.365426 0.215579
-0.403708 0.233292 -0.98138
-0.862109 -0.61384 0.389557
0.0918969 0.0473098 -0.929856
0.0974105 -0.448296 -0.9313
-0.743094 -0.66419 0.0408225
-0.404779 -0.124766 0.438138
0.721816 0.161126 -0.391342
-0.982627 -0.208932 0.133211
0.0805442 0.353891 0.941096
0.919014 -0.0722017 -0.817037
-0.746678 -0.000735656 -0.508685
-0.214309 -0.505598 -0.70083
0.367725 0.205001 0.0790441
-0.131915 -0.61246 -0.7903
-0.664888 -0.0517922 -0.830709
-0.636332 -0.174473 -0.977981
-0.438127 -0.223013 0.547783
-0.732796 -0.112979 -0.897245
-0.393695 -0.513097 -0.978435
-0.504452 -0.498572 0.0548801
-0.136188 0.365677 -0.961428
0.566191 -0.476266 -0.810666
0.432498 -0.486718 -0.991296
-0.322859 0.282911 -0.830442
-0.57775 -0.0535458 -0.797695
0.444882 0.138446 -0.952104
-0.744576 -0.713893 0.0986183
-0.954974 -0.506859 0.234081
-0.331268 -0.10923 0.609512
0.847933 -0.374905 -0.669673
0.470544 -0.569801 -0.0964291
-0.790574 -0.715717 0.307311
0.705834 0.16403 -0.537826
-0.488465 -0.436996 0.403812
-0.914976 -0.581484 0.0531193
0.114525 0.302647 -0.9812
0.0914934 0.485515 -0.321608
-0.555312 -0.554796 0.0981998
-0.0796683 0.18173 0.0781203
-0.543867 -0.558659 -0.976534
0.708252 -0.446004 -0.579174
0.435288 -0.0801462 -0.982675
-0.569124 -0.609919 0.206534
-0.281333 -0.524152 -0.748797
0.433392 0.199514 0.0421422
-0.720254 -0.563427 -0.287618
-0.14445 -0.174662 0.204068
-0.506642 0.203714 0.0123122
0.492696 -0.0504714 -0.997096
-0.768023 0.0839755 0.623876
0.468992 0.34664 -0.323161
0.210068 -0.21285 -0.985977
0.204139 0.216742 -0.98454
-0.133449 -0.19672 -0.940371
-0.685962 0.189298 -0.366145
-0.728516 -0.722429 0.288854
-0.669831 0.682777 0.677794
0.397632 0.374374 -0.662633
-0.823824 -0.0451258 0.493541
0.38377 -0.384009 -0.993161
0.325891 -0.397348 -0.950808
0.21452 0.453978 -0.340041
-0.285061 0.174273 -0.78949
0.301603 0.202742 0.100458
-0.242315 0.041709 0.852384
-0.922143 -0.629365 0.102983
-0.0966032 0.223547 0.768881
0.149011 0.181412 -0.93027
-0.111549 0.484583 -0.344177
-0.982575 -0.375516 0.2219
0.0515101 0.325088 0.823182
0.191662 0.260091 0.00429107
-0.600297 -0.325099 0.612011
-0.235821 -0.460357 0.0497223
-0.239932 0.326488 -0.986944
-0.847639 -0.395956 0.0104817
-0.0835822 -0.361598 0.154408
0.294807 0.309631 -0.95656
-0.81151 -0.487338 -0.220178
0.587137 0.276063 -0.366897
0.532989 -0.492442 -0.875966
0.0379924 0.257606 0.931959
-0.0724831 -0.627279 -0.551938
-0.983039 -0.368124 0.147477
-0.0264965 -0.295845 -0.9377
-0.870952 -0.0211196 0.298023
-0.654198 0.469941 0.819692
-0.0208765 -0.669276 -0.832599
-0.364094 -0.333881 0.24887
0.679445 0.0984164 -0.728385
0.686385 -0.0284669 -0.953115
0.0314146 0.221953 0.708413
0.800652 -0.0104403 -0.888541
-0.576207 -0.205089 0.609988
-0.152155 -0.268314 -0.944141
-0.745997 -0.687628 0.370048
-0.430617 0.134118 -0.898277
0.0682141 -0.55784 -0.00967458
-0.0835104 -0.504046 -0.930745
0.858961 -0.0154455 -0.547401
-0.857308 -0.036798 -0.406903
0.991379 -0.145872 -0.580983
-0.759691 0.392701 0.706716
-0.395957 0.124841 -0.828252
-0.174759 0.103177 -0.927378
-0.322169 -0.537153 -0.804773
0.47367 -0.215437 -0.979895
0.61705 0.00252424 -0.961085
0.232828 0.309478 -0.974881
0.733817 -0.41181 -0.517034
0.0253585 -0.72216 -0.512445
0.266423 -0.519891 0.0739261
0.682317 -0.499263 -0.334827
-0.387759 -0.139448 0.647093
-0.945971 -0.409079 0.102464
0.291258 0.441192 -0.475544
-0.323867 -0.573217 -0.287722
0.470667 -0.602469 -0.157744
-0.285426 -0.00895668 0.810864
0.192216 -0.576231 -0.0544466
-0.825976 0.081573 -0.26022
-0.904426 -0.383685 -0.211336
-0.695487 -0.577875 -0.21679
-0.5058 0.13367 -0.936374
-0.692356 -0.190273 -0.957532
-0.110345 -0.590856 -0.980123
0.457425 -0.1468 -0.980498
0.76002 -0.352189 -0.637989
-0.574091 0.11502 0.112047
-0.912997 -0.557748 0.351862
-0.564923 0.079045 -0.5666
-0.150014 -0.590758 -0.269523
0.65669 0.101277 -0.0365234
-0.45093 0.262309 -0.152659
-0.458043 -0.549856 -0.0439974
0.290394 -0.58672 -0.970537
-0.584867 -0.139853 -0.98204
0.00460706 -0.668973 -0.97481
0.229461 -0.478639 -0.965971
-0.892212 -0.102854 0.399212
-0.608519 0.514891 0.782329
-0.206281 0.336578 -0.565704
-0.241422 0.30823 -0.323838
0.0579953 -0.0676408 0.239121
0.353467 0.307373 -0.168875
-0.601981 -0.290575 -0.96767
-0.351083 0.0126423 0.502568
0.0129057 0.0433603 0.191204
0.837622 0.0273445 -0.838342
-0.347172 -0.545034 -0.57123
-0.00982582 -0.753554 -0.335851
-0.552251 -0.344634 -0.629048
0.380747 0.323654 -0.851836
0.803761 -0.26335 -0.530837
0.138678 0.0313225 0.229589
-0.748807 0.562862 0.821368
-0.277545 0.128463 0.761155
0.0817678 0.417301 -0.757894
-0.344991 -0.108396 0.261629
-0.621221 -0.261911 0.614717
0.535801 -0.516886 -0.088834
-0.283842 -0.0600495 0.652054
-0.103163 0.109773 0.76397
0.536072 -0.552104 -0.724308
0.34203 0.400119 -0.261488
-0.59279 0.308258 0.547811
0.646902 -0.533452 -0.381272
-0.0490845 0.323895 -0.164736
-0.463229 -0.130206 -0.98079
-0.961341 -0.588905 0.150333
-0.323488 0.0191407 0.232518
0.695677 0.0295909 -0.0443943
-0.167956 -0.442791 0.0776444
-0.00871901 0.20164 0.920112
0.364764 -0.0517359 -0.986334
-0.738206 -0.460485 -0.47083
-0.483103 -0.318635 -0.983817
0.656083 0.203122 -0.482758
0.29444 -0.721708 -0.649203
-0.206117 -0.138719 0.222855
-0.365753 -0.588625 -0.962871
0.919056 -0.14823 -0.827589
-0.308335 -0.235368 -0.9654
0.202714 -0.0143869 0.25071
-0.665078 0.714638 0.94189
0.270429 -0.647497 -0.827079
0.189517 0.462969 -0.407828
-0.174335 0.365836 -0.630412
-0.352489 -0.297105 -0.971817
-0.537069 0.252963 -0.244904
-0.801674 -0.669781 0.0901612
-0.499367 -0.615479 -0.965775
0.308549 -0.118158 -0.991924
-0.602433 0.0624423 0.360957
-0.901038 -0.637041 0.251876
-0.224682 -0.559021 -0.435207
-0.760577 -0.521853 -0.343547
-0.258367 -0.0936587 0.611556
-0.15812 0.101687 0.141185
-0.897917 -0.0896976 -0.0651684
-0.219923 0.224016 -0.630331
-0.77922 -0.482793 -0.0210499
-0.780104 -0.428247 0.578868
0.237231 0.1754 0.122658
-0.568165 -0.513702 0.0468219
0.720757 0.114849 -0.210614
0.673472 0.170572 -0.21367
-0.605528 -0.453023 -0.830451
-0.813172 -0.0106337 -0.464416
0.394186 -0.481346 0.0634468
0.0649089 -0.660893 -0.778471
-0.0854608 -0.132815 0.212192
-0.0578838 -0.156529 -0.936451
-0.791658 0.122007 -0.322224
-0.697062 0.579359 0.662383
0.943343 -0.0385419 -0.752771
-0.476542 -0.596521 -0.182565
0.568028 -0.39242 0.076056
-0.0553406 0.224269 0.951909
0.326098 0.257859 -0.0328025
-0.130095 0.156509 -0.925031
-0.891943 -0.163571 0.446803
-0.144159 -0.612246 -0.341994
-0.342122 0.269011 -0.984391
-0.427091 0.0227676 0.675279
-0.916926 -0.208182 -0.310128
-0.0572973 -0.559626 -0.961991
-0.323958 0.245043 -0.0644313
-0.985522 -0.303894 0.25503
0.467658 0.351099 -0.630858
0.165992 0.111953 -0.926865
-0.744898 0.117539 -0.0685749
-0.0598531 0.146566 0.886304
-0.514849 -0.47182 0.546419
0.0743033 0.311369 -0.13126
0.82764 -0.232686 -0.888298
-0.60076 0.218314 -0.272993
-0.586045 0.134483 -0.524976
-0.2069 -0.0155273 0.817391
0.391814 -0.607097 -0.796365
0.129462 -0.688501 -0.175246
0.0956642 0.366294 -0.157731
-0.889846 -0.0113673 0.168494
-0.269631 -0.315158 0.19841
-0.276877 0.261386 -0.984066
0.745018 -0.334094 -0.886891
-0.360012 0.318114 -0.89832
-0.152803 -0.0798102 -0.933255
-0.423477 -0.265032 -0.974826
-0.33299 -0.100168 -0.987254
-0.24051 0.0762646 -0.926083
-0.543859 0.00786937 -0.783974
0.66725 -0.391256 -0.798887
-0.468783 -0.143418 0.63705
0.899484 -0.00307907 -0.802115
-0.565608 -0.61364 -0.953329
0.436966 -0.550144 -0.825196
0.467764 0.250444 -0.0888418
-0.864028 0.0317655 -0.287902
-0.659666 0.601081 0.887034
0.206358 0.0504892 0.221657
-0.386251 0.0585518 0.224147
-0.448703 -0.369504 0.414454
0.0848689 -0.684976 -0.717663
0.953862 -0.18126 -0.782161
-0.0792236 0.469933 -0.269674
-0.874059 0.0370024 -0.21889
0.566571 0.290858 -0.303012
-0.890488 -0.445057 0.508691
-0.597593 0.625179 0.69461
-0.710486 0.518977 0.626993
-0.615998 -0.591275 -0.193634
0.334422 -0.620012 -0.836607
-0.25257 0.310515 -0.8106
-0.620085 -0.668372 0.0781543
0.701042 0.15692 -0.456547
0.625954 -0.520507 -0.515193
-0.405962 -0.599742 -0.901917
0.285896 0.29795 -0.149123
-0.486848 -0.61104 -0.3695
-0.417431 -0.430069 0.283883
-0.653066 -0.722677 0.193365
-0.763189 -0.299361 0.609805
-0.759828 0.0769111 0.533607
-0.638334 0.61675 0.612567
-0.739664 -0.0699426 -0.961711
0.866958 -0.278432 -0.840846
-0.0203936 0.046696 0.655069
-0.019629 -0.720091 -0.457958
-0.375804 -0.389945 0.145946
-0.115532 0.429983 -0.230589
-0.37776 -0.597886 -0.34835
-0.147002 0.112999 0.913234
-0.746788 0.453501 0.732447
0.617914 0.244802 -0.61089
-0.39027 -0.535878 -0.020542
0.58913 -0.571425 -0.263091
0.608846 -0.530461 -0.597105
-0.617155 -0.223613 -0.885323
0.468786 -0.625644 -0.280852
-0.572984 -0.558181 -0.0548596
0.462827 0.294175 -0.14398
-0.272691 0.266935 -0.116998
-0.00994408 0.203405 0.993789
-0.24754 -0.24895 -0.985029
-0.859228 -0.437151 -0.218298
-0.0124513 0.47466 -0.600835
0.75903 -0.222308 -0.127391
0.64375 -0.519675 -0.223687
0.335522 -0.704545 -0.268877
-0.179356 0.289909 -0.151064
0.577535 -0.435768 -0.868994
-0.123013 0.458612 -0.536979
0.79111 -0.304779 -0.323285
0.108162 -0.23886 -0.938993
-0.579313 -0.277816 -0.907484
0.127456 0.227791 -0.982919
-0.245002 0.127799 -0.692469
-0.191487 0.417644 -0.316944
0.417198 -0.551902 -0.970995
-0.764708 0.0611907 0.220568
-0.340705 -0.57784 -0.152133
0.0118491 -0.587222 -0.146964
0.478839 -0.203874 0.209597
0.335037 -0.670959 -0.208168
0.973136 -0.0795382 -0.568667
0.0698254 0.487824 -0.393569
0.330714 -0.501362 0.0747057
0.666875 -0.241342 -0.95704
-0.201921 0.263906 -0.773484
-0.733617 -0.0537237 -0.559853
-0.344791 -0.0237697 -0.986546
-0.786406 -0.432846 -0.431784
-0.709549 0.111786 -0.0129433
-0.0540602 -0.584825 -0.108644
-0.717063 0.0625822 0.0929207
-0.976757 -0.175629 0.204479
-0.290781 -0.550904 -0.865015
-0.785616 0.220618 0.644293
-0.354867 0.160103 0.124699
-0.623379 0.200739 -0.412026
-0.604726 -0.596878 0.057317
-0.644563 -0.241943 -0.956642
0.154269 -0.183969 -0.942821
0.797656 -0.0173579 -0.461603
-0.86029 -0.227198 -0.425708
-0.0598463 0.415788 -0.715984
