-0.00660875 0.453727 -0.668381
-0.912253 -0.27841 0.56494
-0.927803 -0.504905 0.302405
0.62827 -0.188961 0.094523
-0.59092 0.435798 0.622778
0.799443 -0.3868 -0.799344
-0.207946 0.311151 -0.263588
-0.278898 -0.540255 -0.667162
-0.674308 0.656702 0.935914
-0.0872393 -0.0524162 0.202501
0.738608 0.0138587 -0.102579
-0.170558 0.37042 -0.87095
0.704686 -0.25843 -0.0157115
-0.747088 -0.724732 0.193533
-0.752182 0.0402243 0.375548
-0.539389 -0.427692 -0.803988
-0.473506 -0.0519575 -0.985707
0.566035 -0.554459 -0.545091
-0.0537323 0.155099 0.803267
0.0438722 0.233039 0.0253886
-0.398205 -0.189783 0.378255
0.724576 -0.0403684 -0.0499558
0.617665 -0.339655 -0.921857
-0.766175 0.197848 0.709957
-0.206908 0.374042 -0.497746
-0.700689 0.0755146 0.164335
0.518255 0.335058 -0.441196
0.885781 -0.190574 -0.855392
-0.722048 0.443036 0.602123
0.34909 -0.705863 -0.589756
0.0174536 -0.507995 0.0587172
-0.219069 -0.0690659 0.222933
0.111374 0.109644 -0.927475
-0.359172 -0.585217 -0.240486
0.0582212 0.487046 -0.464821
-0.396366 -0.0841814 0.317886
0.670237 0.186717 -0.60164
0.0457923 -0.627963 -0.820831
-0.388932 -0.455457 -0.977985
-0.841065 0.0298842 -0.0712969
-0.759992 0.228632 0.543705
-0.452571 0.106288 -0.829494
0.118566 0.180749 0.111768
-0.59501 0.745831 0.901406
-0.211957 -0.523873 -0.622016
-0.813411 0.0750158 -0.110365
-0.514467 -0.438342 -0.976697
-0.330663 -0.105647 0.684715
-0.463362 -0.354745 0.561519
-0.889661 -0.43006 0.0503532
0.634886 0.2064 -0.665531
-0.0763947 0.29759 -0.101893
0.716367 0.162428 -0.27325
0.504607 -0.480078 0.00265073
-0.336525 0.24552 -0.358954
0.215417 -0.66042 -0.807883
-0.348667 0.135739 -0.795701
0.246021 -0.05786 0.262561
-0.485722 -0.54428 0.192243
0.314385 -0.0784909 0.263002
-0.694291 0.32971 0.799985
0.177242 -0.0383768 -0.938409
-0.901712 -0.181578 -0.377093
0.348114 -0.722322 -0.344715
-0.139435 -0.245151 0.194072
0.540217 0.225513 -0.82447
-0.710554 -0.153189 0.610671
-0.021454 -0.0911997 0.224554
0.0315514 0.101592 0.676026
0.313829 0.103928 0.186178
-0.304737 -0.114257 0.581702
-0.00737832 0.281753 0.822229
-0.225535 -0.360811 -0.980414
-0.586344 0.670036 0.751824
0.349246 0.38603 -0.731157
-0.857316 -0.568776 0.0209301
-0.159897 -0.0223634 0.189015
0.693598 0.13572 -0.147392
0.255319 0.354752 -0.172939
-0.048076 -0.370008 -0.935073
-0.135262 0.4603 -0.288956
0.218419 -0.70463 -0.195141
-0.291527 -0.0602535 0.513585
0.317981 0.394195 -0.655548
-0.661316 -0.586259 -0.327812
0.234425 0.431261 -0.547236
-0.116464 0.047535 0.16938
-0.948621 -0.158537 0.0706382
0.564743 0.270317 -0.225539
-0.216404 -0.41694 0.115097
0.412635 -0.678473 -0.358078
-0.973859 -0.223072 0.272883
-0.68881 -0.528323 -0.426908
-0.68545 0.0251032 -0.549157
0.477278 -0.582331 -0.771897
-0.747202 0.178523 0.579131
-0.063673 -0.600521 -0.618783
-0.804192 0.00584805 0.419315
0.37438 0.397768 -0.460904
-0.313532 0.181953 -0.540184
-0.842183 -0.494426 0.0159418
0.284203 -0.534986 -0.994794
0.372773 -0.295694 0.241713
-0.436225 0.162859 -0.52727
-0.941762 -0.276998 0.390445
-0.301659 -0.57025 -0.200695
-0.144745 -0.511788 -0.582337
-0.0632423 -0.67261 -0.494008
-0.428692 -0.0538176 0.379505
-0.0645336 0.482688 -0.545475
-0.0666097 0.00941744 0.644525
-0.912279 -0.264293 -0.306179
0.0244441 -0.687277 -0.657386
-0.544684 -0.588547 -0.147752
0.375711 -0.702799 -0.404501
-0.890843 -0.131546 0.0138593
-0.0128334 0.193751 0.849926
-0.0206693 -0.21752 -0.9377
-0.821967 -0.666343 0.362748
-0.200922 -0.284869 0.197192
-0.235552 0.202552 -0.929852
-0.49037 0.214036 -0.431361
-0.472568 -0.398889 -0.629398
0.137501 0.422721 -0.707922
0.224259 -0.498071 0.115925
-0.0852921 -0.423179 0.11503
-0.32777 0.366369 -0.9377
-0.88182 -0.063159 -0.347358
0.093035 0.135793 0.151274
0.142113 0.301689 -0.130476
0.00708698 0.254732 -0.0134296
-0.671612 0.170893 -0.122955
-0.528693 -0.410219 0.584219
0.402471 -0.628373 -0.185131
0.267787 -0.24421 -0.994593
-0.23788 0.380721 -0.895324
0.214338 -0.599177 -0.860951
-0.406685 -0.118322 0.385657
0.157074 -0.751955 -0.402248
-0.957744 -0.373704 0.299532
0.0139118 0.201179 -0.929478
-0.866702 -0.661035 0.313393
-0.669399 -0.64927 0.399315
0.216273 0.410211 -0.198548
0.0122044 -0.696168 -0.20557
-0.74146 0.399259 0.535444
0.434627 0.171107 0.0887921
0.281508 -0.686026 -0.770436
-0.297173 -0.571257 -0.462432
-0.8969 -0.1907 0.0078
-0.222403 -3.15345e-05 -0.931885
0.00243636 0.389519 -0.804145
0.217119 -0.444813 -0.933944
0.0697057 -0.657422 -0.163962
-0.501992 0.113386 -0.880912
-0.384571 0.261876 -0.189516
-0.844584 -0.161809 0.580997
-0.638897 0.0672489 0.416979
0.918464 -0.237895 -0.814756
-0.0348319 0.0635026 -0.929296
-0.740905 -0.237466 0.614161
0.572718 0.299756 -0.449864
0.810382 -0.239187 -0.450486
-0.620099 0.00588363 -0.983088
0.552725 0.0962274 0.0748428
-0.868085 -0.0765709 0.0222921
0.645694 0.0946212 -0.858679
-0.901524 -0.355307 0.554027
0.727034 -0.312149 -0.076253
-0.443596 -0.192769 -0.973747
-0.687445 0.0440975 -0.971856
-0.0717075 -0.706017 -0.880489
0.257659 -0.201758 0.270151
-0.226905 0.117729 0.131719
-0.681285 -0.0258209 0.624139
-0.356412 -0.567915 -0.495461
0.394007 0.292395 -0.117617
-0.615319 -0.535874 -0.469245
-0.101345 0.487813 -0.489042
0.13791 -0.317828 -0.937245
-0.897605 -0.0208652 -0.175144
0.551927 0.149047 0.0172738
-0.6086 -0.113314 -0.643764
-0.698725 -0.533828 -0.0809577
0.806697 -0.334579 -0.848981
0.654829 0.107594 -0.75806
-0.262632 -0.256486 0.221604
-0.625539 0.552219 0.822182
-0.247739 0.147871 -0.644248
-0.442818 0.113101 -0.682445
0.789687 -0.306534 -0.461645
-0.940669 -0.373748 0.491372
0.052626 0.32821 0.971398
-0.664702 0.0051843 -0.856492
0.985147 -0.226957 -0.601697
0.31066 -0.330733 0.241972
-0.454014 -0.224484 -0.710215
0.485194 -0.524451 -0.811779
-0.476719 -0.411118 0.550001
0.268441 0.424303 -0.599846
0.208381 -0.733624 -0.632333
0.104126 -0.177821 0.255597
-0.883661 -0.391588 -0.280236
0.468209 0.332755 -0.766629
-0.570143 0.0981611 -0.907493
0.58517 -0.501722 -0.744288
-0.410556 -0.00237261 0.489738
-0.0840084 0.457199 -0.593451
0.273079 0.203634 -0.989496
-0.173727 0.219871 -0.927821
0.0258648 0.0488332 -0.929937
0.530499 0.283259 -0.719675
-0.958383 -0.226676 0.0613879
0.143111 0.375049 -0.833202
0.426075 -0.565116 -0.899965
-0.57706 0.100381 -0.970013
-0.488969 -0.474018 0.329668
0.954425 -0.294761 -0.627735
-0.765358 0.36791 0.800888
0.694282 -0.37511 -0.084701
-0.609034 -0.00305764 -0.824199
-0.0787488 0.496519 -0.421781
-0.46577 -0.253353 -0.821453
-0.514846 -0.0812981 0.637869
-0.212209 0.413646 -0.424108
-0.173865 -0.339096 -0.941661
-0.310631 0.198559 -0.978031
0.480434 -0.00366191 0.185757
0.824808 -0.128542 -0.49957
-0.154373 0.404511 -0.242895
-0.448273 -0.431831 -0.697206
-0.303572 0.211242 -0.46526
-0.655206 -0.466025 -0.959197
0.75678 0.103579 -0.277316
-0.491945 -0.340998 -0.809504
-0.173796 -0.488729 0.0177415
-0.700452 0.25326 0.77018
-0.734478 0.340096 0.592112
0.132561 -0.753936 -0.50334
-0.747267 0.0406268 0.456829
-0.0779016 0.349939 -0.965839
-0.878805 -0.142346 0.53576
0.466865 0.355647 -0.390564
0.0564442 -0.294594 -0.937703
-0.638716 -0.60426 -0.263389
-0.805362 -0.686965 0.162277
-0.19475 -0.408886 -0.940593
-0.427629 0.190415 -0.462771
-0.807907 0.469238 0.79182
0.668358 -0.146306 0.0466239
0.838462 0.0909876 -0.715771
-0.795244 -0.729501 0.234378
0.162915 -0.462512 -0.935542
-0.499638 0.172948 -0.497368
-0.914147 -0.154806 -0.0553867
-0.141687 0.198917 0.0454224
-0.707002 0.267763 0.493388
-0.152506 -0.385954 0.126743
-0.836873 -0.0902551 0.550068
-0.908055 -0.126974 -0.328903
0.141189 0.403933 -0.775658
-0.681924 0.104423 0.0360869
-0.725683 0.636203 0.868048
0.134449 0.461134 -0.2595
-0.0147794 -0.0886743 -0.934892
-0.110417 0.10622 0.833295
0.342468 0.350368 -0.817339
0.453393 0.0617772 0.165648
-0.578878 -0.632693 0.124888
-0.657679 0.11339 -0.500837
-0.663309 -0.570555 -0.134043
-0.38533 0.265946 -0.882581
-0.326563 -0.402967 0.128061
0.0664667 -0.56833 -0.985661
0.305246 0.412148 -0.548802
-0.821286 0.0756855 -0.34623
0.403219 -0.23576 0.242774
0.410992 -0.642642 -0.669897
0.20327 -0.0782101 -0.983868
-0.587799 0.368349 0.586534
-0.726543 -0.0345146 -0.900823
-0.122092 0.363668 -0.744177
-0.207805 0.223631 0.000839407
0.666936 -0.294753 0.0369968
0.154182 0.0384731 -0.929514
0.346415 -0.569317 -0.981365
-0.669792 -0.498667 0.559438
-0.599202 0.725812 0.715775
-0.52601 -0.128905 -0.733752
0.643405 0.253802 -0.352288
-0.592725 0.036337 0.562796
-0.20986 -0.596674 -0.247483
-0.611382 0.457081 0.771393
0.27313 -0.745771 -0.344383
-0.546185 0.162878 0.0671283
0.419564 -0.163897 0.238862
-0.859011 -0.15281 -0.440047
0.86098 -0.333937 -0.796557
0.179966 -0.735564 -0.553462
0.0396849 0.177405 0.106207
0.80908 -0.201429 -0.379372
-0.78441 0.119196 -0.145822
-0.673054 -0.500045 -0.483106
0.801557 -0.27516 -0.387547
0.428591 -0.449108 0.112892
-0.777273 0.0217566 0.0642686
-0.218473 -0.596563 -0.835136
-0.112164 0.224772 -0.934159
-0.501856 0.127586 0.133888
-0.173222 0.437618 -0.487228
0.399019 -0.412577 0.171845
-0.919425 -0.0691012 -0.284811
0.472646 0.363475 -0.572878
-0.575205 0.382572 0.662867
-0.583844 -0.544256 0.408259
-0.655453 0.0833625 0.101149
-0.817983 -0.14205 -0.497567
0.449071 0.338016 -0.263826
-0.135148 -0.139954 -0.938017
-0.901033 -0.256246 -0.375099
0.407988 -0.606449 -0.118048
-0.784894 -0.504901 -0.158034
0.482141 -0.5215 -0.941993
0.0384932 -0.0281907 -0.933323
0.164923 -0.699552 -0.696975
-0.912759 -0.402551 0.368303
0.420445 -0.270855 -0.994115
-0.934758 -0.156036 -0.113897
-0.83063 -0.21254 -0.491478
-0.374001 -0.378181 -0.984632
-0.136817 -0.532257 -0.957059
0.147321 -0.613204 -0.84612
0.533204 0.16739 -0.851196
-0.780025 0.0868498 -0.403852
-0.88717 -0.32989 -0.329845
0.541654 0.197825 -0.0459684
-0.650423 0.555853 0.573047
-0.543675 -0.58062 0.170577
-0.699071 0.591395 0.591856
-0.106074 -0.656934 -0.284077
-0.859255 -0.405609 -0.0707734
0.421986 0.123451 0.140435
-0.542651 -0.266435 0.607252
-0.499947 -0.183144 -0.788817
-0.740483 0.257298 0.607327
-0.751573 0.0553665 0.304123
-0.376907 0.168992 -0.573003
0.524624 -0.369879 0.139209
-0.470124 -0.27879 0.580073
0.108486 -0.748605 -0.455021
0.0444791 -0.748819 -0.327764
-0.670724 -0.523614 -0.00626691
-0.599291 -0.580287 -0.898009
-0.238037 0.34374 -0.439776
-0.493044 0.0992254 -0.609982
-0.104138 -0.598219 -0.216013
0.113538 0.486527 -0.41141
0.411714 -0.550089 -0.0614333
0.916758 -0.3002 -0.767845
-0.17105 -0.0131012 0.580487
-0.459562 -0.363562 0.487682
0.180717 0.14605 0.142917
-0.772221 0.0513345 0.13938
0.638216 -0.453041 -0.752432
0.809093 -0.0837096 -0.34447
0.616706 0.108673 -0.795881
0.634418 -0.49802 -0.689003
-0.211923 -0.662505 -0.895953
-0.799864 -0.364474 0.592902
-0.196066 0.292923 -0.637733
0.410753 -0.331142 -0.994451
-0.570276 -0.0841023 0.594172
-0.317459 0.148697 -0.612365
0.652893 -0.437174 -0.0940471
0.717808 -0.174278 -0.948579
0.215009 0.178355 -0.9376
-0.436071 0.208239 0.0259919
0.312412 0.249956 0.0292395
0.627665 0.255134 -0.425669
-0.459574 -0.492842 0.252592
0.0684404 -0.0959607 -0.935121
0.359115 0.0297272 -0.9968
-0.206591 -0.351962 0.16498
-0.63651 0.365449 0.523322
0.144194 -0.49866 0.110608
-0.0872897 -0.0741457 -0.9339
0.347784 0.283584 -0.975091
-0.803777 -0.626935 0.0276388
-0.956983 -0.158186 0.289949
-0.829882 0.0848421 -0.183009
0.757005 -0.377333 -0.45516
-0.753572 0.304262 0.538472
-0.955233 -0.5749 0.215197
-0.858386 -0.519814 0.486851
0.49621 0.350836 -0.507281
0.67226 -0.219186 0.0393829
-0.0251954 0.234186 0.749234
-0.695234 -0.689822 0.336439
0.411623 0.313889 -0.199689
-0.352696 -0.560788 -0.842872
0.502972 -0.0710172 0.189447
-0.112764 -0.527158 -0.695576
0.0199349 0.194339 0.786038
0.0829207 0.301629 0.892574
0.631746 0.160552 -0.725537
-0.0250887 -0.167662 0.228137
-0.616599 -0.518816 -0.860535
0.340131 0.406895 -0.339315
0.897762 -0.346345 -0.636225
0.543524 0.0476683 -0.94702
0.0848099 -0.723086 -0.630494
0.734515 -0.25386 -0.927089
0.155409 -0.62302 -0.908146
0.655807 -0.0713359 0.0579991
-0.449384 -0.452312 -0.605156
0.63701 -0.369297 0.0291477
-0.494985 -0.538531 -0.800231
-0.896995 -0.0110466 -0.248518
-0.473217 -0.00652938 0.371537
0.754109 -0.281138 -0.135155
-0.618817 0.19496 -0.143466
-0.57485 0.033089 0.493177
-0.771258 0.113975 0.58967
-0.172012 -0.589155 -0.981788
-0.443112 -0.306057 0.436388
-0.37545 0.223499 -0.0126453
-0.475198 -0.0409938 0.669257
0.760038 -0.0541343 -0.113851
-0.109834 0.0714724 0.91115
0.410827 0.0187391 0.210161
0.431133 0.385819 -0.51623
0.524746 0.239295 -0.102064
-0.314824 0.111769 0.697706
-0.507932 0.0688831 -0.813664
0.706151 -0.0952806 -0.956033
-0.563394 -0.179102 -0.825761
0.612958 0.111391 0.0138706
-0.75569 -0.507636 -0.0900934
-0.489453 0.12114 -0.556285
0.684212 -0.0269133 0.00772871
0.803192 -0.242073 -0.32178
-0.498111 -0.249217 -0.984219
-0.067517 0.248835 0.820047
-0.0612659 0.387609 -0.77613
-0.608733 0.158134 0.658722
0.50024 0.156199 0.0631092
-0.250579 -0.501114 -0.00502244
-0.289074 0.0251827 -0.950843
-0.252656 -0.589061 -0.325973
-0.369538 -0.221949 0.307897
-0.777838 0.142154 -0.210544
0.270718 -0.422467 -0.935891
-0.9457 -0.272111 -0.223467
-0.730572 -0.646805 0.428942
-0.883494 -0.0227184 -0.0957266
-0.189486 -0.531699 -0.0484113
-0.214423 0.197566 -0.762178
-0.752203 0.0692854 0.0203925
0.769259 -0.343589 -0.51878
-0.646605 0.29757 0.498686
-0.627389 0.0641087 -0.879977
-0.531562 -0.505388 0.511413
-0.140522 0.235195 0.00447524
0.542578 -0.022857 0.148886
0.821487 -0.068535 -0.512602
0.160609 -0.738233 -0.246461
-0.835558 -0.579253 0.450892
0.17074 0.276897 -0.98932
0.0824001 0.192675 -0.931954
0.211693 -0.707107 -0.753999
-0.620532 -0.151072 0.605662
-0.912218 -0.507745 0.0424155
0.320535 0.360453 -0.198711
0.896075 -0.0845898 -0.512098
-0.573188 -0.621328 -0.267726
-0.138655 0.207354 0.822278
0.0236577 0.103473 0.148127
-0.340497 0.021266 0.790596
0.385414 -0.0998129 0.248613
-0.467547 -0.359727 -0.724552
-0.448495 -0.510719 0.0138933
0.579338 -0.239504 0.138122
0.698802 -0.100589 -0.000876797
0.233367 -0.747986 -0.408274
-0.116162 0.349058 -0.815458
-0.756593 0.537077 0.888641
0.281489 -0.556654 -0.0849772
0.459492 -0.67902 -0.411146
0.281607 0.379345 -0.7828
-0.267672 -0.385373 0.157235
-0.560407 -0.357908 -0.84383
-0.83565 -0.405653 -0.397743
-0.888274 -0.00763458 -0.318389
-0.244749 -0.52664 -0.804666
0.291313 -0.669475 -0.180346
-0.349738 0.256154 -0.131702
0.76872 -0.00261145 -0.168825
-0.793815 -0.543419 0.510095
0.238152 -0.335478 0.243374
-0.342124 0.213006 -0.817097
-0.216165 0.186234 0.0706029
-0.635626 0.738608 0.801568
0.559441 -0.481715 -0.0291034
-0.2735 0.202967 0.051045
-0.449141 -0.485317 -0.976736
-0.0494724 0.275821 -0.0308317
0.560101 0.253525 -0.765702
-0.22778 0.374548 -0.362298
0.688931 -0.463036 -0.204883
0.118114 -0.63319 -0.974333
0.521915 -0.584675 -0.585298
-0.660707 0.206641 -0.298377
-0.429557 -0.334072 0.370421
0.174602 -0.324265 0.24604
-0.86804 -0.676526 0.198617
-0.420229 -0.535545 -0.505527
-0.258191 0.212952 -0.513049
0.342503 -0.630185 -0.168899
0.274883 0.447012 -0.433319
-0.600674 -0.604633 -0.341464
-0.404537 -0.605497 -0.18623
-0.737823 -0.252369 -0.578143
-0.153436 0.0340914 0.876224
0.539488 -0.438599 0.047037
-0.761604 -0.599865 0.47617
0.0718295 0.383678 -0.827598
0.046463 0.336976 -0.924835
0.0879206 -0.757487 -0.38721
0.445818 0.207873 -0.924179
-0.782256 0.440194 0.822499
0.253942 0.260782 -0.0313704
0.782917 -0.246339 -0.19561
0.045752 -0.496601 -0.931363
-0.532792 -0.140271 -0.675556
-0.611739 -0.0399628 -0.628802
-0.285395 0.157903 0.105973
-0.1395 -0.463327 -0.930147
-0.0780586 0.269755 -0.988468
-0.435855 -0.0959978 0.688177
-0.0185794 -0.396603 0.158126
-0.646353 -0.469436 -0.897259
0.00735416 0.425042 -0.733193
0.80272 -0.0286123 -0.398562
-0.198669 0.0933783 0.587735
0.608027 0.0607664 0.0576858
-0.414591 0.0116316 -0.984906
-0.438603 -0.491572 0.162284
0.00341633 -0.54256 -0.000522803
-0.294761 0.0680009 0.820064
-0.407377 0.25311 -0.332196
-0.6154 -0.703 0.1271
0.875119 -0.103537 -0.861246
-0.61668 0.0810799 0.148586
-0.664036 -0.155326 -0.630149
0.428867 0.059295 -0.987012
0.262955 0.0921906 -0.936651
0.370762 -0.672064 -0.718472
0.580442 -0.560979 -0.207795
-0.733882 0.173709 -0.331847
-0.739938 -0.609326 0.00998669
-0.046004 -0.711245 -0.271267
-0.954326 -0.550815 0.0888563
0.277777 -0.710857 -0.229317
-0.57878 0.161964 0.597495
0.800687 -0.136285 -0.238433
-0.771871 -0.193328 -0.543242
-0.929204 -0.070273 0.151383
-0.617773 -0.565408 -0.959825
0.95797 -0.249541 -0.747293
-0.627631 -0.569005 -0.40388
-0.537061 0.0474226 0.338976
0.598618 -0.483139 -0.0965654
-0.630673 0.210323 0.716954
-0.610376 0.171131 0.477828
-0.515329 -0.507358 -0.9767
-0.274698 0.151461 -0.92693
-0.0148693 0.178892 0.675473
-0.664378 -0.70412 0.0731167
-0.655691 -0.357834 0.610764
-0.29975 0.10226 -0.931932
0.795964 -0.0119376 -0.547631
-0.53339 -0.627893 -0.899423
-0.136825 0.116431 0.615843
0.65705 0.0461126 0.00997614
0.1256 -0.750095 -0.319955
-0.377368 0.0637946 0.694317
-0.29469 0.232707 -0.0040657
-0.000182065 0.491646 -0.421978
-0.953507 -0.286107 0.451417
0.720559 0.0676854 -0.872665
-0.468504 0.0264334 0.307438
-0.098658 -0.318473 -0.937653
-0.430217 0.147338 0.136793
-0.398371 0.250861 -0.0790875
0.482049 0.0849755 -0.938212
0.491015 0.340491 -0.704812
-0.863391 -0.641664 0.0571
-0.268225 -0.584477 -0.258752
-0.50431 -0.599276 -0.839925
-0.646493 0.3998 0.797268
-0.0462199 0.0857846 0.162227
0.177242 0.328477 -0.869316
0.878453 0.0546924 -0.75786
-0.600876 0.096835 0.607785
0.951206 -0.251094 -0.552321
0.33609 -0.193745 -0.991095
0.69863 0.0843228 -0.0970012
0.620585 -0.381025 -0.862531
-0.601146 -0.585788 0.304446
-0.404133 -0.0633866 -0.987828
-0.547346 -0.299521 -0.981261
-0.626709 -0.480491 -0.527395
0.309059 -0.147549 0.269048
-0.679656 0.155374 -0.0690383
-0.598272 0.11141 0.463249
-0.668018 -0.00735523 -0.5953
0.193738 0.428473 -0.668652
-0.214467 0.187617 -0.695434
0.308924 -0.474433 -0.989961
-0.834896 -0.475077 0.535497
-0.653241 -0.408614 -0.954674
-0.125314 -0.0286533 0.639929
0.689338 -0.390914 -0.750503
-0.639638 0.207711 -0.221665
-0.202772 0.267829 -0.982944
-0.00837276 -0.618112 -0.794599
-0.709232 0.345672 0.508748
0.456596 -0.616167 -0.212494
0.269363 0.340209 -0.843106
0.0255451 0.493663 -0.300989
0.201811 -0.142503 -0.988486
-0.201198 0.148099 -0.924286
-0.382245 -0.491754 0.034845
-0.996771 -0.312407 0.180268
-0.391784 -0.612287 -0.287913
0.436018 -0.506796 -0.000902699
0.112319 0.351486 0.823136
0.806096 -0.155669 -0.313051
-0.487226 -0.178857 -0.704523
-0.577179 -0.457901 -0.565742
-0.612025 -0.641706 0.261052
-0.224051 0.254474 -0.569326
0.523698 -0.605113 -0.223652
0.700058 0.104308 -0.814568
-0.00654094 -0.0240273 0.213616
-0.00788627 0.2895 0.948221
-0.273117 0.0794963 0.572166
0.520848 0.274944 -0.165031
-0.156595 0.168647 0.876551
-0.518821 -0.335486 0.595404
-0.252805 -0.0251244 0.685748
-0.837882 -0.055837 0.432183
-0.932685 -0.325164 -0.168683
0.611477 -0.552209 -0.336903
0.813133 -0.167101 -0.445382
0.366074 -0.438569 -0.993807
-0.520317 0.249748 -0.170229
-0.690862 -0.60528 0.474504
0.6546 -0.145463 -0.978883
0.68085 0.149243 -0.66555
-0.121671 -0.522611 -0.0185824
0.274015 -0.387146 0.211368
-0.686743 0.542226 0.870589
-0.920712 -0.0831195 0.281844
-0.404918 0.17839 0.0796678
-0.0118745 -0.509864 -0.929876
-0.198823 0.375083 -0.969026
0.123114 0.333154 -0.917403
0.281436 0.4306 -0.290081
-0.599006 -0.515672 0.54094
-0.557425 -0.57065 0.245827
0.286421 -0.00543327 0.249129
-0.657495 -0.69248 0.260692
0.20343 0.443181 -0.261365
-0.579933 0.750728 0.783558
-0.207908 0.0213314 0.733702
0.385172 0.358399 -0.235909
-0.717573 0.190036 0.482973
-0.28887 -0.558549 -0.127988
-0.58111 0.181979 -0.000679628
0.0343985 0.3022 -0.986643
-0.265796 -0.529216 -0.0673613
0.0821454 -0.648873 -0.891652
0.964972 -0.0264219 -0.674933
-0.636265 0.0303787 0.619701
-0.592684 -0.184107 -0.658742
0.241461 0.247538 0.0521168
0.527721 0.324641 -0.364842
-0.866374 -0.678288 0.12596
0.511267 -0.38529 -0.962713
0.680284 -0.495013 -0.444577
0.66679 0.0493264 -0.919966
-0.149421 -0.493165 -0.657444
-0.85966 -0.111669 0.473505
0.0406033 0.273859 0.760845
0.497573 0.191929 0.00063233
0.880556 0.0692195 -0.675265
-0.466352 -0.56547 -0.978011
-0.584497 0.687657 0.839149
0.349378 -0.577629 -0.917098
0.367414 0.412842 -0.529235
0.82378 -0.354352 -0.622603
-0.140742 -0.315591 0.160142
0.234944 0.116064 0.174563
0.684441 -0.479447 -0.515899
-0.575293 0.236315 0.584351
0.713026 0.123927 -0.611721
-0.628361 0.336162 0.762499
-0.617988 0.136074 0.0531871
-0.793655 -0.513909 -0.284609
-0.0578815 -0.640024 -0.984392
0.781612 0.0238488 -0.368337
0.445034 0.289379 -0.829235
-0.686749 0.703012 0.906924
-0.526883 -0.425395 -0.598827
-0.667541 0.134969 0.453329
-0.134493 -0.703703 -0.89136
0.510278 0.317622 -0.593978
-0.138345 0.264379 -0.98351
0.0110047 0.483344 -0.539432
-0.714258 0.0762217 0.245091
-0.909789 -0.0368539 0.23532
-0.686967 -0.653242 0.0323544
-0.782592 -0.00169687 0.502661
0.413053 0.384614 -0.591774
-0.308541 0.127939 -0.680874
0.117007 -0.108557 0.254759
-0.5834 0.0478892 0.428677
-0.401523 -0.177335 0.514124
-0.159319 0.0623189 0.793172
0.790852 -0.278749 -0.259998
-0.45348 -0.412106 0.357057
0.228825 -0.580586 -0.124484
-0.0181956 0.333749 -0.967774
0.316184 -0.718339 -0.285904
0.540075 -0.0156899 -0.984326
-0.729945 0.477133 0.857644
0.74435 -0.170468 -0.0762814
-0.0804576 -0.205809 0.210443
-0.842767 -0.454602 -0.292835
-0.64908 -0.230157 -0.636943
-0.820859 -0.286161 -0.480457
-0.693652 -0.734233 0.133739
-0.214111 -0.544142 -0.553265
-0.93436 -0.282672 -0.11171
-0.491129 -0.529747 0.118876
0.693658 -0.419708 -0.147417
0.0559223 -0.715388 -0.521873
-0.583018 0.174186 0.533776
-0.625444 0.077991 -0.546398
0.809695 -0.0859015 -0.438525
-0.608115 -0.076865 -0.982152
0.678353 -0.301374 -0.932593
0.688912 -0.333126 -0.0190461
0.60906 0.261651 -0.499014
-0.668273 -0.212077 0.614801
-0.493048 0.0179272 -0.984389
-0.460824 -0.0222183 0.451616
-0.488242 0.0662724 -0.743964
-0.572528 0.302726 0.629516
-0.43401 -0.242578 0.477339
-0.289265 0.119797 0.16663
-0.0312878 0.352583 -0.903697
0.680201 -0.444058 -0.695517
-0.589137 -0.419297 -0.976375
-0.157518 0.196711 0.75019
-0.63879 0.273967 0.750008
-0.119355 -0.392651 -0.934659
-0.851203 -0.405225 0.563173
-0.424534 0.227261 -0.395554
0.4128 -0.673124 -0.597294
-0.176886 0.270929 -0.0509307
-0.92043 -0.0884639 -0.141286
0.740627 0.0955313 -0.557919
-0.677287 -0.0835205 -0.609994
-0.0656808 0.075088 0.610846
-0.251066 0.110499 0.834104
-0.159787 -0.65745 -0.839076
-0.713775 -0.443585 0.584633
0.067596 0.0111102 0.222782
0.789302 -0.080002 -0.18611
-0.0641781 0.014054 0.190657
-0.576545 0.0763818 0.218584
0.487454 0.108441 0.114281
0.338925 0.0395562 0.222707
-0.891486 -0.396204 -0.146853
-0.725098 0.11424 0.468289
0.465622 0.223359 -0.0568245
-0.924943 -0.446454 0.326305
0.569331 0.274565 -0.575099
-0.276755 -0.576193 -0.399489
0.915828 -0.302555 -0.569683
-0.450512 -0.40048 -0.978048
-0.573747 -0.530453 0.333735
0.644832 0.226061 -0.549268
-0.71492 0.517715 0.709922
0.9952 -0.168917 -0.649662
-0.728679 0.469532 0.541145
0.0873999 -0.530022 0.04961
0.766165 -0.319048 -0.198898
0.814665 0.0878036 -0.777058
-0.180951 -0.555436 -0.372623
-0.934657 -0.347645 0.422427
-0.938204 -0.132457 -0.260399
-0.628721 -0.598128 0.444938
-0.768706 0.154958 -0.276004
-0.272003 0.273061 -0.347097
-0.707686 -0.723428 0.240147
-0.183544 0.0019675 0.672271
-0.209191 0.0363812 0.554194
-0.519278 0.106106 -0.981769
-0.443056 -0.50191 -0.554098
-0.892218 -0.0655853 0.340593
-0.675348 0.681601 0.8332
-0.727411 -0.371581 0.605389
-0.403737 -0.123314 -0.96559
-0.314323 -0.148556 -0.965549
0.286983 -0.599406 -0.139741
-0.989349 -0.242635 0.199362
-0.68952 0.177435 -0.189782
0.17779 0.359194 -0.158477
0.112313 -0.511108 -0.957846
-0.854835 -0.694224 0.258117
0.628437 -0.261092 0.0908288
0.579805 0.26045 -0.658931
-0.171562 0.459757 -0.374307
-0.0324622 -0.684186 -0.555142
-0.557919 -0.585574 -0.390172
-0.206993 -0.50122 -0.763374
0.178148 -0.460397 0.160699
-0.585786 -0.254752 -0.652041
-0.663726 0.0767148 0.291424
-0.696294 -0.444782 -0.515113
-0.394665 -0.508987 -0.590207
0.323103 0.323043 -0.888624
0.692534 -0.485915 -0.268673
0.0163997 0.342146 -0.860481
-0.365018 -0.0534303 0.257874
-0.430175 -0.0247711 0.713794
-0.461092 -0.29809 -0.764336
0.180515 -0.251136 -0.943516
0.612213 -0.276467 -0.961996
0.410289 -0.205497 -0.984176
-0.7633 0.145949 0.531999
0.303527 -0.722594 -0.411043
-0.23381 -0.0385416 0.54862
-0.359672 -0.0519148 0.470702
0.371371 -0.514014 -0.0128337
0.239313 -0.734975 -0.528161
0.0849241 0.431532 -0.199466
-0.649655 -0.557437 0.515215
0.478995 0.150912 -0.891908
-0.0395862 0.400527 -0.188546
0.330397 0.270217 -0.0975237
0.439627 0.279435 -0.8906
-0.970784 -0.518087 0.15338
0.594607 -0.573789 -0.413871
-0.0737091 0.108754 0.944565
0.305582 -0.0252649 -0.99419
-0.244413 0.248359 -0.0526134
0.27628 0.0390282 -0.986225
0.208934 -0.541416 0.0479074
0.220654 0.0302565 -0.938278
0.0873531 0.23328 0.781019
0.775397 0.0803688 -0.833834
0.977571 -0.244253 -0.678342
-0.481512 -0.34854 -0.652554
-0.169145 0.317384 -0.212255
0.554297 0.312507 -0.521569
0.150876 -0.529157 0.060357
0.555353 -0.326672 -0.956813
0.500536 -0.425018 0.110317
0.256111 0.282743 -0.087705
-0.523123 0.0529735 0.265674
-0.419805 -0.615786 -0.955797
-0.275149 0.0188365 0.523733
0.346799 -0.268282 -0.993445
-0.525387 -0.225195 -0.676637
0.180637 0.325068 -0.95159
-0.343826 -0.529899 -0.711256
-0.308005 -0.367272 -0.983197
0.718081 -0.446952 -0.325863
-0.276164 -0.556189 -0.600981
-0.532459 -0.297035 -0.658465
-0.197565 -0.476266 -0.959961
-0.431069 -0.587454 -0.848857
-0.100114 0.169497 0.935391
0.16132 0.229384 0.0484059
-0.160232 -0.0342442 -0.931302
-0.403892 0.262017 -0.263047
0.642126 -0.0697123 -0.975159
-0.0855083 -0.66807 -0.817422
0.331946 -0.230514 0.262906
0.585391 -0.528328 -0.14763
0.697586 -0.470348 -0.38842
-0.663515 -0.590456 0.0196902
0.731163 0.0100837 -0.913809
0.352957 -0.37155 0.214476
-0.40941 0.219656 -0.981878
-0.865306 -0.609874 0.390102
0.0879254 0.0361036 -0.929998
0.0972603 -0.459683 -0.930596
-0.743395 -0.677081 0.0486839
-0.402106 -0.133078 0.448752
0.720056 0.167002 -0.386471
-0.98019 -0.199236 0.130537
0.084408 0.358862 0.934406
0.920386 -0.062562 -0.812446
-0.747154 -0.005978 -0.511249
-0.211764 -0.506641 -0.691417
0.373499 0.204845 0.0765638
-0.129187 -0.618688 -0.791805
-0.692983 -0.0571252 -0.846668
-0.644565 -0.180836 -0.977312
-0.437063 -0.21987 0.547699
-0.730118 -0.11696 -0.892622
-0.398219 -0.546716 -0.978002
-0.502086 -0.497525 0.0537067
-0.141282 0.366599 -0.962649
0.53931 -0.495717 -0.797108
0.431576 -0.490874 -0.991237
-0.322644 0.280551 -0.828104
-0.567392 -0.054119 -0.790671
0.439831 0.131634 -0.962287
-0.747498 -0.717221 0.107598
-0.95575 -0.506744 0.231034
-0.335078 -0.109199 0.614958
0.834388 -0.380477 -0.674026
0.478848 -0.565578 -0.095592
-0.804637 -0.711416 0.307156
0.704697 0.165718 -0.538425
-0.503371 -0.450706 0.40918
-0.912953 -0.582793 0.0521531
0.110296 0.312602 -0.975036
0.0984747 0.488606 -0.329647
-0.553756 -0.556635 0.101236
-0.0845132 0.180585 0.0781138
-0.544577 -0.56596 -0.976095
0.704801 -0.450553 -0.576769
0.438697 -0.0877698 -0.982748
-0.576092 -0.624172 0.204533
-0.271307 -0.522435 -0.733897
0.438888 0.208609 0.022128
-0.717448 -0.565358 -0.282491
-0.148439 -0.170366 0.20414
-0.51103 0.201621 0.0160088
0.483089 -0.0513258 -0.997325
-0.758972 0.0744724 0.641059
0.464374 0.351746 -0.329867
0.212565 -0.215475 -0.986531
0.201711 0.221434 -0.987649
-0.135638 -0.199708 -0.941067
-0.681505 0.189659 -0.373472
-0.743242 -0.725306 0.293646
-0.660011 0.698634 0.686712
0.388269 0.377541 -0.661282
-0.824612 -0.0474314 0.495988
0.375015 -0.383933 -0.99112
0.323334 -0.398785 -0.948612
0.224336 0.448134 -0.331888
-0.284397 0.174176 -0.789251
0.306605 0.208177 0.0932972
-0.232288 0.0464935 0.858762
-0.921552 -0.628965 0.101075
-0.0979597 0.222581 0.766603
0.145995 0.180914 -0.929667
-0.100135 0.491184 -0.357884
-0.981032 -0.376937 0.229858
0.0502677 0.323627 0.822
0.195639 0.258341 0.00624653
-0.590263 -0.324541 0.610203
-0.23241 -0.460131 0.0500026
-0.247152 0.328975 -0.986921
-0.83587 -0.411658 0.0106564
-0.0826445 -0.356222 0.157426
0.296932 0.308524 -0.959469
-0.816638 -0.482555 -0.222804
0.580478 0.280464 -0.383149
0.528855 -0.497485 -0.876663
0.041122 0.26182 0.933634
-0.0740563 -0.626181 -0.549199
-0.983486 -0.376454 0.162184
-0.0224876 -0.292114 -0.9377
-0.866075 -0.0161659 0.298242
-0.65778 0.477685 0.824222
-0.017104 -0.668858 -0.834232
-0.366093 -0.338436 0.251741
0.685891 0.0953928 -0.718665
0.683024 -0.016341 -0.951223
0.032933 0.221107 0.707293
0.793333 0.0128894 -0.879484
-0.584237 -0.212358 0.611233
-0.154488 -0.270739 -0.944263
-0.754833 -0.686643 0.371236
-0.426326 0.141009 -0.905574
0.0687041 -0.55889 -0.012121
-0.0806345 -0.501261 -0.929249
0.862172 -0.0232388 -0.540278
-0.856578 -0.0333982 -0.406122
0.991347 -0.15754 -0.577078
-0.753311 0.391641 0.700334
-0.392185 0.128375 -0.831476
-0.166696 0.100352 -0.927369
-0.314827 -0.531123 -0.788113
0.477391 -0.24114 -0.993004
0.612234 0.015298 -0.957486
0.235834 0.308174 -0.976056
0.732914 -0.413157 -0.51876
-0.000715719 -0.717313 -0.507845
0.272418 -0.522886 0.0673308
0.673977 -0.51087 -0.334257
-0.387649 -0.140234 0.645802
-0.94675 -0.4094 0.104079
0.297112 0.435899 -0.485147
-0.317557 -0.573942 -0.296325
0.469373 -0.600944 -0.149874
-0.279026 0.000830294 0.819191
0.199794 -0.577058 -0.0594787
-0.816145 0.0965513 -0.253152
-0.910208 -0.374463 -0.211471
-0.69533 -0.578442 -0.210442
-0.507446 0.136867 -0.947441
-0.702992 -0.180491 -0.956478
-0.108323 -0.59624 -0.982058
0.478428 -0.162625 -0.979088
0.752 -0.358167 -0.648667
-0.579409 0.115805 0.10755
-0.914763 -0.549063 0.357191
-0.555567 0.093445 -0.557092
-0.148986 -0.5896 -0.262586
0.660116 0.0974008 -0.0383849
-0.436381 0.262545 -0.144436
-0.462018 -0.551418 -0.0457701
0.29318 -0.585181 -0.974121
-0.588829 -0.14702 -0.981628
0.0073037 -0.6698 -0.973711
0.241408 -0.500592 -0.987119
-0.883687 -0.0883425 0.405631
-0.595998 0.520202 0.758205
-0.206109 0.333956 -0.570929
-0.237028 0.314282 -0.322325
0.0568147 -0.0582852 0.237843
0.35071 0.307062 -0.168009
-0.605035 -0.287592 -0.964383
-0.340473 0.00818953 0.499185
0.0108592 0.0438117 0.190634
0.841542 0.0372753 -0.826086
-0.346422 -0.547781 -0.557308
-0.0103362 -0.752954 -0.334197
-0.545732 -0.357375 -0.625437
0.391013 0.319441 -0.858679
0.803691 -0.264922 -0.532202
0.137917 0.0382836 0.227086
-0.745903 0.572791 0.827677
-0.273896 0.129896 0.765854
0.074641 0.421327 -0.752946
-0.348227 -0.112407 0.264293
-0.630591 -0.272731 0.615585
0.540209 -0.513519 -0.08943
-0.288994 -0.06396 0.646887
-0.0993234 0.110046 0.758738
0.529226 -0.550594 -0.737447
0.342898 0.399503 -0.259313
-0.592289 0.306609 0.548307
0.649448 -0.532722 -0.392457
-0.0484412 0.31477 -0.159063
-0.473226 -0.127173 -0.983907
-0.961518 -0.588052 0.148958
-0.328123 0.0157711 0.233813
0.697118 0.0278972 -0.0453706
-0.161048 -0.441008 0.0790106
-0.00748194 0.203495 0.921008
0.368943 -0.0494749 -0.985973
-0.734072 -0.474014 -0.460869
-0.481784 -0.324975 -0.983077
0.658991 0.19874 -0.483178
0.293951 -0.723159 -0.645527
-0.214408 -0.139823 0.22628
-0.354784 -0.590989 -0.956772
0.92162 -0.139525 -0.824767
-0.310493 -0.23326 -0.965169
0.205223 -0.000907229 0.246318
-0.643734 0.725903 0.939193
0.278202 -0.641234 -0.833343
0.192092 0.462373 -0.405467
-0.176822 0.360475 -0.633368
-0.3493 -0.294745 -0.971327
-0.526967 0.256796 -0.248738
-0.80211 -0.669827 0.0906018
-0.494217 -0.622515 -0.958679
0.328483 -0.112956 -0.990765
-0.607569 0.06377 0.355863
-0.904614 -0.632088 0.252051
-0.227689 -0.560997 -0.414842
-0.759787 -0.525957 -0.333968
-0.250198 -0.0898671 0.617964
-0.157851 0.0982081 0.143678
-0.895813 -0.0875154 -0.0584042
-0.219808 0.220526 -0.63511
-0.775633 -0.485221 -0.0234046
-0.782752 -0.431971 0.577558
0.240228 0.187814 0.112386
-0.566226 -0.51245 0.0467569
0.722611 0.111763 -0.209713
0.674462 0.168252 -0.211334
-0.607642 -0.453621 -0.832048
-0.807705 -0.0237497 -0.471366
0.399409 -0.483825 0.0560902
0.0715272 -0.665256 -0.773299
-0.0873825 -0.127632 0.211413
-0.0645333 -0.155796 -0.93644
-0.789445 0.122855 -0.326085
-0.697641 0.575286 0.666853
0.949149 -0.0459381 -0.744894
-0.470814 -0.596177 -0.18318
0.570423 -0.381972 0.0846346
-0.0539401 0.226056 0.95257
0.327731 0.258593 -0.037343
-0.116816 0.157737 -0.926132
-0.886093 -0.154167 0.448106
-0.146524 -0.60652 -0.331974
-0.334305 0.266853 -0.984393
-0.428493 0.0225648 0.671687
-0.914849 -0.197647 -0.314934
-0.0527596 -0.562665 -0.964013
-0.319188 0.245411 -0.0713013
-0.985704 -0.308206 0.25577
0.461564 0.35276 -0.64685
0.189798 0.108736 -0.926479
-0.746379 0.126274 -0.0877265
-0.0616112 0.146586 0.882652
-0.509306 -0.463764 0.54979
0.0773312 0.31451 -0.136744
0.837123 -0.224193 -0.88484
-0.595722 0.220594 -0.271677
-0.575733 0.151166 -0.516692
-0.196692 -0.00632115 0.829514
0.400838 -0.600786 -0.794415
0.139789 -0.697122 -0.18355
0.102677 0.37312 -0.161543
-0.895736 -0.0160524 0.166478
-0.269023 -0.323507 0.194676
-0.265088 0.256034 -0.982756
0.740794 -0.329303 -0.892442
-0.359254 0.318449 -0.897707
-0.163034 -0.0919406 -0.935414
-0.421227 -0.261368 -0.974215
-0.34492 -0.100905 -0.986902
-0.239917 0.070017 -0.92606
-0.542478 0.0122334 -0.786643
0.655707 -0.390303 -0.808422
-0.475095 -0.137928 0.639594
0.905941 0.00123293 -0.789906
-0.564541 -0.614687 -0.953035
0.43345 -0.549919 -0.830714
0.460144 0.272172 -0.10629
-0.8503 0.0477024 -0.289712
-0.644093 0.605878 0.87596
0.200872 0.0647064 0.214935
-0.384188 0.0590773 0.224239
-0.453454 -0.381082 0.417739
0.0948285 -0.693812 -0.703346
0.952895 -0.187203 -0.782859
-0.0569008 0.485503 -0.294292
-0.870659 0.0414033 -0.220129
0.579305 0.282615 -0.310653
-0.893526 -0.430632 0.516903
-0.598882 0.618919 0.689821
-0.710985 0.512271 0.632804
-0.621123 -0.586943 -0.186428
0.341295 -0.618708 -0.834383
-0.260241 0.308397 -0.812103
-0.621107 -0.650893 0.063678
0.70126 0.157255 -0.452292
0.623049 -0.520684 -0.52082
-0.382224 -0.592843 -0.893668
0.290211 0.294406 -0.146073
-0.487273 -0.611898 -0.367056
-0.423104 -0.434595 0.288002
-0.655315 -0.726701 0.183809
-0.775403 -0.298953 0.608051
-0.76478 0.0729729 0.515771
-0.644999 0.621612 0.607393
-0.73928 -0.0592233 -0.963158
0.866635 -0.276177 -0.842837
-0.0178883 0.0489851 0.657639
-0.0273092 -0.721649 -0.444605
-0.378265 -0.391351 0.147704
-0.0885359 0.444411 -0.229681
-0.374134 -0.596559 -0.348656
-0.148094 0.109973 0.912994
-0.750142 0.458009 0.740585
0.614477 0.249327 -0.608258
-0.401926 -0.536309 -0.0270498
0.580619 -0.578465 -0.270494
0.596222 -0.54119 -0.611776
-0.610834 -0.227166 -0.884137
0.471909 -0.619416 -0.268305
-0.575361 -0.548016 -0.0372821
0.459792 0.29911 -0.160439
-0.273533 0.269245 -0.126606
-0.00511617 0.212338 0.995665
-0.24766 -0.252176 -0.984918
-0.865859 -0.430036 -0.219687
-0.0115442 0.474311 -0.602023
0.764144 -0.206162 -0.133203
0.637063 -0.522646 -0.216458
0.392725 -0.696585 -0.294711
-0.192333 0.287789 -0.156169
0.571276 -0.450654 -0.864209
-0.129912 0.450546 -0.541656
0.786717 -0.316259 -0.323846
0.110433 -0.24461 -0.938993
-0.570369 -0.283153 -0.901462
0.123735 0.230765 -0.98444
-0.239858 0.124493 -0.706378
-0.185218 0.432322 -0.320487
0.414022 -0.553875 -0.971132
-0.772544 0.0578333 0.217652
-0.355096 -0.580773 -0.15537
0.0183532 -0.58707 -0.146183
0.469053 -0.199504 0.214582
0.35226 -0.677018 -0.228672
0.978315 -0.0874064 -0.575369
0.0491717 0.490819 -0.375059
0.334199 -0.507707 0.0610053
0.66894 -0.226456 -0.959234
-0.199881 0.269349 -0.775298
-0.732456 -0.0549747 -0.561312
-0.344283 -0.0116201 -0.985737
-0.787375 -0.435324 -0.426761
-0.715029 0.114113 -0.0234891
-0.0518831 -0.58514 -0.108746
-0.721302 0.0599951 0.0862779
-0.973349 -0.16435 0.205751
-0.279745 -0.546189 -0.853643
-0.785189 0.20493 0.635756
-0.352096 0.15809 0.127755
-0.6236 0.199657 -0.416646
-0.600646 -0.588648 0.0588627
-0.646599 -0.239914 -0.958486
0.155254 -0.183928 -0.943317
0.796706 -0.0161385 -0.47058
-0.857809 -0.229001 -0.428461
-0.0660228 0.41356 -0.714226
-0.406139 -0.00301879 0.256619
0.763402 -0.353408 -0.262547
-0.485815 0.248656 -0.102325
-0.669934 0.669206 0.762044
-0.551208 -0.0764998 -0.664324
-0.146302 0.168461 0.67515
0.028078 -0.701191 -0.595425
-0.0905537 -0.67747 -0.435349
-0.910374 -0.169554 0.389745
0.0670215 0.468355 -0.528713
-0.453795 -0.474431 -0.773645
-0.203013 -0.146851 -0.974315
0.744298 -0.413361 -0.391462
-0.360972 0.223827 -0.423806
0.29189 -0.584798 -0.87944
-0.698679 0.0617027 0.422386
0.578241 0.0242736 0.103014
0.403687 0.178156 -0.985008
-0.746492 -0.128982 -0.949558
-0.398856 -0.434666 0.108084
-0.645392 0.0919035 0.663602
-0.863687 0.00833927 0.234192
-0.266195 -0.11609 -0.988666
0.980401 -0.180249 -0.715068
0.327682 0.157157 -0.990188
-0.249534 -0.423294 -0.980897
0.059293 0.239918 -0.984407
-0.00396296 0.108976 0.636768
-0.7698 0.0377612 0.570076
-0.201588 0.102651 0.879159
-0.107791 0.274269 -0.0386573
-0.403155 0.275845 -0.969517
0.955437 -0.120111 -0.527134
-0.455465 0.0704042 -0.984707
-0.262381 -0.49171 -0.983128
-0.75276 -0.498551 -0.396888
-0.723905 0.672442 0.935877
0.595059 0.0732425 -0.903413
-0.698744 -0.298294 0.616386
-0.930667 -0.416511 0.436085
-0.479014 -0.407222 -0.776165
0.265403 -0.729334 -0.586618
-0.36684 -0.291341 0.291369
0.770409 -0.125643 -0.130821
-0.106253 0.378096 -0.197499
0.116256 -0.356795 0.224139
0.840782 -0.378784 -0.746038
0.111942 -0.0361107 -0.933176
-0.454368 0.0355521 0.237619
-0.859623 -0.340597 -0.389131
0.266859 0.0565467 0.219534
-0.595741 0.397008 0.734373
0.146364 -0.679319 -0.775729
-0.575307 -0.223756 -0.981907
-0.282697 -0.560768 -0.530111
0.585241 0.175713 -0.787212
-0.433667 0.137892 -0.604813
-0.372556 0.117554 0.178185
-0.620278 -0.344577 -0.970226
-0.551328 -0.565265 -0.459962
-0.808601 -0.441537 -0.0139825
-0.193609 -0.0623766 0.635803
0.65193 -0.395868 -0.0319973
0.017171 -0.35319 -0.93583
-0.419542 0.209006 -0.925619
0.183989 -0.530654 -0.988216
0.35728 -0.679903 -0.654703
-0.787652 -0.0709446 -0.504286
-0.902287 -0.476555 0.462356
0.27511 -0.351254 -0.938942
0.477808 -0.538289 -0.87759
-0.323604 -0.525881 -0.0105053
0.473321 -0.635146 -0.572909
-0.943741 -0.245825 0.520158
-0.567106 -0.021761 0.543653
-0.340233 0.276045 -0.239322
-0.771394 0.62833 0.914252
0.892865 -0.150842 -0.501558
0.0601018 -0.491447 0.107208
0.0182385 -0.563454 -0.0715173
-0.76137 0.308996 0.775205
-0.774651 -0.338554 -0.509666
-0.297712 -0.561759 -0.908695
-0.590099 -0.544748 0.480887
0.587472 -0.133135 -0.994689
0.11532 0.452608 -0.573142
-0.554851 0.226687 -0.387807
0.871857 -0.264839 -0.528131
0.23588 -0.706268 -0.691598
-0.486264 -0.614192 -0.253767
-0.307436 0.277333 -0.190299
-0.490378 -0.00881081 0.522573
-0.252443 0.299444 -0.393352
-0.559196 0.0399621 -0.984387
-0.118057 -0.66655 -0.366416
-0.725356 -0.317527 -0.557332
-0.682503 -0.285004 -0.608753
-0.844168 -0.452557 -0.153357
0.00838377 -0.590781 -0.986006
-0.030323 0.145523 0.113305
0.180905 -0.612187 -0.977275
-0.167931 0.320003 -0.793307
-0.0133248 -0.252866 0.221709
-0.586783 0.331819 0.701275
0.520983 0.0473391 0.134719
-0.858385 -0.0238727 -0.0271552
0.141788 -0.63995 -0.14362
-0.516125 -0.178445 -0.985636
-0.535353 -0.00301838 0.461917
-0.741885 0.00232276 0.620607
-0.519457 -0.529735 -0.0073236
0.511906 -0.644197 -0.378641
-0.163724 -0.546508 -0.442738
-0.917578 -0.0969305 0.0831776
0.111834 -0.29608 0.244549
-0.747732 0.516417 0.780773
0.242447 0.317146 -0.897887
-0.2082 -0.6576 -0.9663
0.811456 -0.131399 -0.385939
-0.964366 -0.442941 0.178781
-0.200085 0.142092 0.643708
-0.89545 -0.608842 0.327854
-0.610987 -0.314973 -0.625094
-0.0811566 0.192601 0.705674
0.193486 -0.747733 -0.340684
-0.713176 0.407396 0.826949
0.598747 -0.423498 0.0218764
-0.351379 0.0607951 -0.977735
0.722034 -0.381261 -0.698233
-0.376817 -0.522131 -0.781019
-0.458714 0.142792 -0.977809
0.61914 -0.11938 0.103088
-0.592477 0.267137 0.693412
-0.27349 -0.314668 -0.973496
-0.0518737 -0.60047 -0.181955
0.0790053 0.0792198 0.195286
-0.85154 -0.293243 -0.424835
-0.150999 0.0641265 0.731769
-0.107194 -0.566957 -0.555599
-0.0582395 0.0862562 0.700738
-0.138655 -0.665894 -0.981786
-0.399177 -0.270091 0.35027
0.742788 0.112636 -0.765239
-0.955312 -0.44009 0.258985
0.349105 -0.593322 -0.108765
0.714118 0.0789261 -0.682258
0.778919 -0.342463 -0.392362
-0.00261396 -0.643798 -0.17867
-0.685025 0.627347 0.712337
-0.734086 0.156148 -0.150575
-0.292483 -0.0497779 -0.979779
0.0110414 -0.67689 -0.894941
-0.945936 -0.204839 -0.238487
0.767564 0.0414754 -0.51334
-0.558161 0.19709 -0.457108
-0.337332 -0.511221 -0.980366
-0.747293 0.321758 0.655564
0.446554 -0.661918 -0.517172
-0.717532 0.531235 0.564585
-0.54636 -0.616647 -0.209272
-0.647898 -0.520107 -0.954585
-0.320411 0.347157 -0.982433
0.486093 -0.318837 -0.988986
-0.613315 0.218313 -0.348959
-0.152539 -0.0954371 0.201592
0.0265208 0.327264 0.891842
-0.278686 0.291192 -0.273457
-0.529921 0.210652 -0.0538022
-0.0734884 0.143353 0.644908
0.479771 0.0168085 -0.982708
0.521079 -0.618452 -0.522853
0.159815 -0.577352 -0.116632
-0.277008 -0.435331 0.0990935
-0.0206057 -0.327528 0.190041
0.334959 -0.539747 -0.0621619
-0.196282 0.373162 -0.279963
-0.159043 0.156029 0.101743
-0.175378 -0.561615 -0.780209
-0.300848 -0.481565 0.03996
-0.37747 -0.0793711 0.728885
-0.212001 -0.536691 -0.981622
-0.214965 0.273314 -0.0997925
-0.0271059 0.503112 -0.359339
-0.54404 -0.0515715 -0.726233
-0.795654 0.585962 0.883824
0.106964 -0.461278 0.150869
-0.370747 0.206398 -0.497926
0.908581 0.0292111 -0.630558
-0.454851 0.255592 -0.210423
0.044457 -0.222606 -0.939074
-0.813575 -0.358264 -0.451834
0.526499 -0.290366 0.172647
-0.902183 -0.208436 0.56156
-0.150912 0.323317 -0.988464
0.182665 0.285383 -0.0605711
0.542799 -0.257887 -0.986499
0.303843 -0.542022 -0.0019345
-0.408623 -0.493301 -0.731167
0.115845 0.275386 0.00315514
0.130352 -0.0322003 0.246679
0.137293 0.465024 -0.477873
-0.628061 0.434829 0.558692
-0.810035 -0.45971 -0.0897457
-0.370544 0.126088 -0.722522
-0.205112 -0.212291 0.220269
-0.0197589 0.467554 -0.245187
-0.663273 -0.351983 -0.586118
0.582125 -0.059783 -0.989218
0.527568 -0.621847 -0.306444
-0.827794 0.0215725 0.176125
-0.61954 0.678599 0.659271
-0.626587 0.168312 -0.46984
-0.430477 0.169601 -0.979469
0.0439686 -0.126421 0.241914
0.790734 -0.0183316 -0.23612
0.104442 0.268372 0.735238
-0.548682 -0.0313478 -0.984316
-0.0384657 0.152484 0.973706
0.262229 -0.0853442 -0.993963
-0.755336 -0.496164 0.553338
0.0326431 -0.194242 0.241782
-0.372131 -0.201913 -0.965552
-0.602204 0.24247 0.511759
-0.701318 -0.551594 -0.365652
-0.262634 0.388798 -0.958309
0.164896 0.478959 -0.340064
0.779688 0.0460837 -0.43935
-0.567599 0.0601772 -0.843881
-0.467116 -0.289284 -0.692151
-0.520381 0.0283906 0.400306
-0.338717 0.0913903 0.628714
0.715206 -0.421255 -0.637717
0.216023 0.456833 -0.477781
0.485853 -0.659482 -0.470882
0.211848 0.301851 -0.139087
-0.798895 0.342045 0.720201
-0.00332996 -0.456627 0.121618
0.180617 0.195876 0.0938621
0.709981 -0.178115 -0.0147831
-0.559224 -0.515865 -0.516871
0.0680792 -0.246078 0.244717
-0.22543 -0.0689083 -0.955547
-0.515015 -0.52638 0.280161
-0.0634178 -0.590699 -0.773491
-0.667352 -0.185039 -0.891348
-0.58039 0.10293 0.532758
-0.926682 -0.227069 -0.0647196
0.85207 -0.318447 -0.571646
-0.104768 0.367741 -0.893593
-0.148654 -0.532525 -0.509448
-0.454762 0.224908 -0.0399474
-0.971251 -0.34181 0.103291
0.905089 0.00132089 -0.569645
0.790919 -0.394054 -0.709076
0.146958 -0.236736 0.258424
-0.0115323 0.251436 -0.984338
-0.727764 -0.529631 -0.015047
0.115048 0.290957 -0.0676664
0.206974 -0.375178 -0.933919
-0.725039 0.453004 0.677624
0.293616 -0.47243 0.12378
-0.765674 0.139636 0.677226
-0.295174 -0.561829 -0.971633
0.983469 -0.104598 -0.704512
0.740301 -0.390845 -0.838493
0.251172 0.406588 -0.663997
-0.431061 -0.597581 -0.38398
0.0805211 -0.375348 -0.935525
0.0111119 -0.753687 -0.395662
-0.605462 -0.681363 0.191812
0.145248 -0.730428 -0.634536
0.0441772 -0.740941 -0.4566
-0.559979 -0.118141 -0.794968
0.107053 -0.722334 -0.558388
0.216041 -0.30078 -0.940907
-0.504182 0.0647207 0.195446
0.0610588 0.4682 -0.2542
0.479133 0.228904 -0.858798
0.797191 -0.277899 -0.889805
0.215571 0.383414 -0.81254
-0.666832 0.496353 0.5467
0.610802 -0.45537 -0.0391893
0.448145 -0.397177 -0.991806
-0.605422 0.0301531 -0.596641
0.330853 -0.336081 -0.98855
0.599871 -0.205665 -0.98446
-0.238537 0.127181 -0.758004
-0.920324 -0.481183 0.392635
-0.11327 0.314042 -0.176031
-0.39824 0.102978 -0.984397
0.166866 0.44576 -0.537814
-0.866779 -0.400822 -0.344576
0.738674 -0.107888 -0.0602514
0.528583 -0.574723 -0.153412
-0.272139 -0.183879 0.238862
-0.700309 0.620754 0.80067
-0.491654 -0.581643 -0.433039
0.236974 -0.590062 -0.982919
0.313782 0.0936095 -0.987753
-0.342573 0.143025 -0.979621
0.0536546 0.461185 -0.60804
0.152737 -0.108882 -0.94053
-0.465234 0.00350597 0.608892
-0.377535 0.140102 -0.649893
-0.585126 -0.493327 -0.975414
0.529111 -0.581012 -0.654532
0.338086 -0.726396 -0.467143
0.274831 -0.298329 -0.983599
0.786166 0.03851 -0.291499
-0.685379 0.420981 0.521596
-0.957531 -0.130932 0.134101
-0.775329 -0.119927 -0.54367
0.767054 0.0830233 -0.351419
-0.209038 -0.294388 -0.982644
0.231075 -0.732872 -0.279023
-0.426245 0.100957 -0.758383
0.956912 -0.184301 -0.527648
-0.592181 0.0717958 0.287656
-0.727734 0.388949 0.634249
-0.0372102 0.270457 0.890995
-0.765086 0.255112 0.742632
-0.300107 0.124083 -0.758157
-0.776358 -0.0388615 0.572278
0.234577 -0.0209539 -0.987953
0.756216 -0.385507 -0.328958
-0.142137 0.292616 -0.104308
-0.340921 0.0537762 0.553728
-0.639543 0.149483 -0.0164495
0.535429 0.30808 -0.657693
0.364287 -0.170644 0.259056
-0.193861 -0.219527 -0.982764
-0.108674 -0.543363 -0.757782
-0.417104 -0.252377 0.410563
0.958858 -0.119379 -0.769371
0.383599 0.10758 -0.991831
0.86086 -0.0266291 -0.853395
-0.160976 -0.701685 -0.947608
-0.222565 0.351539 -0.83411
-0.469707 0.254374 -0.291829
0.786785 -0.170793 -0.18572
0.0921599 -0.163581 -0.937705
-0.157971 -0.486263 -0.739216
0.547423 -0.619767 -0.440635
-0.170423 0.32701 -0.709291
-0.416231 -0.329512 -0.979856
0.619819 0.255669 -0.268016
-0.135015 -0.609678 -0.409151
-0.678114 -0.113615 -0.978478
-0.929208 -0.569837 0.279251
0.517715 -0.107734 -0.998896
-0.614985 -0.601665 0.374228
-0.257107 0.256471 -0.456772
-0.0709716 -0.724825 -0.386948
0.280738 0.403402 -0.72161
0.265049 -0.733281 -0.469598
-0.824223 -0.0254694 0.0384159
-0.744046 0.14032 -0.391666
0.472344 -0.468585 0.0589963
