1.49077 5.65285 0.426123
-3.16366 5.91336 -1.0223
-2.76316 5.37238 -1.35697
0.691656 5.65424 -5.29325
0.659017 7.044 -4.61395
2.36403 5.03125 -0.882481
-1.27314 6.82706 -2.94021
-2.22245 6.96914 -3.16449
-2.87578 6.23182 -0.890567
-2.59369 4.98172 -2.63244
0.68716 6.77507 -5.15233
-0.023487 6.11842 -3.42351
-2.96186 5.47316 -2.13507
0.640458 5.01668 -0.284967
-0.521616 6.54815 -5.30556
-2.26391 6.54754 -0.356787
0.733244 6.40087 -2.81453
3.11407 6.42936 -1.74147
-2.94701 6.59206 -2.88943
-1.94634 4.84095 -4.15952
1.47038 5.26263 -1.89522
-2.28739 5.26871 -0.596257
1.20915 6.38225 -2.13006
-0.0835215 5.46496 -5.33628
0.0482753 5.91589 -1.03569
1.27807 5.27498 -5.16205
-2.79916 6.7202 -2.49704
0.472201 7.0163 -0.575272
-2.9187 5.45629 -1.71074
-1.30321 7.14548 -0.282402
0.91034 5.97335 -2.77506
0.732187 5.84967 0.770025
1.39434 6.39654 -4.92195
2.10801 5.78822 0.0158504
0.188285 6.92994 -5.23766
1.60141 5.09873 -1.54312
1.79012 7.18099 -4.20176
-1.14573 5.13429 -3.36268
-1.53125 6.02708 -4.94822
1.18585 4.78756 -3.42505
-0.768884 5.30793 -3.0176
-1.30259 6.52831 -2.56453
-1.43906 6.53146 0.370767
-3.33259 6.22393 -2.11971
-2.72793 6.11333 -0.529515
-1.82971 4.69209 -1.40116
0.228505 6.4686 0.840014
2.39711 6.53292 0.0337852
-2.51665 5.06984 -3.37291
-1.09764 6.82454 0.4585
-0.781142 6.88701 -5.19333
0.0759998 6.37589 -1.05252
1.08034 6.53877 -2.77607
-1.48309 6.72016 -2.2514
0.556934 5.04842 0.713096
-0.207237 5.01696 -3.92434
2.17528 4.70227 -2.08963
1.57997 6.98351 -0.544355
0.885069 5.94883 -2.28814
-1.91065 5.08879 -0.576512
2.48117 5.17165 -3.21474
1.48355 7.05652 -3.73496
0.0990461 5.73115 -3.4349
-0.400517 6.49686 -3.39365
-2.15221 6.16165 -4.55614
1.39254 5.04254 -4.17492
-1.04678 5.47127 -1.39253
-1.21145 7.03191 -3.86504
-2.28407 6.85506 -3.5626
-2.21655 5.08515 -0.972776
-0.116465 6.99085 -4.02803
-2.62401 6.60864 -1.00654
2.35255 5.50734 -4.57442
1.07176 5.05315 -4.41007
1.86044 7.28237 -1.71
1.29354 6.95958 -0.241521
-0.128785 6.11431 0.855313
2.27506 6.91628 -1.14899
1.496 5.27636 -2.32713
-1.38798 5.12829 -1.47854
2.68812 6.48278 -0.285964
-1.57058 5.04717 -3.26668
0.733285 5.10115 -0.802271
-1.32086 5.23526 0.405454
-2.06401 4.68249 -1.74406
2.29328 5.15306 -3.53879
0.282579 5.01917 0.367474
1.26124 7.08896 -0.746166
-1.52292 4.72448 -1.19544
-0.820143 5.51517 -2.76451
1.02723 6.55971 -5.05991
0.649876 6.98532 -4.17621
2.58623 5.34031 -0.967542
2.6555 5.62607 -4.28244
-0.444812 6.57421 -1.32006
1.75369 5.78697 -4.91125
-0.721776 5.12422 -3.44948
-2.54309 5.29545 -0.999981
1.01699 6.82104 0.728254
2.93568 6.54496 -1.36338
-1.94616 7.2983 -2.4243
-0.194978 5.18294 0.876163
-1.21898 5.24108 -2.9918
-0.335677 5.74803 -1.05442
-1.65116 5.89145 0.500047
-0.553296 5.24395 0.879413
-2.74932 5.73954 -0.293257
1.01122 6.70506 -3.1462
-0.267834 5.83211 -5.32285
2.07736 7.28925 -2.01629
2.65811 6.7533 -3.07666
3.13096 6.40051 -2.17692
-1.08081 6.13296 -2.50551
2.82908 5.44835 -3.34435
1.40312 7.117 -4.14318
-3.13044 6.45844 -2.49871
-0.505897 5.26734 -3.2298
1.786 7.12574 -3.41827
-0.254909 6.2288 -1.12388
-0.923652 5.13255 0.323268
-0.680494 6.89148 -0.674764
-0.834566 5.89452 -1.48987
1.15845 5.31888 -1.54352
-2.44027 6.62403 -4.35787
2.10204 4.69713 -2.49432
-2.73592 6.52657 -4.05329
-2.46578 6.14864 -0.250468
-1.34901 5.1339 0.0335687
0.652586 6.90417 -3.77668
2.1455 5.18967 -3.89633
0.259854 6.98575 -4.2768
1.76337 5.09065 -4.03515
3.14196 6.31166 -1.01073
0.181291 4.99144 -4.08135
-1.40348 7.12005 -3.45572
-2.98069 6.55657 -2.09517
1.90168 7.23249 -3.85847
-0.119846 5.0629 0.467181
-1.45503 4.9279 -4.20389
2.13355 6.94243 -3.97286
2.41188 6.22395 -4.1864
1.79866 4.92486 -0.0935141
-0.13453 6.96184 -3.50032
2.93414 6.36814 -0.599915
1.8041 5.00098 -2.00947
1.66055 7.09052 -0.948042
2.81908 6.68368 -1.83168
2.92485 5.48154 -1.74362
1.40656 6.77963 -2.90973
0.56008 5.16756 -5.30396
0.508604 7.03139 -5.06517
0.511309 5.46087 -3.41129
-1.73581 7.26871 -2.74535
2.45054 7.05808 -2.89311
2.86998 5.64005 -3.97692
0.870969 5.11535 -4.92001
-2.04705 7.31196 -1.99544
-3.05907 6.40534 -1.69704
-1.87423 7.01678 -3.47964
1.43343 5.63135 -5.09891
-2.60528 5.02441 -2.21347
0.671625 6.13196 -3.09689
-0.885478 5.71142 -2.4718
0.935074 5.20786 -1.16277
1.61346 6.8483 0.0414159
1.37412 6.02736 -5.02992
1.81747 4.91137 -1.17661
-0.125235 6.78124 -1.10359
1.00705 5.01342 -0.458034
-2.4534 6.97181 -2.52178
2.45302 7.00689 -1.97871
1.58188 5.00034 -2.79224
-1.42084 5.00818 -0.379825
0.625019 5.36371 -1.41439
-0.202475 6.59418 0.799286
-1.17939 6.35399 -2.1296
1.28448 5.15865 -4.75776
-0.542962 4.98557 -4.73971
1.09512 6.39711 -1.57894
2.91355 6.47913 -2.95437
-1.63454 6.86733 -4.54265
2.3864 5.71659 -0.3112
0.240583 6.93705 -3.80129
-1.99368 6.88936 -3.88644
0.71836 6.56344 0.805216
2.71397 6.00128 -3.99815
-1.96562 6.91493 -0.306192
-1.88181 4.889 -1.00311
-1.77947 6.27899 0.261932
0.546316 6.90683 0.779078
0.68501 6.78916 -3.40866
-0.21152 6.22587 -5.32735
-3.16913 5.73068 -1.78549
1.17242 5.63126 -2.39266
2.14978 5.05714 -0.454559
2.37993 5.36828 -0.555088
0.251864 7.01344 -4.72287
1.0344 7.07038 -4.37897
1.12448 5.79607 0.634097
2.02873 6.74563 -0.0244183
0.779562 6.31737 -1.26103
-2.17814 4.89457 -1.36208
-2.88936 5.57023 -0.999662
2.96285 6.53055 -2.52673
1.64747 5.19397 -4.53457
-1.5238 6.92921 -2.63215
-1.59883 7.00302 -3.78314
0.176712 5.13112 0.832013
-2.66041 6.67272 -3.64787
3.02293 5.54628 -2.95828
-2.7169 6.13465 -3.96163
1.82465 5.43706 0.122223
0.278486 5.01147 -0.0698162
1.53895 5.2231 0.278435
1.95562 4.87704 -1.62436
2.91109 6.12015 -3.5897
0.948761 6.14473 -5.1666
-2.5272 6.48053 -0.649774
2.83325 5.66733 -1.05958
-0.254664 5.08902 -3.44226
1.38563 5.10674 -1.1804
0.267014 5.95212 0.853925
3.20766 5.7956 -3.34385
1.68556 6.72719 0.477306
-1.22878 7.17989 0.167914
0.860586 5.19674 -3.35068
-2.98537 6.42777 -3.69551
-1.73237 7.04361 -2.2387
1.60196 6.84551 -2.56474
-0.85491 7.00401 -4.15997
-0.578962 5.02751 0.0113451
0.653081 4.99064 -4.21936
0.374551 5.63003 -1.14401
1.0819 5.39374 -3.0849
2.90963 5.99872 -0.815597
0.984446 7.13867 -1.05364
2.08967 5.3594 -0.175611
-0.980193 5.05852 -3.7449
1.67159 5.33364 -4.99475
-0.476786 7.02451 -3.88102
0.436291 5.91035 -3.34525
2.56321 6.83898 -1.54899
-2.71583 6.66916 -1.37808
-2.14759 7.10968 -2.77318
0.316076 5.53718 -5.34037
-0.0272893 6.54233 -3.41811
2.08857 6.21102 0.19604
1.79321 4.94364 -2.42301
-1.91011 4.93961 -2.92068
2.30008 4.72533 -1.62681
-1.40759 6.43854 -5.06141
0.684333 5.04882 -4.60055
-1.56176 4.88772 -0.750717
0.258292 5.01692 -4.50781
1.75508 6.2026 -4.76831
-3.36895 6.1447 -2.50832
2.7982 6.56358 -0.865098
0.106981 4.99373 -3.59567
2.02227 5.422 -4.81455
-1.44572 6.89538 0.209762
0.416264 5.17846 -1.15354
1.78238 7.05302 -2.16715
2.3014 4.93619 -2.85476
0.804525 5.70483 -3.17471
-0.198016 7.0273 0.692245
-0.0997966 6.64064 -5.31798
-2.04237 6.46944 -0.0569567
-0.490058 6.9714 -4.81175
-1.34808 6.18253 0.544875
1.17496 5.51009 -1.9884
-2.37436 6.74546 -3.9785
0.582476 6.21294 0.815583
0.92809 5.26267 -5.27338
-1.3814 5.0051 -3.74891
-0.699451 5.61501 -1.17279
-2.59505 6.76807 -3.24108
0.0895338 6.96214 -0.556785
0.395061 6.53894 -1.05404
0.107853 5.05534 -0.981246
3.14097 5.63891 -2.52174
-1.36032 6.90727 -1.12601
2.4657 4.89135 -1.97356
-0.659682 6.74913 0.666199
1.04156 6.13571 -1.93679
2.28755 6.72254 -0.373369
-1.88871 5.43525 -4.56708
0.683145 4.98103 0.19005
-0.667738 6.14311 -5.27268
0.78977 5.54197 -1.69372
-2.28662 4.78677 -3.53341
1.455 4.90452 -3.71862
-2.0749 5.2146 -4.28978
-3.10488 5.70244 -2.49816
2.19108 7.29446 -2.7738
1.06104 4.9483 -0.0428553
-2.41893 7.01311 -1.42783
-0.523128 5.10506 0.459518
-1.22936 6.96101 -4.30491
0.016629 5.59621 0.886555
2.40282 6.11553 -0.10552
-2.35234 4.70773 -2.43946
1.19921 5.34935 0.526793
1.72142 6.3242 0.454734
-3.25522 5.85396 -2.16113
-1.01629 4.96902 -4.99209
0.14869 5.0998 -5.29724
-2.98559 5.8103 -0.649728
-2.91681 6.04579 -3.59695
-1.7157 5.15605 -0.204871
-2.77461 5.68441 -3.5184
-2.23482 6.87009 -0.653764
-2.83212 5.31547 -2.50573
-1.15597 6.11997 -5.13144
-1.01243 7.11591 -3.30833
1.58172 4.73636 -3.21184
0.895457 6.00154 -1.5852
-0.951919 6.65826 -1.31173
-2.70546 5.20137 -1.86284
-0.866556 7.07 -3.69336
1.88852 7.10461 -2.59024
-2.93113 6.56821 -3.29305
2.67583 5.23759 -2.88206
-1.87053 5.88637 -4.70367
-0.266269 6.89507 -0.701298
1.5846 6.98244 -1.78014
3.1888 6.24437 -2.68242
-2.53717 5.35694 -3.67064
-0.351853 6.92096 -5.2447
1.08442 6.88368 -3.55574
2.08205 4.76603 -0.790752
0.531783 6.04283 -5.28197
-1.59479 5.60685 -4.83865
-0.505865 6.99455 -4.34979
2.61651 6.72693 -1.16047
-0.345168 4.955 -0.394218
0.421731 5.50529 0.828235
0.903612 5.00109 0.570668
-1.22907 4.74601 -0.972048
-1.0033 6.46108 0.6101
-1.74982 4.9085 -3.74282
3.4079 6.05171 -2.23907
-3.06984 5.66264 -1.37278
-3.17811 6.29589 -3.29955
2.76456 6.75382 -2.22093
0.854837 5.76338 -1.96913
2.46752 4.96546 -2.46149
-0.87238 4.80633 -0.880418
-0.179922 5.00574 -4.39885
2.26397 6.57361 -4.1032
-1.75217 6.73171 0.0458004
-1.62352 5.21302 -4.73417
2.59341 6.38568 -3.80835
1.36644 6.68658 0.654151
1.42696 4.91594 -0.367273
-0.419144 6.03755 -3.34854
-2.02812 6.80611 -4.3141
-2.41222 5.45658 -0.248391
-0.647275 5.01117 -5.15507
-1.73716 7.01479 -1.81305
-0.873457 7.13423 0.40556
3.06695 6.18729 -3.1789
-0.737065 4.92261 -0.428015
0.928661 7.04946 -4.95264
0.793253 6.93766 0.415137
0.642449 7.07764 -0.936629
-2.28398 7.14254 -2.25038
-0.609713 5.72611 -5.26687
1.02986 4.93053 -3.93275
-2.41112 5.90611 -4.21282
-1.28553 5.27607 -4.97253
0.671723 5.81629 -1.34833
1.87636 4.70857 -2.86041
2.14454 7.3017 -2.3696
-1.02147 6.85822 -0.917497
0.956149 6.95716 4.93316e-05
-1.39621 7.0669 -0.694209
-0.193109 6.97995 -0.218741
2.02864 6.61922 0.316661
-2.01614 5.89612 0.285906
-1.02637 5.76009 -1.78966
1.93945 7.1064 -1.24961
0.327846 6.33286 -3.31817
-1.00837 7.00178 -0.48911
2.63451 5.68662 -0.673929
0.827818 5.42236 0.704852
-1.55355 6.777 -4.97532
0.230971 6.94701 -0.975378
-1.00079 4.96077 -4.54205
-1.19016 5.40544 -2.60812
-1.25312 6.90923 -4.71994
0.462615 4.9894 -3.52442
1.06429 5.72289 -5.20253
-2.09908 7.31474 -1.58934
1.42562 6.91392 -3.29757
-2.60502 5.74794 -3.86976
1.93154 6.78432 -4.34823
0.554672 6.60572 -3.08545
1.48999 4.87628 0.0932874
-1.81839 6.32301 -4.83172
1.54725 7.11913 -4.51952
3.38942 5.95146 -2.58876
-1.16287 6.82801 -5.12382
1.88258 4.80216 -0.430961
1.31087 6.90386 -1.45445
1.28834 6.54794 -2.47673
1.50417 6.7369 -2.15568
-0.366385 5.62472 0.891937
-0.281475 5.60514 -3.36986
-0.146686 5.02005 0.0387073
-0.705181 6.71693 -3.32262
-0.579969 6.98089 -0.311818
-1.08217 6.36223 -2.8855
2.21676 7.08051 -1.59658
-1.69592 4.91941 -1.65642
2.61973 5.39009 -3.72093
-3.35566 6.06862 -1.76966
-0.780251 5.21179 -1.04685
-2.011 4.88029 -2.52429
1.62076 4.92919 -0.788105
-1.23044 5.37419 0.761129
3.05484 5.71902 -3.68104
-1.14193 5.60089 -2.17321
1.40893 6.13057 0.565868
-3.17923 5.93179 -2.83604
-2.9928 6.32199 -1.27926
2.8214 5.31724 -2.54045
2.22439 4.73706 -1.20197
-0.48104 5.37447 -5.27847
1.86289 6.86534 -0.35144
-1.72494 7.06571 -1.39357
-0.588656 6.76036 -1.03028
-2.65999 5.4929 -0.633427
-1.56724 5.17439 -1.92601
-1.42772 6.69281 -1.8873
0.0428438 4.9941 -0.429662
-1.41314 5.34462 -2.27535
-2.06151 5.3115 -0.147166
2.65823 5.14141 -1.70782
-1.88377 6.71943 -4.80496
-2.20482 6.0991 0.0345591
-1.38287 6.77878 -1.50715
-0.0984612 7.02426 0.241413
-3.28643 6.00081 -1.40614
0.379932 5.0563 -4.92694
-2.62894 6.86775 -2.13316
2.1444 7.21784 -3.57594
1.20372 4.93738 0.367085
2.51346 5.0317 -1.33431
0.105512 5.33701 -3.45749
2.94806 5.44615 -2.14965
-1.9534 4.87791 -3.33695
-0.945333 6.47356 -5.22412
-1.63037 6.92515 -4.15556
0.438253 6.09051 -1.11651
-1.91792 5.51625 0.454116
-1.74801 4.91024 -4.48949
1.28761 5.055 -3.11789
2.69164 5.15686 -2.14901
2.03265 5.27278 -4.35849
-1.0792 6.4868 -1.7018
1.33523 6.62983 -1.78534
2.72376 6.50892 -3.40788
1.04616 6.28206 0.718455
-2.34126 5.48715 -4.085
-0.657978 5.73392 -3.1522
2.06444 6.33232 -4.47095
2.02858 6.91695 -0.765783
3.38088 6.12425 -1.8291
1.34962 5.33825 -2.72301
0.925001 7.04307 -0.531734
-0.664602 6.38027 -1.57109
0.156035 6.92392 0.791536
0.136832 5.93019 -5.33173
1.59839 7.25011 -1.42064
2.40744 6.76929 -3.68939
-0.884942 5.94295 -2.16282
-2.41046 4.91518 -1.79617
-2.35435 4.74463 -3.14067
1.85271 4.96571 -3.58407
2.78795 5.42451 -1.36081
0.259713 6.99829 0.439653
3.12819 5.8027 -1.59045
3.29081 6.21649 -1.41073
2.38366 5.91874 -4.40835
-1.28163 5.43943 -1.78612
-0.83111 5.64505 0.838689
-3.01677 5.87371 -3.20367
2.41484 5.37751 -4.12308
-0.0897069 6.99198 -4.93594
2.05288 4.91259 -3.21742
-1.60144 7.18212 -0.110329
0.0166246 5.46368 -1.00994
0.261253 6.81851 -3.35597
-2.55936 6.84734 -2.86848
1.0914 5.66278 -2.79748
-1.39175 4.91926 -4.73363
1.20296 5.05526 -0.803714
-1.82579 7.14352 -3.11673
-1.77439 7.26137 -0.475434
-1.01143 5.02624 -0.127959
2.07688 5.88359 -4.67421
-0.815411 6.16762 -1.86313
-0.899021 7.08904 -0.0547124
2.16202 7.28022 -3.17708
-0.581628 5.04332 -3.84766
-0.251775 5.04279 -5.23987
-2.12313 4.79955 -3.83448
-0.561166 6.35467 0.768269
-1.70581 5.1052 -2.37149
2.67546 6.05875 -0.435357
-0.377942 5.30132 -0.968264
-0.527689 4.86286 -0.822927
0.498708 6.97843 0.155266
1.33595 6.78937 -4.839
3.072 5.91971 -1.22024
0.371716 5.04248 -0.632966
1.69017 6.64173 -4.64178
-1.56637 5.15528 -2.76405
1.78094 7.04802 -2.99074
1.25528 6.88048 0.293982
-2.3484 6.95993 -1.0314
-2.25224 4.69088 -2.11518
-1.73496 5.29446 0.192698
-2.66112 5.14234 -2.96468
-0.520172 7.08757 0.56683
-2.48109 5.72093 0.00835687
-1.89588 4.90393 -2.0755
1.7855 5.89453 0.304444
1.02549 6.7194 -1.29087
3.32722 5.88919 -2.96675
-2.00491 7.25576 -0.792381
-0.872488 6.95492 -4.67354
0.582341 6.4585 -5.22732
0.836422 4.84682 -3.55052
-2.46553 6.2717 -4.31156
-2.18186 6.60861 -4.62593
-1.13958 5.07187 -1.18381
-1.12502 4.88219 -0.577078
0.88782 6.22026 -2.48058
-0.934758 6.06576 0.730752
2.46295 7.05878 -2.42089
0.204441 6.98779 -0.12433
-1.25911 5.68017 -5.04086
0.546637 4.93397 -3.86568
-1.59381 5.44794 0.625314
-2.49829 5.12019 -1.42444
-2.30425 5.10609 -3.89306
3.19568 5.75185 -2.041
-0.599443 5.00332 -4.28489
-2.75709 5.43685 -3.24268
-0.532972 5.96385 0.835325
2.45097 6.72613 -0.728999
-0.566675 6.07049 -1.27557
0.693406 6.74794 -1.0952
-0.0798448 5.01445 -4.84712
1.31458 7.20979 -1.18678
0.633253 6.99512 -0.224405
-0.503736 7.05517 0.123312
-3.28715 6.29892 -2.91935
-1.02921 4.9968 -4.12692
-1.69465 7.14271 -0.974211
-2.14236 5.70618 -4.41503
1.2172 7.11617 -4.72485
-0.184977 4.94047 -0.847308
1.05617 6.9894 -3.94928
-0.998839 6.67111 -3.13769
-0.126646 6.99297 -4.489
-2.3959 7.08109 -1.8291
-2.34484 4.71607 -2.81839
2.70013 6.79887 -2.66185
-0.530035 7.02364 -3.45912
-0.91257 5.94422 -2.87292
-0.935096 5.8056 -5.18334
-0.767756 6.24591 -3.18886
-1.2608 5.78019 0.698319
2.42672 6.96004 -3.33316
-1.42079 7.20667 -3.06333
-0.905266 5.37149 -5.15789
0.209274 6.40019 -5.30296
-2.21888 5.53911 0.218008
-2.07575 7.30169 -1.19707
-2.92965 5.54753 -2.87227
-2.72612 6.75109 -1.75443
-0.895954 5.25274 0.785221
