4.29237 5.07511 -5.45757
3.89976 6.52437 -19
-4.56432 1.64743 -5.77389
-4.51896 -9.99964 5.0345
1.32189 9.80566 -5.97857
5.55889 5.9087 -13.4789
11.7994 5.37668 -5.96257
-2.549 5.4846 17.4286
6.48099 -9.99948 9.73425
-8.19955 -1.19292 8.01867
-6.36209 6.18227 -9.9994
-6.1358 8.02312 9.99946
2.58222 5.25393 5.94675
-4.19585 7.98898 -0.0421045
7.83217 3.54595 -11.9128
11.7994 2.13692 -7.82401
-8.04091 -9.99945 -5.68273
-2.41476 6.33023 -4.28936
-5.06373 -1.38099 17.477
2.51315 -5.03847 19
11.7995 -6.14499 -4.42528
-6.62589 0.744306 -5.97798
5.65965 6.06878 -4.60418
1.37821 -9.72223 -9.99953
6.49659 9.83507 -3.72727
-8.19942 -6.54897 9.831
5.45249 -9.78653 -4.76918
11.7995 6.18222 -0.634082
-8.19954 -3.386 5.18385
1.6546 -6.33413 -6.00228
-0.829178 6.48581 -17.0135
-8.1995 8.07721 1.48589
7.77568 4.02985 -10.0002
7.72787 -9.99939 -9.80945
7.23871 2.66572 5.37358
11.7995 6.57504 4.34466
1.58614 0.397831 19
-4.30301 -8.3659 9.99952
10.1385 5.60384 9.99943
7.34846 4.27493 18.8342
-2.2798 9.99933 4.81657
-4.06657 -8.0816 1.26284
4.74344 -6.35188 15.2249
8.49459 2.11638 15.3959
4.71071 -3.57017 5.27651
11.7994 -0.0608724 6.21042
5.58489 5.60185 -18.9999
3.52099 -6.79275 -10.2987
3.57389 -5.44638 5.7618
-8.19951 3.0453 -9.69049
7.82201 -3.56679 -17.2458
-8.19954 -7.99679 -2.35807
9.72896 -9.99957 -1.09918
2.25078 6.7906 18.9994
7.93961 3.07407 -19.0001
-1.23254 7.95662 5.17846
6.83085 -4.88554 -16.7603
-6.2851 -7.7948 9.99939
1.66676 2.38528 19
-8.19956 9.78956 -5.91799
11.7994 7.16609 -6.0553
2.81765 1.00669 -5.91773
1.67194 -8.23373 5.99786
-8.19966 -1.11702 -6.15415
11.429 -9.74749 -9.99905
-3.83528 -8.01163 -9.99949
4.30953 -6.54432 -16.2092
11.7996 -1.41116 9.78008
-3.13896 7.94511 -3.40242
-8.19951 5.98073 -7.74886
-0.903685 -6.4541 -14.4001
9.92228 -2.09736 -5.63488
7.61849 5.62767 -2.07139
7.88202 5.87714 1.25312
11.7995 -7.42878 2.94893
11.4797 9.99956 9.71273
-4.377 -9.99962 -0.363101
2.98292 6.90103 -11.7937
7.30793 -4.31832 14.1802
-6.07304 9.99954 -4.86177
4.23153 9.65578 -9.99947
-8.19954 -8.47846 5.69113
6.9875 4.91996 -3.4637
-3.98262 3.94077 12.3962
-4.83477 -1.33455 18.9995
4.93721 6.25438 17.0016
-4.30153 -9.99921 1.33577
-8.19955 -9.83003 2.53116
-6.33808 4.57912 3.90704
-8.19951 -2.59025 -7.73421
11.7995 7.09503 2.42489
-8.19987 6.06714 1.2903
-8.19957 -8.14809 3.64354
-3.13283 2.26166 5.57434
-2.49124 -5.53135 -15.4322
11.7994 -6.15886 -0.659624
1.13963 -9.99949 9.77066
-0.796338 -6.49812 -18.7496
8.49121 -1.42605 -18.9998
4.20742 -3.20762 -19.0001
-4.68926 -2.65574 15.9789
-2.47531 3.83304 4.6151
0.400178 -9.99953 -8.06999
4.19972 6.41411 18.9999
4.35045 6.53562 12.3096
9.82536 -3.6566 -4.75537
-8.19949 -5.89754 8.32325
11.7997 0.930418 -9.76646
-4.70736 2.61168 16.4721
-4.41443 -3.2273 18.7822
-6.28162 6.25509 9.99946
-4.09566 3.77435 18.7308
-6.19002 -9.99962 -2.33331
11.458 -4.55905 -3.92175
9.55246 -5.52141 2.37784
-5.23027 5.04348 -9.99957
11.7995 0.271904 -7.73756
-4.83001 2.2395 11.8536
-2.02555 9.80346 -4.62046
-3.03337 -5.08107 18.8109
4.48856 7.49272 -5.38233
-0.53514 9.99926 -5.73695
10.2167 9.99953 -3.97081
-3.83804 6.54894 -9.99956
-1.65914 8.01213 -4.90623
-4.41294 0.844234 5.9583
10.1197 -3.16043 9.99957
0.876497 6.96425 -11.7081
6.97826 8.42326 3.03734
-3.82556 -9.99957 2.8808
0.422159 4.65265 5.85719
6.25457 -8.51532 4.04486
6.39564 -6.84786 3.88622
-7.93417 9.99966 -9.64047
2.82716 -6.9199 18.7504
1.91778 7.01471 -13.4643
8.24901 -9.99967 -5.00632
-4.01727 9.9995 -5.7721
11.7994 -7.95247 -8.18362
-6.49029 2.52604 -5.43865
7.04786 4.63379 -18.8237
8.30612 1.525 -18.9997
-4.5375 4.27301 4.20877
-8.19948 -3.58429 -9.63969
11.7995 -2.84441 7.53513
8.79298 -0.204595 15.5531
-0.76771 6.07865 -5.43573
-5.1284 0.994068 14.9256
9.53861 -9.99947 -6.59553
-8.19949 8.09805 5.63697
-8.19956 8.11826 -0.510583
-8.19953 7.75771 3.44323
11.4974 2.65241 -9.99945
-0.247039 -0.607448 -19
4.71405 -6.79651 5.25659
8.15843 -2.95056 13.2778
1.8791 9.99951 8.06834
-8.19944 8.29077 7.92775
-5.09881 -1.1777 14.0248
5.47447 8.20565 4.76931
1.03175 -6.96214 -15.268
9.88322 -5.71557 -1.89144
2.0686 -7.01988 12.227
8.14599 -2.94536 -18.8335
-3.99407 -6.11356 1.62953
6.06583 -5.56243 -15.2906
11.6332 5.90842 1.07366
-3.95778 -3.98096 17.2775
-3.52905 -5.53317 2.79303
9.69506 9.99964 2.62995
-1.44767 -6.21367 12.9903
9.90584 3.69282 -4.73391
-8.19968 5.46301 3.00356
-6.20466 9.9996 0.217343
4.04996 1.59152 5.78937
-2.84829 2.58754 -18.9998
11.7995 -1.00454 7.96909
-0.816412 -9.99946 9.78684
0.337461 -8.3932 9.99958
-1.77058 -8.11326 -9.99949
0.250429 9.99964 -7.74524
0.963842 -3.98617 19
11.7996 -1.34376 -8.23768
0.908858 -5.01566 5.94696
10.2069 -1.17199 9.99964
-1.26075 -6.30172 18.7694
2.1515 6.77819 -18.9996
-8.02379 9.99931 -0.273883
2.68756 -0.932035 -5.94449
-1.1446 -5.39013 5.21847
-4.12696 -9.99951 -2.08171
-4.3033 3.45362 -16.0556
0.80871 -6.9536 13.6501
9.12924 4.87668 -3.50598
-2.39251 -5.61106 17.0388
9.7156 5.70283 -1.91245
2.20268 9.99965 -7.99838
-4.67265 2.1325 18.9998
8.17307 2.90099 -15.5743
-2.49915 -5.28133 -18.9997
-7.98494 -4.59903 9.99956
4.58135 -0.916545 -5.94603
1.01577 9.79175 -9.99947
9.21312 0.705773 -9.99997
6.98201 -9.9996 3.4396
11.5974 -9.99937 -8.12257
-8.19955 -8.06709 -0.36895
-6.2755 5.65639 2.03054
-0.615223 -6.57566 -16.3993
11.7998 -4.44024 4.32578
0.492302 6.59345 18.9997
-3.81329 4.19507 16.8325
8.70232 2.34494 -9.99985
-7.78414 1.35104 -9.9996
6.87766 -9.99967 -5.84336
9.86329 6.00465 0.0293968
-6.25402 -3.21427 5.0748
-5.55458 -5.60393 2.16062
-1.71699 0.728126 -18.9999
-8.19948 -5.58091 -8.09167
7.72354 -3.72716 -15.4047
2.07325 -6.46317 6.02573
-2.32195 -5.67182 -13.4107
11.7994 -7.97601 9.74369
-3.21173 -9.99965 6.01335
6.15492 -5.49628 16.545
7.97434 -3.31782 -13.7483
11.6162 8.28851 9.99927
-2.39871 -5.96466 -10
11.3935 -0.78632 -9.99951
11.5023 -1.55534 5.79843
-5.19993 0.184269 -18.8013
5.26718 -5.56594 -4.88739
2.20048 1.56177 6.00627
8.73938 -9.99956 2.98685
4.97326 9.69667 -5.08354
11.7998 4.42953 4.47234
8.64488 -1.45335 -13.3336
-6.08062 -9.9996 1.95645
1.04492 5.35572 -5.95473
8.0325 -9.99946 7.90951
4.02333 7.03529 5.56999
-5.39294 5.74943 -1.71664
-1.23997 6.31685 18.7333
-0.0951455 -9.99891 -5.97784
7.72309 9.99918 1.84538
2.39444 -9.99945 -8.04352
11.5164 0.468929 9.99952
-1.49009 -9.82433 5.04763
11.7996 9.76373 -5.69122
6.06723 -2.83777 -19
-2.55467 5.47947 15.5899
1.79586 -9.99993 6.21742
-6.69384 -1.08446 -9.99974
11.7995 7.81666 -0.15547
8.53778 -1.24182 18.9997
11.7996 6.42258 9.80384
-1.19676 -6.33158 -12.0784
-0.83978 9.81535 -9.99932
1.19205 9.9995 9.83742
-5.18211 -0.680301 11.7329
5.93083 5.6547 18.7428
9.85359 1.97341 -5.69337
7.79874 -7.86318 0.237336
11.5935 0.852491 -5.94297
11.7995 -7.88935 1.0271
4.22736 9.9996 -8.22228
11.6126 -8.1486 -9.99961
11.7995 8.58162 -9.41653
4.49895 -6.47189 13.1808
6.48043 9.99956 -8.65984
3.87732 -4.65707 -5.63574
11.7997 -9.49036 2.92256
-4.8414 4.76412 -3.6525
-8.19955 9.72248 -4.01601
-2.3779 6.74153 4.33235
-4.78324 -2.37788 12.207
2.29734 -9.99962 8.01035
9.05919 -1.15769 -9.99994
3.06102 5.05648 18.9999
0.487356 -1.45684 -5.86243
-8.19957 5.58328 -5.79964
-3.12976 4.97559 -12.1186
9.47629 -9.69857 -9.9994
-5.28724 2.84442 5.29616
11.7997 2.58455 -5.646
-8.19949 9.78088 4.9675
-8.00265 -0.23073 6.00364
-6.52444 4.22172 -4.26101
11.7996 -5.67085 -2.53346
-4.27771 3.49845 -12.2235
7.9458 -9.99962 -0.751681
-6.55294 -3.04451 -5.19279
-0.155904 8.22366 -9.99959
-8.0409 -9.99945 -1.61441
11.7995 -6.65475 -6.27436
1.14838 -4.67442 -19
-2.01031 -5.87588 -17.2398
2.32189 -0.236809 6.00568
-3.41901 4.6632 -16.4818
0.0388339 -6.70937 5.73399
1.32267 -1.13733 -19.0001
-2.07495 -3.60105 4.79789
-6.5764 0.497686 9.99964
5.27069 -3.5348 -4.90078
-3.31023 9.99947 -3.69987
-6.0333 -7.87464 -9.99943
-2.81827 9.80437 -9.99924
8.28755 9.99953 -7.37578
7.17487 -4.48043 -18.7842
7.45467 9.99939 9.8299
6.46976 8.02664 9.99942
11.7994 6.27583 -8.04957
-4.5583 -6.35323 9.99963
-5.45066 0.0344133 -9.99959
-3.22745 -6.98818 -3.27298
-5.18257 -0.676221 15.8446
9.84401 9.9995 -6.06691
-2.6058 -5.43796 11.8435
7.85047 -3.17207 -5.10939
4.70803 -6.36787 -13.9958
9.64718 9.99936 9.8188
5.61999 6.21729 4.66162
-8.19952 0.472942 9.73525
4.45211 -6.27527 18.9996
4.909 -1.7451 5.74279
-4.45111 -3.15387 -11.6109
-8.19954 -6.79655 5.80096
6.04371 -5.57496 14.0236
-4.77166 2.42351 -17.2415
-8.19957 -6.39912 -4.00573
-2.74119 5.32548 13.6541
-4.54693 -2.9499 -17.3405
-2.71268 4.89692 18.9997
6.03562 4.02152 -4.46264
8.79669 -0.41054 17.3745
10.3488 -9.99953 -2.88042
-5.65247 -5.32986 -2.74151
-2.11318 8.02321 9.99944
-1.75758 -1.29411 -19
3.71448 -9.99946 5.94849
-5.9717 -1.16624 5.88793
-6.20887 -5.56202 9.99944
9.92596 4.00272 -9.99956
7.91741 -2.91719 19.0001
-8.1994 6.66234 -9.75957
-6.48908 -3.31039 -9.9997
-5.14782 0.942722 10.2801
6.32302 2.63634 -18.9999
-5.10972 -1.93743 -9.99995
-1.20478 6.33366 -11.8909
6.72912 -7.83951 9.99944
6.80059 6.94166 -3.32468
3.00664 8.47417 5.88507
-5.14714 0.867632 17.1254
10.1535 9.99949 7.98466
-4.73153 -9.99951 -9.79765
6.03377 4.39106 4.24923
11.607 5.25446 2.91932
-4.56056 2.92248 -14.0645
6.44595 -5.2339 -11.7403
11.7996 -9.686 9.71468
8.3324 5.89781 -9.9996
-8.19941 -8.36701 -9.78765
3.83574 -2.61232 -5.65514
-3.6122 -9.99951 -8.02185
2.96617 9.99968 6.23773
8.21969 2.78714 13.6459
7.09546 -4.57526 18.7551
5.99021 5.61484 11.7698
11.7996 9.77306 4.91754
9.82334 -0.102169 -5.99722
-0.0344965 8.08046 -5.71663
-8.05739 -4.13168 -4.35001
6.67341 -4.50826 -3.97415
3.14283 -0.985549 -19.0001
-8.1995 1.46112 6.05583
-8.19944 -7.76912 7.70109
-5.18987 0.570019 -16.9848
6.91806 -0.736133 -18.9999
-1.18803 6.33301 14.1739
7.36116 -7.85136 2.28908
-8.19952 1.75701 -8.02438
7.56874 -5.45956 -2.49865
-0.136464 -6.74246 10.1533
4.96792 6.23935 -11.6528
6.58612 9.99953 8.06161
-2.5696 5.46486 -10.2655
-5.20275 0.313484 -11.8344
5.12962 4.2036 18.9998
7.65258 -9.78813 1.32141
9.81925 -7.67898 -9.99944
-8.19953 -6.17722 1.24649
8.60124 1.68732 -12.053
11.7995 9.70227 8.01579
-8.19945 0.526232 -6.25723
9.97523 0.76396 5.97547
-4.12165 9.82515 1.02541
6.63349 2.27883 18.9999
-4.52587 9.99946 8.22491
8.14964 1.13195 -5.89278
7.05314 -4.63404 12.153
7.68928 -9.99949 -7.75913
-4.1635 -4.18416 9.99998
6.32761 5.34211 -10.1616
-3.65536 4.40222 -10.2687
-8.19961 -2.7748 -5.5718
8.54352 -1.93705 -16.9887
8.48668 8.48138 9.9995
-1.74288 4.17703 -4.84
7.40631 9.81976 -2.16743
11.7994 -6.51518 4.69277
5.53075 -5.43493 4.71494
11.7995 -4.75158 8.05966
11.7994 8.17651 -4.36974
4.78474 -9.99947 9.75813
1.41884 -6.98531 15.4951
8.04866 4.1027 4.39032
8.24304 2.73093 -13.7236
-3.94597 -3.9948 12.007
-2.93173 -5.16892 10.1774
2.86149 -6.91867 -14.343
2.68972 4.35849 -5.92928
1.29525 4.42431 19
8.5557 -9.99971 -2.87239
4.43992 9.9993 5.58148
6.52877 -6.32281 -3.71945
6.85583 -9.85679 -3.24433
7.63296 7.92428 1.45728
-5.96993 -4.31492 -4.17049
-5.98753 9.99954 1.88852
6.59129 -5.1024 -13.6031
-4.54028 2.96395 10.1798
9.63101 -9.99932 -8.36933
-2.11182 -3.22404 -18.9999
-8.19952 -0.358798 -8.12037
-3.41806 -4.66454 -17.5167
-4.0713 6.34928 9.99956
4.96947 -1.01795 -19.0001
7.82195 9.80954 -0.29163
2.27732 -4.56042 -5.99945
-8.01988 9.99934 1.49518
-3.96765 7.89828 -1.73901
-2.24562 8.03861 -9.99944
-4.20114 5.4836 2.44436
-8.19953 1.0624 7.97759
-1.54839 -9.74949 -4.9727
-3.53977 4.53234 -14.2499
4.89728 3.19048 -5.13998
11.7995 -8.00547 -4.37539
6.58937 9.99961 -7.20643
1.70834 2.87419 -6.0058
8.21088 2.48572 18.9999
11.7995 7.91309 -2.25136
11.5446 -9.99927 -0.573923
-8.19949 5.71774 9.8475
9.06642 -4.79115 -3.63459
2.05603 -7.34787 -10.0001
11.7994 -4.73795 -6.10486
2.16817 7.00048 11.3494
-7.99903 -9.99947 0.525606
-8.1995 -6.47604 3.65001
-4.17233 -7.82332 -0.700563
4.81878 -6.31282 -12.0433
8.49804 -2.11777 16.9958
4.93408 6.25738 14.5309
9.98505 7.63211 9.99939
-2.53046 -8.28887 -4.15581
-2.01484 -5.87207 15.1094
-4.88195 2.08706 -18.8467
11.7997 4.27553 9.75065
9.98714 -4.43259 4.04695
11.7996 3.07983 5.42351
-8.19951 3.13441 6.68654
8.02002 3.3574 -4.97418
-3.71331 9.99924 2.93996
3.07988 6.88591 17.1202
-6.25885 -9.99964 -0.159743
-7.94244 -9.99955 6.35906
-1.46338 9.99954 -8.43481
7.3869 -7.08124 -2.20113
2.82745 -6.92224 -12.27
9.3034 -5.51807 -9.99945
3.20895 9.99973 -6.088
-7.84783 -5.20195 -3.00521
-8.19954 6.30711 4.94531
0.717292 -6.63725 18.9997
3.79386 6.70969 -13.4576
9.56434 2.62716 5.39385
7.59814 9.76111 -9.99951
-5.10422 1.13719 -13.4658
0.462794 0.351262 5.99512
-3.91304 -4.04478 -15.8466
-4.9233 -2.37124 -5.51107
11.7994 7.73056 7.94152
-3.21994 3.13281 -5.14443
11.5494 -9.99919 -6.27212
8.61277 -1.60827 -15.1392
-4.41473 -3.22132 14.0782
-2.39935 2.38608 18.9999
2.8399 -9.76262 -9.99951
-2.20606 -9.99949 8.59229
11.7995 -9.85361 8.01416
-3.16097 -1.72741 18.9998
3.04909 -2.01829 5.87022
8.04719 -7.3932 -9.9994
11.7997 -2.59773 -9.78009
-4.58063 7.94045 -9.99939
2.70229 9.67389 -9.99952
11.7995 -5.91897 -8.03419
1.1691 9.9997 6.20418
4.42442 6.50711 -15.2543
-4.13523 6.16793 -0.898328
-4.34391 9.99951 -0.747481
-0.124682 -8.38841 5.69537
11.7995 7.04494 -9.7836
11.7996 -8.23236 -0.823553
0.375246 -8.19346 -5.83933
-8.19945 -9.74516 8.11249
11.7994 6.49236 -4.18391
-0.278328 1.62376 19
5.31619 2.97857 5.20753
3.45278 6.81978 -16.9909
-0.540251 -2.51497 19.0001
-8.19957 7.28987 -4.30153
11.7995 -2.66683 -7.02485
-6.44933 8.15856 -9.99931
5.64908 -5.84716 11.7739
5.86032 0.514366 19
-4.40714 9.99959 4.80472
-6.33631 9.99955 5.29785
6.86362 4.85594 17.1187
1.87359 3.47444 6.01906
-0.45997 -0.0123839 19
-2.66436 -9.99968 -6.13262
5.67035 9.60214 -9.99942
11.7995 0.919934 8.04848
-2.9914 5.04493 3.62395
7.12828 -5.52255 2.7775
-2.14595 5.77982 10.1844
-3.67956 -4.37582 -14.0553
9.21207 -4.67781 9.99955
11.7993 -5.41239 2.99186
6.4182 5.6173 9.99985
-4.55459 -2.933 -13.3661
3.05297 9.99951 9.79934
4.67778 -6.38451 17.3368
-2.10274 5.82047 -13.3709
9.99133 -9.99939 9.62181
6.79126 -1.09386 18.9999
-1.81894 -8.58407 9.99948
-8.19952 -4.22858 -6.84331
2.18148 -2.95958 -19.0001
3.75655 4.76398 -18.9999
-2.52107 5.50863 -17.4666
8.31453 -2.55269 15.2227
8.17859 -9.99943 9.78788
8.57215 -8.28842 9.99945
1.87171 -2.70123 -6.01467
11.7995 -8.41543 -6.28567
-5.18225 0.69397 12.8659
-3.458 0.565007 -18.9998
5.08088 6.18411 -17.2826
1.63146 7.00164 -17.3357
8.78199 0.789254 13.7607
-7.98343 9.99969 6.72656
11.7995 8.35112 3.86211
0.434213 2.31555 5.85363
11.7995 7.96056 6.02703
9.75519 -9.99951 7.1873
-7.87494 9.58805 9.99975
0.518867 -4.08502 -5.87844
-7.64718 -9.99954 9.77478
5.7271 -5.36961 -18.9998
2.01301 0.874815 -19
4.28238 -6.54932 -18.7148
11.6159 9.99918 2.98027
8.97149 -0.230647 10.0001
9.97786 3.31197 9.99955
-8.19963 2.19556 -5.88527
-0.0313676 3.98915 -5.70983
-4.7962 -2.34716 -15.2402
6.14243 5.50796 15.7561
-8.19957 -5.14956 5.38099
-8.19952 -8.3271 9.72099
7.99657 -5.95916 -0.749877
6.34069 -7.98331 -9.99938
-2.22542 5.74583 -15.4258
7.88657 -5.89806 1.1148
-3.32777 -7.89161 3.10888
-4.63914 3.21416 -10
-1.73746 -9.99961 6.99407
-7.98421 -4.58801 3.88824
5.99514 -5.8867 9.99979
-7.90956 -1.14934 9.99942
10.1872 9.9995 4.37615
11.4921 9.99925 1.1785
-2.19123 -5.93111 -4.48304
3.65784 6.74802 10.2918
8.13067 2.99321 11.8497
8.40867 9.99949 8.08136
4.814 -1.438 19.0001
5.38539 -7.44059 -4.82455
-5.02634 1.60567 -15.3699
3.05115 -9.99948 9.78145
-5.50617 -9.99939 9.83325
-0.896536 -2.61919 -5.39034
2.65171 -6.94504 -16.5846
4.83792 -8.49514 5.17517
-2.76102 5.31014 11.8495
0.705031 -6.93284 -13.3988
-8.19875 -9.79674 -7.73583
-7.91257 9.9996 -7.75073
-5.12444 -1.02735 -13.4704
2.45544 6.97093 -15.2305
8.70065 -1.17221 13.8519
2.95009 -6.90506 14.1548
-6.58398 5.44707 -2.50259
7.5091 4.07857 15.0338
9.5631 -9.99957 4.94234
9.84435 -5.99275 0.351164
8.15718 -1.09893 -5.9011
-4.98251 0.401044 18.9998
-8.19911 8.38352 -9.79494
-8.19952 2.23307 9.79893
6.28454 -1.98946 -5.68457
8.56897 1.8045 -17.2303
-3.96256 9.9992 -2.38155
-7.90955 -9.99848 -9.623
11.5615 9.99938 6.42858
-4.7173 2.59158 13.9699
-8.0126 9.99943 3.25128
-4.10421 -4.47444 -4.00148
0.222734 6.82068 -18.7411
-8.19957 4.34432 4.45469
0.882949 6.95188 17.3355
11.7995 -7.48014 -2.56824
6.60582 5.08711 -11.8553
10.0735 6.20503 -9.99941
-8.1996 7.87971 -2.50255
-8.19946 4.85574 -9.75434
-8.19964 6.18835 -0.613217
-0.274263 9.99953 7.87484
7.2905 4.34003 -15.3877
3.61271 3.40395 5.74167
-1.41879 6.00287 -18.9999
8.28655 9.99961 4.26354
-4.09924 -0.962143 5.93389
11.7996 9.77979 -3.72373
-6.33769 5.99774 -0.0367235
0.263614 6.82468 -13.5765
-0.00247419 -9.99974 5.95442
-6.32529 1.05501 5.90289
11.7995 3.99563 -6.89441
-8.19954 -3.67196 8.4978
-4.14621 8.21337 9.99938
5.45454 9.99961 6.90182
7.4049 8.06619 -2.1522
-7.934 9.99966 8.40123
0.305848 1.85468 -5.81283
3.08643 -0.862669 19.0001
-8.1995 6.73713 7.19525
11.7995 -8.21337 5.30963
9.3236 9.8203 -9.99966
-0.483438 -6.62907 14.907
11.7997 -9.81013 1.14805
-6.53815 3.45657 -9.99956
11.5758 2.20436 9.99946
-7.96481 -1.78745 5.74555
-1.11635 4.17213 -19
-8.1995 -8.17323 -4.306
-4.00106 -3.56374 -18.9996
-4.23017 -2.82356 5.29957
1.28339 7.26389 -5.97327
-0.68852 3.33857 19
8.14953 -6.4054 9.99951
-5.46049 -1.17682 10.0001
11.7995 4.0616 -8.60302
7.99731 5.98211 -0.554739
-4.04408 3.85048 -18.6405
-6.43716 -9.99959 -6.09814
-4.169 -9.99948 7.69978
-3.23196 -9.99988 -3.83035
-3.69902 -8.33411 -2.39525
3.62657 -6.5858 -5.73479
11.7995 2.83117 8.05922
-2.81787 4.936 -18.9993
-1.26651 -7.58737 -5.15852
11.7992 -3.14077 5.38658
7.11582 4.55512 -13.6185
6.00259 -9.9994 -9.71763
-3.37911 -1.49361 -18.9999
6.73846 6.99453 3.39008
11.7991 -3.12841 -5.30499
11.7997 1.64447 6.07183
8.05242 1.02411 5.91762
-1.32159 5.32642 5.12799
-8.19947 -8.05826 -6.13539
6.70914 7.5701 -9.9995
11.5431 -4.59862 -9.99934
8.46793 0.674693 18.9998
-5.9677 -9.99956 6.19386
5.56367 -5.90531 -17.338
10.0071 -2.81867 5.31215
-1.07796 6.38232 16.7452
3.654 2.55502 -5.72514
1.82078 -9.99957 -6.22338
-0.735023 -4.57799 -18.9999
-8.19964 -6.04723 -1.77318
3.50813 6.80065 14.9063
-7.94613 -9.99945 4.41207
-4.89891 2.03005 -11.704
9.2781 -0.997162 5.92299
11.7994 -8.06364 7.67128
2.32763 -8.19115 -5.9854
6.54058 5.14761 -17.0707
-1.29272 2.47884 -5.47038
-7.84187 -5.50507 2.39878
-4.51221 -3.71857 -10.0001
0.888311 -6.96444 -11.6558
-8.19966 5.03261 -3.75994
9.79739 9.99946 -8.27239
-7.94892 -2.67338 9.99952
6.34494 -4.15116 4.35199
-0.825439 6.48676 -14.7018
0.0675216 6.56285 5.74392
5.79731 -9.99958 -7.32878
4.29884 -9.99961 7.89112
4.21373 -8.45373 -5.5077
7.68008 -9.99967 5.64846
8.08299 6.60468 9.99957
-0.485883 9.62416 9.99945
6.00053 -5.61127 18.7711
8.16705 2.93953 10.1715
7.27623 -4.35679 15.7785
-0.121378 -9.68445 -9.99948
11.7995 5.93537 6.10773
2.87535 6.32643 -5.90151
11.624 -1.07227 -5.9113
8.68186 1.26213 -15.2067
-3.92597 9.99959 6.48152
-0.0885633 -6.18189 -5.69315
4.46521 5.0124 5.38525
5.87746 9.99967 4.72498
1.06142 -1.60022 19.0001
11.7997 -3.13929 9.69304
-4.33518 5.9552 0.781798
9.03258 1.4289 9.99988
8.2223 -4.51432 3.95876
8.39873 9.99967 -4.40322
-4.00915 -6.05301 -1.56501
1.0079 -1.66971 5.95481
-2.26499 9.99958 7.51726
11.3392 9.84087 -9.99827
-2.59633 -6.35189 4.10104
5.36718 9.99946 9.78706
-0.616417 -3.16578 5.50528
2.84488 8.34112 -5.90473
-8.19954 7.78263 -6.08106
0.959109 -6.675 -18.9995
3.32696 3.24981 18.9999
-4.90834 3.34772 -4.98012
-5.82091 -9.99943 -7.93418
-3.77063 -3.35287 -4.97815
9.68948 -9.99954 0.882365
5.98583 5.61397 -15.3126
4.94261 -8.24991 9.99944
-7.68666 2.98087 5.22597
11.7997 -9.68963 -2.41982
0.4112 5.06792 -19
-0.476589 -6.62985 16.9539
-3.12667 -9.78905 -9.99946
-8.1995 5.30722 8.271
-6.37695 2.59019 9.99975
-2.88663 -7.19933 9.99961
2.62495 -2.77172 19.0001
-2.22095 -3.39712 19
6.36516e-05 -2.70325 -19
-2.2206 -3.90533 -4.56449
7.2839 4.35363 10.3579
11.7995 -4.77995 6.14177
-1.7836 -7.80742 4.80752
2.70539 -8.40542 9.99962
-0.644362 0.348538 -5.99494
2.56547 6.9579 13.0815
-8.1995 -6.02323 -5.93813
6.60302 -5.57405 -9.99976
-6.00648 -9.99961 3.94595
7.02019 5.38979 2.9608
-8.19965 5.85188 -2.28971
11.7995 8.45471 1.58114
11.7997 9.72435 -0.453107
8.64851 1.43771 17.1332
4.24566 -0.226766 5.99347
-2.84809 8.46525 3.79495
-8.19946 -7.60408 -7.92172
-8.1995 -1.92209 -9.7179
-2.87544 -4.49993 3.97201
-6.24881 -4.82325 3.56874
5.99716 8.22986 -4.28974
8.78957 5.25605 2.9191
3.81776 -9.99953 -5.95407
-3.44122 -9.9994 9.80381
4.97922 6.67368 -9.99967
-5.89676 9.99952 3.47353
9.51431 9.99958 6.141
5.55314 -9.99962 5.0992
-8.19953 4.98518 6.37399
10.2289 -8.10297 9.9993
3.69669 -6.73903 11.5738
6.28285 5.38092 13.7429
5.95292 0.843791 5.96013
4.82183 3.34686 -18.9998
-3.62055 4.44176 10.2405
7.65727 -3.82817 -12.0567
-4.63104 -4.34248 4.13794
8.79762 -0.0801371 -16.6426
11.4744 5.00465 -3.31844
-3.41461 -5.36733 -2.97646
4.96717 2.37892 18.9999
11.7997 -9.79826 -4.3434
7.80352 7.92777 -0.335911
-5.06101 -1.38054 -11.6703
2.07385 4.73292 -19
-1.03684 3.08722 5.29334
0.21086 1.20971 -19
4.20447 -8.3542 -9.99955
-7.95042 -6.69674 -9.99957
8.79307 -0.178603 -11.7532
7.47599 9.99966 6.13245
-1.59008 -9.9995 -9.72175
-2.81033 -2.17819 -5.60809
1.2672 0.298453 -5.99404
9.26373 9.9995 -2.37731
-0.992299 -4.78663 -5.31849
3.32905 -7.95359 5.8205
-8.19954 3.37401 8.25054
-1.51938 -9.99956 -7.7454
8.71478 1.11595 11.9246
-5.75257 4.57994 9.99962
-8.00018 9.99932 -2.1268
-1.09994 2.53968 -19
11.527 -4.77453 9.99936
3.67747 1.01268 19
4.3741 -9.99944 -9.76329
-8.19955 3.70349 -5.07262
1.92742 6.86861 6.02182
-6.14688 9.99949 7.24942
-4.45833 -5.99694 0.128197
1.80555 -7.00137 10.2543
8.66689 4.81906 9.99964
-4.1375 9.99944 9.81325
-5.01492 -1.6293 -18.7998
-7.94742 -9.9994 -3.75167
10.473 -9.99946 2.80692
-8.19954 -5.07738 6.97612
11.6192 9.99889 -7.6829
11.7994 8.20851 -7.36021
-2.66275 -9.7446 4.01651
7.69721 -3.76864 17.249
8.79589 0.338147 -13.8388
0.114535 -9.99958 7.8696
4.3607 8.45013 9.99953
11.7994 -6.4824 6.93433
0.831342 7.38887 9.99973
-3.6284 9.99955 -7.94508
5.11048 6.46072 9.99972
-8.19962 -3.04459 6.9973
7.16642 -0.807379 5.97569
-4.48111 -9.99957 -6.02647
11.5804 -9.99924 6.20191
1.87231 7.00934 15.4714
7.07207 9.99968 -5.63018
6.50251 2.06269 -5.67222
-0.744148 -1.11143 5.90047
11.5778 -5.86775 1.25321
7.76526 3.65725 -17.2189
10.1344 -6.28503 9.99939
8.57933 7.97399 -9.99947
-5.94973 9.99951 -6.50595
-3.1649 -4.93826 13.6764
-6.18178 -5.88791 -1.15587
8.1677 -2.86732 5.27559
-0.662979 -4.71362 19
-1.19131 6.32997 12.1324
1.48505 -6.99408 17.3349
11.5226 9.99923 -2.10104
-2.84431 4.7141 -3.80856
-2.43513 -1.99581 5.68863
4.99836 9.99969 -6.66242
-0.664776 9.9183 5.47893
11.5713 -9.99924 4.48941
-1.45519 6.43081 -10
-8.1995 7.60382 9.77171
-5.82038 9.99955 -3.33637
-2.44421 -0.00047478 5.99525
3.2138 -6.8656 16.3956
-6.40433 -1.24701 -5.86483
-8.19955 3.83853 -7.48331
-3.51415 -4.56015 15.5445
11.7996 -6.37595 9.60266
7.4163 -4.40543 10.0002
11.7996 5.85036 -2.10981
-8.0204 -6.00906 -0.336686
-2.06672 9.99966 -6.66735
0.0503188 6.77531 15.5286
-1.75209 -0.897432 -5.95027
-7.99143 -5.04761 -9.99948
-3.63455 5.76438 -2.57592
5.92082 -3.17557 18.9999
9.99996 -9.99956 -4.69634
2.39418 7.71331 9.99976
-3.89004 4.07931 14.7272
10.0062 -3.29852 -9.99954
-5.65528 9.99944 -8.11443
11.7995 -3.9943 -8.17538
11.7995 5.75068 8.10398
6.5691 -8.2286 -3.65122
7.57297 -8.56166 -1.64886
-3.72598 -0.619342 -5.99613
-5.12438 0.00024902 -5.99718
11.7996 5.12514 -9.84527
10.0785 5.63472 2.0956
1.17699 -3.35378 5.96631
-2.3267 9.9995 9.72409
3.26287 -4.91681 -19
11.6464 3.96495 -4.51301
0.632014 6.91778 -15.8497
-6.12545 -5.42832 -9.99961
-1.68252 -0.978502 19
-3.56237 6.80043 2.72613
-6.32662 -9.99947 -9.80279
4.2061 -9.99954 -7.93397
0.0703486 6.78795 -10.2489
8.00094 3.27336 17.0636
4.10684 1.09728 -19
-4.55073 -6.30927 -9.99971
-8.19951 -0.242827 -9.82003
-4.82701 -2.67082 9.99996
8.42569 -2.28925 10.1501
-8.19957 -8.18207 1.58159
9.46783 9.99956 0.943474
7.27071 4.36655 12.5801
0.944109 -6.95809 -17.3144
0.435303 6.86949 11.8264
8.79684 0.0658533 -18.7109
-0.657805 6.79853 10.0001
8.11735 -3.05746 11.5563
2.81981 2.75853 -18.9999
3.97396 9.9995 8.15851
7.68868 -4.24159 -10.0001
2.65663 -6.94542 -18.7697
-2.65592 1.07662 -5.90836
8.24844 -2.73822 -10.1808
-8.19943 8.0871 -7.95266
-6.20635 -9.99942 8.12408
3.53013 7.21771 -9.99988
8.48966 -2.13564 -11.7737
-0.553783 4.90267 18.9999
-0.00331669 -6.7623 11.893
-1.27149 1.2299 5.8728
-3.34584 -4.74507 -10.2008
-5.19876 -0.314547 -15.1445
4.75339 1.00122 -5.9273
6.09583 -9.99961 7.33926
-4.5373 9.82105 -9.99934
0.735466 8.38427 5.92541
-6.21892 -3.56055 9.99962
5.1077 -6.41091 -9.99996
0.707481 6.93781 13.6783
-5.34744 1.63428 -9.99961
-1.5086 -6.17477 10.2659
6.42821 -0.0436039 -5.99531
-3.91172 8.16528 1.86258
-7.86462 4.02723 9.99959
-2.97396 0.481592 18.9998
8.73332 -0.983225 11.9442
10.3723 8.21084 -9.99951
4.20255 -3.80787 19.0001
-6.0678 9.99962 -1.60932
11.7995 4.25457 7.03039
4.08316 -6.80828 9.99977
2.83242 -3.88774 5.90592
-5.48396 -9.99962 -4.20426
-6.28719 9.99942 -9.78847
-5.08821 -1.24165 -16.9647
-6.40248 -5.98803 0.676481
6.05815 0.888523 -19
10.029 9.99952 -0.739148
-6.04412 9.99946 9.74378
-0.955825 -6.42836 -10.2421
6.76292 9.85048 3.37574
9.98622 4.24045 4.24264
0.836447 3.05672 -19.0001
0.363933 -7.26632 -9.99981
-3.26728 -4.8298 -12.0436
11.5515 -6.38202 -9.99931
1.79331 7.33264 -9.99991
6.38159 -2.43406 5.49007
