-4.18045 -3.92758 4.54598
-8.07667 -6.15826 -0.40033
10.1447 3.2241 -10.0076
-6.64517 -5.07976 -3.17771
-4.12762 -10.0101 7.79061
4.70322 -6.37042 15.9364
-6.18563 -10.0112 2.67748
7.25451 -4.41982 -17.422
11.5969 9.88901 1.56547
-3.21904 -0.865297 -19.0049
-6.14653 10.0069 0.658511
9.47074 3.16855 5.08684
-6.31132 -10.0074 -1.00935
8.38736 -9.9442 -9.63199
8.36309 1.93707 18.8444
10.0185 -10.0146 -5.93726
-8.21424 -1.46462 7.93237
-1.80624 -5.98733 -11.7119
-4.71911 -10.0159 -4.37328
-7.94517 1.41106 -9.96706
11.7592 3.01485 -9.72527
1.2386 6.97745 -14.697
11.7498 9.74544 -4.78234
7.63987 3.54685 18.8282
6.37268 8.22407 -3.87401
4.008 6.10071 5.57635
11.6722 4.16174 -4.57137
5.51312 6.05856 -4.72288
8.17481 10.0058 7.76661
-8.20832 -7.98172 1.02695
3.62336 -6.77172 17.2571
-3.94134 9.84219 -9.86445
-6.67168 -0.352863 10.0094
-4.43066 -3.2337 17.2094
-2.92176 -9.81561 -3.96662
4.56732 -3.59269 19.0054
7.69377 -8.00208 1.01453
7.39997 10.0039 -5.95696
-8.10138 1.27658 6.06908
-6.31543 0.313096 6.0024
-1.93668 -3.14795 5.11212
-7.11687 -9.89912 -9.8717
-1.66014 1.70045 -5.75018
7.65704 5.96379 1.71868
-6.10259 -5.60511 2.11696
-5.80904 -10.0077 6.34623
-8.2067 -5.79149 -8.01002
5.82829 -6.20313 -4.44038
11.7223 0.891348 6.12464
11.5456 -9.96654 2.09312
-7.84268 -5.29599 2.89556
11.6532 5.31823 -3.1411
9.9984 3.03657 10.0034
-8.2095 7.91486 3.88843
8.57906 0.385684 -18.8835
7.79072 -3.63115 -15.4745
-8.13413 3.68572 -5.04895
-1.58978 -9.7888 4.93747
-6.26141 4.52904 -3.95018
6.09314 -5.52296 11.5846
4.89101 -6.27336 -12.2526
7.37012 4.24587 -15.4759
-8.21304 7.98921 1.96117
11.7555 -5.96799 1.90436
-8.20721 -8.25776 -5.56216
-8.05985 4.72953 -4.03308
6.7716 7.98484 -10.0089
-8.20822 -7.91509 6.44637
-4.73396 -2.53003 -13.7087
-4.8477 -10.0092 4.24903
-8.21155 8.25304 6.06682
-5.18367 0.584452 -16.9255
-1.97421 2.68747 19.0054
7.71573 -6.01298 -1.68467
11.7259 -7.72504 9.79693
-4.5134 4.09251 -4.37767
-1.07167 -6.58911 -10.0982
-4.91315 -5.03595 -3.24319
-2.63666 -5.4183 -15.4069
11.8067 7.99007 -1.19888
4.01392 -10.0085 7.49009
-1.72796 -6.06031 17.0557
9.75313 -10.01 0.960829
-2.46379 9.92979 4.48072
2.7059 -6.77656 18.8984
11.225 9.73882 9.92085
8.17288 2.90014 -14.8383
-3.6577 -5.43505 2.86537
3.13419 6.88099 15.3631
4.89251 -6.27957 14.2071
7.41645 9.94306 9.71084
-2.23187 -7.89099 -4.43854
0.853844 3.34902 5.93191
-8.10781 9.82615 -1.17194
-1.50765 9.85093 9.86788
2.10531 -10.0111 8.115
-8.20927 -6.642 -4.13247
-8.11898 -4.21856 9.79693
-8.13445 2.40155 -5.76948
11.8087 2.13377 7.85204
-5.40711 -9.92609 9.78927
2.06449 7.00029 11.8703
-1.24435 0.217894 19.002
-0.113598 7.53184 5.68332
11.6517 9.85667 -6.55735
-5.06767 -1.37566 -15.3831
11.6786 9.82894 6.71717
0.348897 9.9464 -6.13026
2.8349 6.92206 -13.3667
-2.00951 -10.0106 -8.53368
9.91678 4.26369 -4.20777
4.78984 6.33009 -15.3764
7.02834 4.73049 -10.1819
11.5357 -5.02291 3.38974
-2.68467 -4.59478 4.07791
11.515 4.86396 -9.93091
-8.20761 -7.28253 8.10748
9.6517 -5.44662 2.50543
-8.21185 -7.63298 2.82717
7.77589 3.63423 -11.8587
11.7582 9.74424 -2.99173
11.7655 9.74399 -0.0528968
-4.89615 -2.6177 -10.0978
-2.74127 4.59012 -4.03168
10.0723 10.0139 8.00268
3.74926 6.42335 -5.67438
6.1093 -9.88447 4.43508
-0.118468 -6.62038 -18.8492
-8.20926 8.13575 -8.13991
11.7133 -3.91881 -4.82872
-2.38421 5.61338 14.9767
-3.05454 8.04545 -10.01
11.6505 -9.87099 -1.74954
4.31324 -6.57006 -5.45417
-6.31221 3.19661 -5.087
7.52825 9.86261 -9.84213
-4.39938 2.64712 18.9534
8.23767 -2.73531 12.1824
-4.76715 2.47698 -17.3234
5.49646 1.21528 -5.89902
-3.59329 -10.0109 -5.9531
5.39985 9.96688 5.17898
-3.7551 4.24406 -18.6264
-1.94502 -10.0072 -6.84137
11.808 7.98374 5.81063
-6.51296 -10.0118 -4.8718
-8.20567 5.33063 -6.17349
-0.505077 -4.02612 19.0047
-8.21315 -5.89914 5.55674
1.66717 4.91744 -19.0036
-4.80954 -2.31308 15.3565
-8.20438 4.60473 6.46927
0.892272 6.95569 -12.4106
2.44307 0.631385 5.98752
9.41567 9.91813 -9.83795
-8.05987 9.81212 0.570468
-6.20207 9.87372 -9.86761
-6.50855 -1.66137 5.75757
-3.64642 -10.0047 5.81653
-7.96708 4.86139 9.95771
9.85504 -10.007 -1.30518
10.082 10.0189 -7.91522
0.291204 -6.82176 11.2353
5.71839 9.95187 9.72801
-2.72716 -5.77169 -10.0501
11.6159 6.38919 9.91453
6.4848 -4.0948 -19.0139
-8.20675 7.97674 -2.10989
11.8135 -8.11737 -8.16491
4.53539 -6.37845 -18.6943
-8.20646 6.42896 -4.71347
-6.2067 -5.99511 0.345875
7.57907 -3.93798 -11.8815
-5.15868 0.793869 13.6845
-0.651704 4.26648 19.0055
7.45413 8.11344 10.0112
11.8039 -6.81838 3.9861
8.35072 -5.84789 10.0021
-7.99699 -3.33417 -9.94278
3.80944 9.71939 9.96182
-8.09838 3.14637 -9.72032
-1.84745 -1.15578 5.88856
7.10148 2.95306 5.22684
-8.09542 -8.11112 9.79693
11.7206 -2.31353 -5.78384
6.03849 -8.09193 -4.23191
-4.05061 -10.012 -8.02116
5.88781 -10.0112 8.23372
-2.70062 4.54258 4.1276
-8.2242 8.0277 8.12613
-3.35861 9.71518 -3.20271
9.87217 1.63728 5.76243
10.0307 -9.7397 -9.94793
8.3041 -10.0039 -7.17587
4.21841 0.80204 5.96088
3.37105 4.73596 19.0048
-8.08153 -9.87078 5.81171
0.956054 7.02346 10.2066
-8.21071 -8.40398 -3.58306
6.16272 6.02701 10.0329
11.8058 -7.76457 -6.33722
6.24607 5.41219 -14.0003
4.64489 10.0094 -8.01998
11.5136 1.16207 9.96558
9.47084 -4.57194 3.87722
10.1002 6.9755 -10.0097
-4.4166 3.21952 -13.794
-3.14208 4.98418 -16.7877
11.8063 7.91703 -5.65688
-1.86816 -10.0093 6.81569
5.18948 3.621 19.0062
11.7732 -9.68389 -3.50138
-2.39078 9.7558 -4.41903
-2.8812 7.40253 -3.75615
-7.95104 9.9718 2.31033
8.66661 -1.36778 -13.2377
-6.12695 -10.0072 0.866202
11.7516 2.90899 9.71921
-4.74557 2.47284 -11.8879
-8.20523 -3.38175 7.69266
-0.254841 -4.4474 -5.63207
8.37233 -10.004 -4.92263
-8.21532 0.552475 7.9406
-7.87953 8.39613 -10.0005
-8.16373 5.89961 2.1063
11.8079 4.54193 -8.26962
-0.255372 0.682834 -5.98052
-6.06199 4.09251 10.0054
-4.57787 2.87776 13.7616
-8.2091 7.97046 -0.105413
-1.55658 6.15241 16.6988
9.1398 0.187589 -10.0668
-1.61668 -9.78764 -4.98985
1.4317 -6.80773 -18.8396
-8.19886 -2.39875 -5.96178
11.8054 -4.00527 -7.31246
3.43606 -6.33695 5.78961
-5.87518 7.8836 10.0103
6.64645 -3.83561 19.0172
-0.853792 -9.88333 9.85723
11.8077 -8.22515 2.96058
7.91562 -10.0077 7.76707
10.1921 -10.0109 -3.84337
11.8106 0.312483 8.09218
-8.21506 -8.19396 -0.703825
-5.80262 4.76822 3.65034
0.0877596 2.30295 19.0032
-3.33915 0.897654 -5.94425
7.63714 -3.87108 15.6938
9.97072 -10.0124 -7.98988
-3.08562 2.95715 -5.22855
2.72286 -7.80353 -5.92767
11.714 5.96299 -1.66488
7.25695 -5.19816 3.14799
-6.46299 10.0178 -5.39264
11.6437 5.13179 3.37825
-4.76098 -2.40452 11.823
6.63181 -5.06629 -15.7303
7.50692 9.85625 -2.41686
3.69053 9.82948 -9.79693
0.889772 10.0088 -8.02637
-8.21105 4.37984 8.25441
9.44355 5.11996 -10.003
10.0329 4.47212 3.98894
2.02306 5.49482 -6.01202
11.8026 -5.95508 -7.85327
-3.50719 -4.36718 -4.09764
11.7611 -9.74876 -5.27974
-2.63899 5.03139 18.8759
-4.1487 3.70103 -16.1715
7.43543 4.14472 11.9201
4.52244 -8.29497 -5.33528
-0.0895868 -9.93344 -5.92913
4.8005 -6.51371 10.1192
-5.06546 -9.84852 -9.86099
-3.80817 -9.8796 -2.53122
-8.21179 -7.69173 4.57864
-6.61556 10.0165 -7.78411
3.92858 4.51805 -5.61258
-4.90529 9.89164 9.80557
8.31961 -2.58815 -16.9584
8.31179 -8.39072 -10.0104
1.69853 6.86801 18.8645
11.5201 9.98328 -1.51672
-7.75638 -9.93876 9.71097
9.25669 9.76343 9.87598
-6.17167 -4.25209 10.0054
0.00483547 -10.0143 -7.99989
-8.07073 9.88099 -9.41347
1.58136 -4.44197 -6.0019
-6.54349 -2.58945 -5.40252
2.9894 10.0126 7.92377
3.94622 6.68346 11.769
9.91507 -6.54659 10.0068
7.07715 -4.60436 -13.8374
-1.32536 3.55587 -5.12641
-0.865785 6.47968 -12.3368
5.95547 5.64793 16.9119
0.475593 3.09423 -19.0046
11.7144 -0.85755 6.12827
7.53505 0.819586 -5.95321
5.29365 8.18702 10.0088
2.92732 -6.61039 -18.9713
-1.13814 9.91069 5.4449
8.53131 -1.9734 -15.0324
-4.59325 -2.21778 -18.8913
11.561 -0.608891 9.90513
5.88466 -2.84997 5.27143
-8.09789 -9.82985 -8.09494
-4.70438 -5.87128 -10.003
3.76827 4.70676 -19.008
6.84021 4.86076 15.2642
-5.02502 -0.425363 -18.8207
-3.69557 -3.9949 18.9432
3.04463 7.23077 10.0074
-4.95548 1.23279 -18.8493
1.54701 -6.25415 6.0002
-3.37478 4.71251 13.577
-8.21299 -7.45471 -2.14584
2.47961 -6.97038 -15.2945
10.2275 10.0069 -4.1505
-5.87282 -4.0046 -4.47314
-8.16295 -6.012 9.75078
4.73428 10.0133 7.86836
10.0721 0.00350582 6.00029
8.46348 -2.15807 -11.646
-4.18987 6.62885 -10.0022
-3.42651 4.66019 -14.6029
2.79263 10.0186 -7.83632
9.03986 -1.43736 -10.0332
4.54728 -6.23412 18.8556
-5.19502 -0.221325 15.3386
-8.2135 2.01804 -7.97299
8.81477 -10.0045 -2.97417
-4.27734 6.11829 -0.906802
5.68748 6.14036 4.57536
-8.20937 6.22136 7.91798
-3.82299 7.88037 -2.07231
6.01722 -2.09735 -19.0065
-7.86029 -1.8691 -9.94975
9.74738 -3.25865 5.02443
-3.28705 -4.83366 17.1582
-1.51114 7.85682 -5.00934
6.36415 -5.30505 -12.1503
-4.85366 10.018 -8.29819
2.68338 -5.75095 -5.93614
-0.436751 8.29808 10.0056
-8.18083 4.85945 -9.61337
8.42031 -2.29875 14.5461
3.56763 0.156306 19.0021
6.49487 -2.36805 -5.51271
-6.03699 -5.79109 -1.55245
3.918 9.90541 5.82613
-1.75873 -6.02439 11.9078
-8.20631 -5.31614 7.51741
-2.09004 -10.0146 8.53547
7.74708 -3.88552 4.58559
-2.04134 -8.08426 -10.0068
6.82421 -10.0037 -6.01819
0.982725 -6.78994 18.7942
-6.16799 10.0064 4.3621
-3.06386 -9.84524 3.74112
11.4979 -0.449488 -9.92053
0.20393 4.6261 -5.78125
-0.107926 -6.74175 -11.7089
8.13024 3.01085 -16.969
-8.10982 -0.41628 6.20472
11.7843 -0.578621 -6.23753
-0.10254 -6.74174 13.1693
-1.46432 5.98239 5.03686
-6.21002 3.51251 4.86863
-4.37128 -3.30706 13.4764
-0.469494 6.6303 -14.2375
7.72608 -9.79697 9.92863
-1.15224 10.0114 7.87698
11.7796 -7.01103 -9.75264
-4.14419 3.69517 11.9796
-3.54149 5.61753 -2.77732
4.27853 6.40798 -18.8743
11.8072 0.339534 -8.09293
4.664 6.38637 -13.5318
6.0809 -8.0344 10.0134
6.07876 -0.601434 -5.99112
3.11021 -4.77559 19.0096
3.87716 9.93515 -5.84125
6.00534 5.58535 11.6315
-0.238744 9.94125 -9.75244
7.93139 -3.10391 18.801
-6.30899 -8.23783 10.0223
9.57212 10.0062 -2.18881
6.61865 9.83753 3.84031
0.77772 6.75632 -18.7797
8.79874 1.56481 10.1083
-1.68692 5.73655 -4.89595
9.83319 -1.68015 5.76304
4.26095 -0.857456 -19.0038
-6.54342 9.71642 9.94946
1.8039 9.94764 -9.79297
6.39423 1.80676 19.0029
2.76373 8.31249 -9.99604
-5.19408 0.383505 -15.0544
8.2607 -2.71016 16.9313
9.92838 -2.74953 -5.33545
-5.59864 -10.0031 -6.38081
0.327146 5.37474 5.81701
-8.06915 6.64702 -9.8315
-8.04023 -4.52179 4.20297
-8.13699 0.794171 -6.14617
11.8107 7.13902 2.83109
-4.18196 8.03781 0.0629196
5.05441 -10.0045 -6.92305
6.70701 2.66593 -5.3816
-6.15187 -10.0223 -8.08974
6.40629 -5.27538 15.4081
11.8022 -4.63304 6.87709
-3.94466 -4.00481 15.3848
11.8098 -1.5314 7.94037
-5.05999 -1.41404 13.5915
-8.20457 6.47381 6.05653
-3.46576 -2.08468 5.63231
8.94461 1.74679 -10.0389
11.6858 9.80621 -8.42298
11.8052 6.42795 4.64571
-6.53347 -6.30177 10.0124
-8.20876 3.91686 -7.51486
8.49095 10.005 -4.17438
2.69069 6.95079 -11.5791
7.42607 7.97012 -2.05136
11.8061 7.66912 7.733
-3.23234 4.8903 16.9429
-7.99699 6.04299 0.561043
6.71076 -0.273304 -19.0038
7.35359 -4.24776 12.012
-8.20545 7.71467 -6.19492
8.00466 -6.1264 -0.0825849
5.95755 5.32137 -18.9567
-0.0256654 6.47667 -5.71492
11.8117 -6.01551 8.19158
-8.18578 -3.57639 5.40221
2.02459 3.5593 -6.01124
11.5838 -9.91757 3.96433
8.38339 2.38565 12.0706
0.235951 8.34152 -5.79671
6.4844 -10.0112 -8.09751
4.39578 -9.87842 5.51689
0.680545 8.4572 -10.0027
-3.7443 -4.27833 -14.1903
8.08893 -3.07787 -13.4892
11.7242 -4.30192 9.73965
-6.32423 -10.0146 8.13053
6.22324 5.42773 -15.8342
-2.76646 -5.98904 -3.88276
8.11159 4.32337 4.15258
-8.05422 -9.88194 1.80629
3.89328 -10.0081 -8.16913
11.808 -7.98224 -0.817172
-8.20443 -4.59356 -6.28287
-4.44987 1.83918 5.7216
9.85972 10.0089 -0.0178737
-4.76024 2.77893 10.1235
0.0790577 6.56011 18.8662
-2.38432 -8.15662 4.30087
-4.98654 -1.73194 -11.8086
-0.719698 -9.69947 -9.91182
-4.24292 -6.03807 1.3269
7.52427 8.02509 1.74069
-8.05992 -5.04295 -9.84447
11.7149 4.0157 4.82331
-2.17982 -6.37162 4.48715
4.11042 -9.94508 9.62279
-7.96522 9.95432 5.68139
4.41983 -4.50099 5.40305
2.89883 2.54735 5.89347
-2.87388 1.16517 -19.0048
-8.04909 -9.90691 -2.06137
7.27242 -4.59023 10.196
-6.13581 5.98846 10.0077
-5.06595 -1.4058 -17.131
-2.92977 -0.95146 19.005
5.89675 4.20831 4.43932
-8.20452 -6.42451 -6.03833
7.78077 8.04053 -0.242127
-5.20015 -0.249918 12.0248
8.8118 0.295728 17.5967
-0.462519 4.63375 -19.0044
4.83156 8.17775 -10.0009
-4.35994 3.80832 4.63459
11.809 -8.34856 5.21944
4.94958 -0.983864 5.92467
-6.55896 2.02271 10.0025
0.0187298 -6.79057 16.9598
-8.2106 6.21475 4.36848
11.6638 -9.90254 -9.25804
3.49736 7.93437 5.75409
3.44834 1.26258 -19.0039
6.72966 -9.89012 -3.73571
0.213126 6.83489 16.9995
-4.77945 -6.23517 10.0021
5.99145 -4.41744 4.32248
2.54282 6.85781 -18.8728
8.7147 1.1073 15.8753
-8.20423 6.16419 -7.86289
11.8061 -5.45583 5.3122
-0.973505 6.50147 10.3035
-7.9845 -3.60848 -4.86368
-8.10954 9.79689 9.54777
9.75739 10.0072 2.01538
11.8056 -8.01012 1.16465
-8.20899 8.05621 -4.04381
5.13326 6.15874 15.0692
9.81391 5.93421 0.92481
-6.01167 10.0034 -3.29452
-3.81964 -3.93532 -18.7944
-3.60378 -4.48127 -16.7268
9.5364 10.0045 -5.99202
7.95846 6.44246 -10.0018
-1.15898 9.89832 -5.43927
1.2297 4.75744 19.0062
7.85085 -6.53163 -10.002
6.993 4.72743 -17.3593
5.25519 -9.85809 -5.07264
5.59078 9.86956 -9.85451
-0.868347 -6.49504 -16.8834
4.17723 -1.69727 19.0025
-1.45104 -0.551185 -19.0034
-8.04808 -5.73696 -2.20269
8.17334 -3.29815 10.0921
-3.06906 1.02047 19.0053
-2.37735 5.61996 -13.3881
8.08766 -10.0034 5.3739
-8.12217 4.20395 4.54792
4.18534 2.03819 19.0027
4.94923 7.99004 -5.09223
6.27308 -5.9345 10.0173
11.8051 6.2591 -7.22574
-0.131943 -1.93309 19.0056
11.5404 1.33079 -9.94183
6.53753 4.94224 18.7649
-3.99093 3.93756 15.3572
0.692818 -4.86053 -19.0035
2.3021 3.13132 19.0026
-8.17234 1.1569 9.7719
-2.41458 5.32415 -18.8051
9.92394 -4.26111 -4.21222
0.837854 -9.92428 9.79693
5.68259 6.06516 -10.1074
-4.30283 -6.16214 -0.451763
7.59278 -3.93302 13.8726
-8.19487 5.97362 -2.7233
2.04131 -3.02311 19.0038
4.27316 -1.3132 -5.85092
3.76071 0.479429 -5.99027
-8.12888 9.79359 3.96572
6.75418 7.61765 3.36877
6.64674 9.91177 -3.87857
8.00466 -9.90371 -0.29139
11.8058 7.98372 -7.78723
11.7709 -3.8779 -9.69402
4.23115 4.20639 5.47995
3.08458 6.88895 -15.2845
3.21841 -6.86833 13.2134
-3.40496 -9.84343 9.88539
-2.5934 -5.44923 -13.3883
0.549293 0.0752744 19.0025
-8.07654 9.87592 7.52007
-7.87166 5.04815 3.27233
-2.88024 5.20489 11.7344
-4.45692 -3.14151 -15.5157
3.25942 -8.16084 5.81052
11.7194 -2.57106 5.76674
-8.07042 6.53809 9.89362
-6.56409 1.47312 -5.80054
11.6716 -9.79697 -7.23416
-8.21529 -1.80151 -8.03392
8.73855 1.14654 -17.1432
-2.34876 5.63214 -11.6339
6.08577 -5.2799 18.9079
11.5932 -5.98115 9.9029
9.32422 5.28309 -2.84447
8.32671 10.0108 -7.8331
11.803 3.95174 7.43119
4.24399 6.56991 17.0291
8.07367 3.32892 10.1723
-3.90386 -5.8142 -2.19836
-5.00859 1.27437 18.7943
-1.46837 -5.94295 -18.9407
-8.11081 6.0847 -1.01831
8.52283 1.99082 14.1759
-2.35516 7.81721 10.0087
0.384961 -0.898828 -5.94911
-1.93289 5.92717 -15.2362
-6.39247 -6.16729 -10.0194
3.58066 6.79357 -17.0922
-4.27649 6.07986 1.05783
5.85317 -9.84476 9.93056
2.70109 3.09206 -19.0026
7.75821 -5.87394 1.64399
1.82784 -2.7349 6.00752
-4.35022 -9.84327 0.456933
-3.53826 -4.5214 11.9286
4.4248 -6.5008 -15.9167
7.76771 -9.85933 1.55287
-5.10688 5.35768 -2.70851
9.78974 5.89907 -1.06209
2.30856 -0.701896 -19.0022
-2.50518 -5.62463 10.2607
-5.53632 -1.20179 -10.0037
6.03643 -4.13412 -4.45684
-4.25485 -3.51165 -12.1857
11.6808 -9.82311 0.205954
3.41128 6.82862 13.6205
-1.67203 6.08118 12.7904
11.4794 -8.47789 -9.96658
-4.51588 3.04076 17.1184
-1.90677 -8.58211 10.0057
1.89726 -7.28177 10.0388
-8.01222 -9.9191 -0.108134
1.54384 8.27536 6.00388
-5.17653 -0.67127 -13.4441
3.33547 -9.90716 -6.0532
-1.69174 8.03941 4.88309
7.24738 -7.14139 2.49191
9.24643 10.004 3.97059
7.51537 -9.82604 -2.06888
11.592 5.79644 1.80136
-5.29566 0.423772 -5.99894
-2.36744 -5.64901 -17.2743
5.11136 5.94967 18.8317
-8.10372 -8.57507 -9.78681
8.14797 0.204895 19.0107
-0.831235 -6.48756 -13.2684
8.01702 -2.328 5.5416
7.32032 4.68959 10.1071
-1.84454 -5.97873 13.629
6.2889 -10.0055 6.39449
-6.32452 2.02254 5.65813
0.490622 -6.88399 -15.2105
-4.54243 10.0115 -4.56893
-3.03081 8.40959 3.53714
5.59172 -5.89582 -17.013
-7.97995 8.13534 9.97106
-2.0306 9.8554 -9.79693
4.16561 -6.59057 -14.0883
2.03072 -1.15048 19.0031
-0.751816 -6.52169 15.2122
-2.81902 6.62666 3.82406
-8.20685 2.57604 7.73965
-2.06571 6.16055 -10.0465
-8.20582 0.0697337 -8.06987
5.34516 6.05327 -17.2955
7.38377 4.24841 17.1202
1.19274 -6.97523 14.6684
3.95252 -2.71232 5.61628
4.03809 -2.78134 -19.0051
-3.48674 -7.6031 2.83379
4.61089 6.53115 10.187
7.20915 -4.4976 17.4763
0.732185 -6.31646 -5.91901
5.72029 -5.81292 17.2644
2.05085 9.96248 9.69743
9.41265 5.39666 2.64003
9.5436 -9.9781 9.65035
7.94836 6.14684 0.020855
-0.833448 1.51849 -19.0057
5.0468 -9.92067 -9.79211
5.06474 2.52063 5.43938
-0.776447 -7.95559 5.43953
7.65245 10.0017 5.54333
-8.12593 -4.83518 -3.96362
0.971118 10.0087 7.90807
-8.15108 -6.882 -9.74589
10.1743 2.72477 -5.34541
6.31816 -5.34983 13.3919
1.07334 -2.67884 -5.95932
7.93028 9.90987 -0.817027
8.39816 2.40061 17.21
-3.0052 -7.21263 10.0012
11.6527 1.13871 -6.0531
11.7781 2.74775 -5.62136
-0.180189 6.7317 -16.4455
5.62491 0.100143 19.0045
8.55792 1.83492 -11.5427
-2.36656 -5.30601 18.9644
-3.91441 4.41455 10.0816
11.5969 4.53518 9.90027
2.75807 -6.93582 -13.2713
8.73009 -1.09155 16.3351
-4.24597 2.77205 -18.9546
11.786 -5.34455 -3.46826
8.7963 -0.303598 14.5892
-4.86789 2.14801 -15.3698
9.61314 0.826472 -5.95455
9.41691 -10.0034 3.17029
-5.75536 -4.79934 3.60712
-5.07199 -2.57165 5.42388
-1.26316 -6.08212 -5.16159
-4.21816 9.94866 -1.96443
1.78292 -6.99977 12.3821
-1.26159 8.16898 -10.0083
7.38286 3.89964 -18.8982
-0.346153 6.72787 -10.2519
6.37701 -1.73543 19.0089
11.8117 -8.17877 7.73266
1.7682 8.57139 10.0066
-4.3119 10.0049 5.28521
11.8076 -3.36335 8.02869
-0.00637559 -1.96506 -19.0023
5.18852 0.906532 -19.0042
1.16656 -8.12799 5.98374
3.03231 -6.89305 15.18
1.99967 -10.014 -8.04623
3.4149 6.64906 18.8565
-5.20549 0.308767 -11.7126
0.286503 -7.91748 9.99094
-1.10829 10.0089 -7.66001
9.68072 -10.0085 7.30782
6.59067 10.0094 -8.09316
5.06307 6.19557 13.1589
11.804 -5.67904 -5.74809
6.70432 -9.79332 -9.89746
6.38718 10.0053 7.29714
-8.11536 9.78341 -5.12678
11.7548 8.12433 9.77347
8.65781 1.40678 -15.3362
1.7061 0.980772 -6.003
11.5277 -9.6652 9.84793
-4.76091 2.31465 -5.5409
-0.229183 -2.3471 5.66796
-3.90823 -1.02206 -5.91238
11.7851 9.72205 8.406
11.1245 9.76326 -9.98052
2.22403 9.90967 6.11919
7.95859 -4.24287 -4.24486
-3.75446 4.26474 -12.2159
4.7973 -2.94925 -5.32091
11.8055 -7.42823 -4.4521
7.73966 -7.95272 -0.828876
5.04356 3.13545 -19.0034
-0.780492 -6.29043 18.8782
-3.36027 4.83008 -10.2059
1.01219 -6.95996 -13.5255
0.458229 -0.109856 -19.0023
8.79238 0.270421 -13.8341
6.27318 -6.54337 4.00513
1.01942 -8.22293 -5.94036
-5.06048 -0.420572 18.8625
-5.07371 1.33868 -13.4126
-2.98089 10.0098 -6.18422
-1.99336 3.18484 -19.0043
6.71966 -8.35642 3.4171
11.7912 6.4761 -9.61374
2.84757 -9.7906 -9.93633
-8.20731 -7.8616 -7.64996
-8.20881 -3.71283 -7.98892
0.237697 9.968 9.76769
-4.27734 6.46141 10.0008
-3.86387 5.47105 2.73082
-6.18956 -8.10575 -10.0248
-4.57765 -2.3188 18.9407
8.74026 -5.25631 -2.88112
-3.78212 4.01992 18.8326
9.72153 5.16245 10.0054
-2.68238 2.82932 5.28296
-6.76414 4.95926 -10.0143
-4.14383 -7.7719 -10.0157
6.14801 -7.86136 -10.0067
-8.13354 -2.09558 5.90582
8.48701 2.49863 -5.45682
11.8027 5.72187 6.33534
-6.48132 -3.5662 4.82353
3.71727 6.80381 -10.176
11.8062 6.14096 -5.04621
11.6789 2.64841 5.66436
-8.13076 -9.70872 7.82739
-5.57548 0.383729 -10.0025
-3.1765 -9.78554 -9.93682
6.03133 -5.42872 -18.7349
-1.07268 -6.63099 10.0938
11.6755 -6.16993 0.0644622
7.9103 9.86559 0.833366
-2.26819 1.02779 5.92161
1.82151 -2.68903 -19.0029
-4.07436 -8.02664 -1.08794
9.85835 -4.39374 10.0086
-1.08797 3.98561 5.26405
6.36114 5.31116 -12.0258
9.85537 -8.35683 10.015
-4.92476 1.96085 15.4371
2.43554 -4.51476 -19.0045
-5.1852 -0.773968 10.2852
-6.20587 5.57729 2.20944
3.10884 -6.90223 -17.2199
-3.24752 -4.85118 13.716
9.8024 -5.93955 0.853144
5.49689 9.83934 -4.9236
-1.83096 -0.596021 -5.98662
11.8074 7.96645 1.07297
-0.7583 2.17087 5.62818
7.48694 4.07913 -13.5038
1.79822 -7.01424 16.8569
7.19632 -4.60895 -10.1584
2.57417 -4.50051 5.95284
11.5651 -5.49775 -9.86698
8.52729 -1.48435 18.7627
11.6835 -9.83819 6.23522
-6.619 -10.0095 4.63897
-3.80205 7.67749 2.04342
-3.96702 8.40931 10.0157
6.24179 0.870379 5.94516
-8.06016 -9.90332 -4.09482
10.0566 -0.928347 -5.93128
4.34254 -4.73186 -5.43665
-8.04486 9.88084 -3.13121
11.806 2.4063 -7.76305
-0.653817 -3.80421 -19.0072
-5.18445 8.41612 -10.013
7.70942 5.89018 -1.75561
8.16763 -2.89988 -5.26012
6.52478 5.16402 13.4408
4.08547 -8.41868 -10.006
-3.71342 -4.76746 10.0786
11.7205 8.22326 -9.79693
8.70296 -1.16828 12.7556
11.8063 7.63605 -3.359
8.06945 4.05382 -4.42337
-6.29832 10.0244 8.20577
-7.90864 -2.47251 9.96923
-0.501652 0.0551094 6.00158
11.5394 9.92017 4.97638
0.00404311 6.76763 12.1471
3.02693 -1.11898 5.93258
-2.11129 -2.71175 19.0044
2.34021 -1.03404 -5.99677
2.28546 7.00859 17.0884
9.95146 -10.0114 5.22513
-2.21373 -2.69414 -19.0047
0.328833 9.86547 6.02363
-8.01548 -0.254544 -9.94069
-8.11536 -9.79697 3.70185
7.01738 5.3213 3.17928
-3.7445 9.96126 3.09811
9.62006 10.005 5.98256
0.591259 -4.32456 5.8843
11.4912 9.92983 3.24691
11.5697 -3.82617 4.68379
-4.30392 -9.88772 -1.15593
8.32682 -1.67775 -19.0009
11.8066 -1.93909 -7.94592
11.8117 8.39277 3.74099
-1.95049 -4.07102 -4.73479
8.03379 3.1985 15.5762
8.91216 8.31224 -10.0168
9.88948 -7.18505 -10.0074
9.77567 7.65332 10.0105
8.25483 -0.242244 6.0024
-4.04964 -4.15298 -10.169
-0.299139 -6.25231 5.62289
8.22776 -3.24201 -10.1142
2.42395 -9.68919 9.94223
-4.34192 9.87074 -0.407475
1.0945 -9.71759 -9.9355
5.82342 4.1096 -4.50998
7.76783 3.66294 13.6941
-3.23253 -4.86096 -11.7122
6.96401 5.0333 -3.36595
-6.07332 10.0073 6.34775
1.99482 1.25823 19.0022
1.54906 -7.00087 -11.6845
8.78364 -0.0781883 -11.8646
5.3106 8.08886 4.86217
5.71639 -5.80446 -14.2952
-6.25171 10.0153 -1.34316
1.47173 1.42497 -19.0042
11.5445 -9.95975 8.13719
-6.09838 -10.0083 -2.88745
-5.15855 0.817335 16.9885
-6.38155 2.97897 -10.0108
1.74075 7.39005 -6.01164
0.909927 1.38358 5.95031
-3.06322 9.96652 9.60554
3.26833 -6.85717 10.5061
-4.52479 -2.8819 -5.26959
-8.09209 -0.698238 9.69235
5.17771 -8.0956 4.9488
-1.75914 6.04623 -17.0647
4.39893 -6.6716 -10.12
-6.89787 5.42805 -2.5364
11.803 -6.84345 6.3867
1.6483 -9.94058 -6.22288
-6.10459 5.97645 0.523494
-8.06196 -6.00564 1.41831
1.35556 6.98445 13.6644
9.77851 -5.90886 -1.04086
-1.1013 -4.64064 5.26447
2.36098 4.56733 5.98668
11.6813 -2.51677 9.82349
-0.596331 6.5864 14.5092
-2.54792 -5.49067 15.4439
7.28129 -9.9305 3.13888
-4.45926 -8.2518 10.0139
8.79532 -0.445251 -15.7087
-3.55638 0.0162406 6.00127
4.2855 -4.59565 -19.0055
8.31733 2.24196 -18.7902
11.6972 6.14388 0.135399
3.94166 -8.30264 10.0043
-3.43455 -7.79822 -2.92809
-5.19389 0.950478 10.234
8.05059 1.63646 5.77581
-8.17015 9.76288 -7.03409
-3.98314 -9.86899 2.17867
8.68363 -1.56988 10.3758
-2.99677 10.01 -8.05584
0.109508 -9.86758 5.86623
8.26192 6.40377 10.0033
7.11816 -7.7068 -2.77174
-2.53409 5.73623 10.094
-2.69295 -2.48071 -5.46086
6.79479 6.68995 -3.3295
3.21275 2.24598 -5.8005
5.93347 -5.75869 -10.1977
-8.08455 2.87468 5.53027
-5.84753 10.0075 2.61897
-6.18345 -3.97491 -10.0076
6.98458 -5.42363 -3.18613
10.0616 -2.27503 10.0054
0.0883253 -10.0087 7.80674
11.6053 -2.05125 -9.88125
-2.67953 -5.03116 -18.9427
2.19877 -9.89698 6.20472
10.3469 -5.36 -2.65354
-4.38829 10.0071 7.66855
8.18699 3.43429 -10.0812
9.35116 0.0164481 10.0092
11.8071 5.72788 8.26155
-6.26426 7.03512 -10.0193
9.41578 -5.03004 -10.0031
1.07998 6.96783 15.4157
8.76625 0.791885 13.0723
0.490041 -7.34755 -10.0114
-5.16065 1.73975 -10.1118
-0.659777 -7.94728 -5.47299
1.07228 -6.97457 -17.0001
-5.21365 5.08502 -10.0002
2.99531 -3.1303 -5.87915
8.77793 0.255427 11.5181
8.17147 -1.03653 -5.91564
3.26164 8.28054 -5.8081
-4.11516 -7.97131 0.944454
10.0925 -3.08745 -10.0072
-4.17564 9.82256 1.40353
-2.75013 10.0057 6.80402
1.64874 7.01774 -16.8257
7.54697 9.91211 2.52331
-8.09788 3.02558 9.80746
-7.96283 -0.692623 -6.00198
-5.08015 -1.32908 17.099
-6.17655 5.89639 -1.10291
4.65934 6.38476 -11.7671
0.320734 2.53164 -5.81405
4.77831 2.86335 -5.29095
8.48498 2.10203 -13.2202
1.11189 -0.879026 5.98353
5.58918 10.0057 -6.57489
11.805 4.41642 -6.43359
4.60067 -6.40716 12.1458
-4.40395 -3.44376 10.2484
1.45196 7.05753 -10.2438
-4.47386 -3.14732 -17.3458
-4.93132 10.0052 -6.46133
-5.94897 -1.1158 -5.89495
-4.95385 1.86691 12.011
-0.791109 -2.4626 -5.52613
1.10899 -4.91714 19.0056
6.66512 1.87899 -19.0132
2.34256 -7.30655 -10.0193
-0.812573 6.37204 -18.7174
-1.39802 6.05143 18.7586
1.99744 9.77278 -5.97802
11.8049 -7.76848 -2.66527
-5.40252 -2.21598 10.0112
-1.23118 -6.31 -14.8721
7.90068 -3.2529 -18.8163
-7.92786 -9.89778 -6.269
1.96186 6.45411 6.01744
11.7086 -5.99203 -1.70464
3.37349 -6.83324 -11.5451
6.6975 -1.09607 5.90952
-4.95797 -0.619884 5.98682
5.02739 -6.22864 5.05848
-4.47272 3.38627 -10.1089
8.77565 -0.852709 -17.4462
7.95094 -7.7203 10.0064
