4.58151 4.95855 -5.33475
3.6332 6.61041 -18.9997
-4.22566 1.48433 -5.80897
-4.35079 -9.99964 5.26146
1.04579 9.85098 -5.95874
5.4181 6.00597 -13.4304
11.7995 5.28548 -5.50664
-2.63983 5.41023 17.6251
6.36558 -9.99948 9.63279
-8.19954 -1.11352 8.05684
-6.50475 6.22114 -9.99939
-6.06137 8.24264 9.99947
2.31722 5.31417 5.98907
-4.1983 7.73809 0.399921
8.06002 3.15487 -11.485
11.7995 2.20146 -8.21011
-7.94744 -9.99948 -5.98327
-2.30586 6.53772 -4.38333
-5.04895 -1.46339 17.4256
2.56756 -5.03704 19
11.7995 -6.22408 -4.36295
-6.53636 0.849138 -5.95452
5.7936 5.78047 -4.47541
1.34093 -9.87235 -9.99952
6.43308 9.26637 -3.81814
-8.19943 -6.13043 9.89668
5.33451 -9.75709 -4.85909
11.7996 6.08252 -0.871445
-8.1996 -3.3082 5.27805
1.76477 -6.51178 -6.00964
-0.949509 6.43499 -16.8665
-8.1995 8.23645 1.59503
7.8879 3.89729 -9.99993
7.43916 -9.9994 -9.71159
7.46711 2.82107 5.29856
11.7995 6.38797 4.35438
1.62818 0.261989 19
-4.3495 -8.45158 9.99952
10.5692 5.27953 9.99937
7.25281 4.38774 18.8586
-2.50489 9.9993 4.55958
-4.09071 -8.24152 1.14886
4.59389 -6.42624 14.9445
8.38796 2.37642 15.5487
4.45933 -3.989 5.38432
11.7994 -0.0323035 6.24191
5.46248 5.71281 -18.9999
3.00313 -6.89987 -10.3156
3.32726 -5.28463 5.82399
-8.19951 2.92726 -9.77921
7.7307 -3.71743 -17.4936
-8.19954 -8.31997 -2.20106
9.68416 -9.99958 -1.06485
2.2777 6.81799 18.9994
7.85355 3.07576 -19.0001
-1.57764 8.13986 4.98185
6.77125 -4.93937 -16.7878
-6.53849 -8.29271 9.99941
1.90093 2.19593 19
-8.19956 9.69159 -5.87908
11.7994 7.22196 -6.02353
2.83133 1.23831 -5.8994
1.68628 -8.38501 6.0005
-8.19966 -1.31454 -6.03765
11.3674 -9.7592 -9.99904
-4.12362 -7.87493 -9.99948
4.28155 -6.55319 -16.2511
11.7996 -1.63277 9.74645
-2.99606 8.23497 -3.62723
-8.1995 5.78268 -8.02875
-1.04041 -6.39628 -14.4383
9.92467 -2.12927 -5.62045
7.73219 5.53234 -2.33272
7.9253 5.96562 0.686109
11.7995 -7.43826 2.5504
11.2162 9.99952 9.83061
-4.42179 -9.99958 0.176093
2.84473 6.92021 -11.5227
7.17344 -4.48369 14.1842
-6.64569 9.99953 -4.96605
4.25735 9.78433 -9.99946
-8.19954 -8.80941 5.56254
6.83641 4.84552 -3.58529
-3.84373 4.14993 12.6407
-4.77117 -1.27859 18.9996
4.54571 6.45011 16.3731
-4.73796 -9.99952 1.50102
-8.19954 -9.98446 2.72894
-6.3579 4.3429 4.14359
-8.19951 -2.10654 -7.99514
11.7995 7.19696 2.29596
-8.19994 6.04975 1.08401
-8.19957 -8.0388 3.64057
-2.72482 1.97607 5.69067
-2.64674 -5.40319 -15.3539
11.7994 -6.20134 -0.252019
1.33796 -9.99949 9.82778
-0.886535 -6.4614 -18.7809
8.52649 -0.942022 -18.9998
4.22451 -2.93388 -19.0001
-4.68493 -2.66448 16.0622
-2.54689 3.52623 4.85414
0.568279 -9.99952 -8.02324
4.15976 6.36373 18.9999
4.47769 6.47444 12.8271
9.35227 -3.73664 -4.69609
-8.19949 -5.81768 8.28624
11.7997 1.00978 -9.79616
-4.69591 2.6366 16.2484
-4.41351 -3.22921 18.7513
-6.63363 6.08245 9.99947
-3.94572 3.99984 18.7175
-6.02843 -9.99961 -2.84425
11.5278 -4.66513 -3.78661
9.5389 -5.35216 2.72915
-5.19018 5.22171 -9.99955
11.7995 0.321188 -7.53025
-4.70177 2.62489 12.0154
-2.3276 9.85219 -4.36232
-3.10397 -5.00295 18.8278
4.46344 7.24478 -5.3926
-0.855985 9.99914 -5.5837
10.1664 9.99953 -3.70296
-3.99702 6.43322 -9.99955
-1.63226 8.07021 -4.92678
-4.22674 0.732198 5.98656
9.84452 -3.05017 9.99961
1.0581 6.97273 -11.7758
7.08084 8.46196 2.83796
-3.91154 -9.99957 2.961
0.550857 4.74695 5.89935
6.1689 -8.54637 4.12592
6.34946 -6.90973 3.94574
-7.93006 9.99966 -9.68514
2.92498 -6.90183 18.8123
2.00425 7.02 -13.6609
8.2154 -9.99967 -5.02223
-3.6724 9.99956 -6.31054
11.7994 -7.89259 -8.19092
-6.49495 2.43439 -5.48035
7.0364 4.64734 -18.8815
8.03648 1.4154 -18.9999
-4.39356 4.09437 4.39534
-8.1995 -3.57419 -9.07452
11.7995 -2.89261 7.48854
8.7933 -0.246214 15.4354
-0.916057 5.74559 -5.356
-5.13618 0.948536 14.7607
9.32791 -9.99949 -6.59567
-8.1995 7.89913 5.44179
-8.19956 8.16298 -0.453805
-8.19953 7.79793 3.4821
11.3882 2.95581 -9.99945
-0.340043 -0.597658 -19
4.78229 -6.85023 5.21257
8.22475 -2.7807 13.3951
1.90353 9.99951 7.78161
-8.19944 8.63097 7.73043
-5.11172 -1.09694 13.8989
5.62412 8.39481 4.62584
0.76158 -6.94607 -15.1953
9.75843 -5.59406 -2.17255
1.97906 -7.01712 12.2367
8.23713 -2.74326 -18.84
-4.04265 -6.11229 1.37782
5.92705 -5.65661 -15.4515
11.6115 5.94432 0.842223
-3.63711 -4.42421 17.1542
-3.51008 -5.56472 2.83016
9.43247 9.99966 2.42853
-1.19077 -6.33332 13.3024
9.80429 3.66422 -4.75451
-8.19969 5.3898 2.83683
-6.02164 9.99961 0.0336045
3.86695 1.50842 5.814
-2.88116 2.63513 -18.9998
11.7995 -0.784911 7.96589
-0.965952 -9.99945 9.85995
0.11635 -8.47989 9.99956
-1.80635 -7.97589 -9.9995
0.248148 9.99962 -8.15629
1.00197 -4.23095 19
11.7996 -1.2088 -8.53927
0.922826 -5.04123 5.94799
10.2183 -1.24646 9.99964
-1.19871 -6.32879 18.7454
1.94279 6.75809 -18.9997
-8.01312 9.99931 -0.0529172
2.86492 -0.93044 -5.92772
-1.10812 -5.21445 5.24385
-4.17299 -9.99951 -1.9612
-4.28209 3.49702 -15.936
0.794376 -6.95247 13.4514
8.82466 4.6317 -3.84232
-2.21408 -5.75132 17.1097
10.2294 5.76676 -1.73113
2.45947 9.99963 -8.11328
-4.46437 2.47026 18.9998
8.15854 2.93751 -15.7438
-2.70459 -5.11637 -18.9997
-8.01114 -4.37048 9.99958
4.64906 -0.739947 -5.98756
1.13734 9.89708 -9.99947
9.05406 0.723151 -10.0001
7.07359 -9.99957 3.33539
11.5883 -9.99937 -8.05359
-8.19955 -8.38831 -0.358615
-5.99795 5.54285 2.28853
-0.379681 -6.66783 -16.6626
11.7998 -4.58344 4.36826
0.650335 6.69049 18.9995
-3.77518 4.25155 16.6584
8.76054 2.30161 -9.99984
-7.92505 1.18807 -9.99959
6.69786 -9.99968 -5.66083
9.54967 5.95956 0.753192
-6.28285 -3.30337 5.01061
-5.51554 -5.64214 2.07664
-1.79152 0.802095 -18.9999
-8.19947 -5.3668 -8.44289
7.65816 -3.83424 -15.5971
2.35361 -6.63219 5.98484
-2.72946 -5.33501 -13.2405
11.7994 -7.87324 9.81036
-2.71275 -9.99968 5.35886
5.9525 -5.63781 15.9203
7.87362 -3.48142 -13.923
11.5584 8.41887 9.99928
-2.34369 -6.0027 -10
11.4195 -0.917232 -9.9995
11.6057 -1.52238 5.80327
-5.19912 0.516301 -18.7504
5.44488 -5.15032 -4.77241
2.17145 1.38575 6.00864
8.92074 -9.99955 2.72973
4.92539 9.71677 -5.11208
11.7998 4.24172 4.5113
8.56524 -1.83492 -13.4912
-6.49661 -9.99961 2.28139
0.937032 5.27228 -5.94697
7.96101 -9.99946 7.8465
4.22772 7.14429 5.48966
-5.11081 5.63338 -2.10705
-1.13225 6.36164 18.7589
0.115568 -9.99882 -5.97715
7.66968 9.99917 1.91183
2.52279 -9.99947 -8.22913
11.5289 0.278865 9.99952
-1.14497 -9.82102 5.22848
11.7996 9.82735 -5.25541
6.35707 -2.82543 -18.9999
-2.49845 5.52545 15.5135
1.62494 -9.99992 6.19334
-6.8424 -0.873972 -9.99972
11.7995 7.71462 -0.405329
8.50215 -1.15573 18.9998
11.7996 6.26931 9.72472
-1.23651 -6.31469 -12.4124
-0.897777 9.63517 -9.99935
1.13382 9.9995 9.90248
-5.14176 -0.935534 11.5085
5.71635 5.80109 18.1417
9.75633 2.11912 -5.62688
7.79295 -7.86008 0.530364
11.6608 1.21155 -5.87688
11.7995 -7.50854 0.882104
4.507 9.99961 -8.21296
11.6673 -7.99614 -9.99946
11.7994 8.77939 -8.87293
4.49683 -6.47242 12.874
6.46493 9.99955 -8.83256
3.97254 -5.17943 -5.58997
11.7996 -8.94077 3.45263
-4.53077 4.52681 -3.94805
-8.19954 9.72469 -4.09726
-2.41088 6.70829 4.30203
-4.7867 -2.37162 12.6789
2.00839 -9.99964 7.85554
8.99594 -1.02968 -10
2.95182 5.00223 18.9999
0.647156 -1.43172 -5.9077
-8.19956 5.71006 -6.08441
-3.40426 4.67961 -11.9808
8.99612 -9.6726 -9.99938
-5.16462 2.68704 5.36915
11.7997 2.78167 -5.54194
-8.19949 9.69304 4.99412
-7.9338 -0.0775605 6.0003
-6.70116 4.19271 -4.29013
11.7996 -5.83443 -2.01656
-4.34633 3.36068 -12.6026
7.86176 -9.9997 -1.11471
-6.849 -2.81768 -5.3025
0.4002 8.4657 -9.99958
-7.98347 -9.99945 -1.86873
11.7995 -6.76205 -6.3206
1.03657 -5.06401 -19
-1.93287 -5.92136 -16.9514
2.20758 -0.436338 6.00382
-3.31544 4.77562 -15.9153
0.292943 -6.67465 5.8088
1.26397 -1.07139 -19.0001
-2.00974 -3.53323 4.84922
-6.75519 0.238794 9.99963
5.0307 -3.51152 -5.08214
-3.9984 9.99951 -4.0112
-6.15629 -7.81772 -9.99942
-2.57952 9.81798 -9.99923
8.4457 9.99954 -7.12585
6.91366 -4.7893 -18.8347
7.51227 9.99939 9.78599
6.51518 7.88237 9.99944
11.7994 5.85269 -7.354
-4.60615 -6.84674 9.99957
-5.3642 0.114123 -9.99958
-3.33269 -6.9365 -3.10116
-5.19703 -0.511843 15.8349
9.85432 9.99951 -5.70542
-2.85854 -5.2323 12.2152
7.76604 -2.62795 -5.39485
4.74682 -6.34889 -14.1095
9.4231 9.99935 9.86104
5.66547 6.35775 4.6131
-8.19952 0.532952 9.26966
4.43881 -5.12378 18.9999
4.86572 -2.03691 5.66979
-4.50289 -3.04478 -11.8757
-8.19954 -7.20549 5.55273
6.01542 -5.5932 13.1659
-4.85355 2.16691 -16.9978
-8.19961 -6.16851 -3.68421
-2.77316 5.29904 13.6827
-4.60226 -2.83298 -17.3932
-2.40396 4.58966 18.9997
6.45716 3.83609 -4.60861
8.80196 -0.101263 17.45
10.1201 -9.99955 -2.58371
-5.37161 -5.4671 -2.46066
-2.36346 7.85616 9.99942
-1.7468 -1.39243 -19
3.40074 -9.99931 6.00639
-5.94534 -1.39808 5.82923
-6.30137 -5.78489 9.99942
10.1014 4.62789 -9.99949
7.99166 -2.84343 19.0001
-8.1994 6.63567 -9.81913
-6.28752 -3.42519 -9.99971
-5.12034 1.08196 10.2321
5.94498 2.58378 -18.9999
-5.12631 -1.90557 -9.99994
-1.07199 6.3864 -12.32
7.01743 -8.43388 9.99948
6.91473 6.60627 -3.15581
3.06913 8.67071 5.879
-5.08905 1.23346 17.314
10.3598 9.99948 8.10584
-4.43249 -9.99951 -9.82649
6.00567 4.35371 4.27732
11.6657 5.29185 2.84806
-4.57353 2.8957 -14.2025
6.35946 -5.31174 -11.5033
11.7996 -9.64829 9.76172
8.31991 5.58016 -9.99963
-8.19943 -8.2877 -9.70674
3.64307 -2.79398 -5.73512
-3.70745 -9.99951 -7.9789
3.16107 9.99965 6.32632
8.26245 2.68312 13.743
6.94077 -4.76647 18.8196
5.84804 5.71002 11.6133
11.7996 9.82684 4.67674
10.1442 0.0789036 -5.99618
-0.165176 8.19953 -5.68083
-8.07438 -4.0479 -4.43208
6.86756 -4.12506 -4.38756
2.92023 -0.819143 -19.0001
-8.19949 1.68565 5.93485
-8.19946 -7.54483 7.28563
-5.19083 0.584936 -16.7987
6.61051 -0.756272 -18.9999
-1.09129 6.37416 14.2432
7.27364 -7.89354 2.46741
-8.19952 2.03007 -7.9091
7.40156 -5.38229 -2.67457
-0.00370862 -6.76772 10.1201
4.49003 6.48281 -12.0502
6.43398 9.99951 8.27522
-2.39386 5.60889 -10.8786
-5.20455 0.535424 -11.8759
5.11866 4.47412 18.9998
7.68529 -9.80385 1.13407
10.0059 -7.82851 -9.99943
-8.19953 -7.08633 1.01721
8.58484 1.77404 -12.274
11.7995 9.64305 8.43688
-8.19945 0.587617 -6.21012
9.86745 0.451108 5.99363
-4.15591 9.79129 0.862167
6.74984 2.38076 18.9999
-5.07073 9.99943 8.24357
8.28569 0.896249 -5.94726
7.16498 -4.49613 11.9044
7.67699 -9.99951 -7.47467
-4.16553 -4.72777 9.99976
6.35039 5.32224 -10.2427
-3.71487 4.31819 -10.203
-8.19956 -2.98825 -5.82843
8.50235 -2.1005 -16.892
8.38207 8.45745 9.99951
-1.95348 3.98227 -4.69891
7.31556 9.82325 -2.36189
11.7994 -6.68712 4.51001
5.69899 -5.38818 4.56858
11.7995 -4.79232 8.50486
11.7994 8.16659 -4.31771
4.68661 -9.99947 9.77142
1.56401 -6.99287 15.446
8.30627 4.2023 4.28451
8.03176 3.21157 -13.5749
-4.20065 -3.62461 11.672
-2.75193 -5.31667 10.238
2.86407 -6.91849 -14.5366
2.53551 4.30352 -5.95421
1.32754 4.16328 19
8.52643 -9.99971 -3.12372
4.69984 9.99942 5.38945
6.3835 -6.14839 -3.88431
6.82233 -9.82667 -3.29658
7.59652 7.56585 1.56226
-5.9061 -4.31279 -4.17205
-5.82561 9.99954 1.75743
6.64644 -5.05269 -13.5689
-4.48726 3.07665 10.2454
9.61374 -9.99932 -8.54075
-2.25942 -3.03925 -18.9999
-8.19954 -0.419768 -7.53444
-3.34151 -4.74856 -17.4875
-4.8043 6.57486 9.99945
4.61857 -0.858439 -19.0001
7.8129 9.48014 -0.0830351
2.35195 -4.75521 -5.98702
-7.91237 9.99937 1.86475
-3.8037 8.61965 -2.15129
-2.7594 8.22245 -9.99938
-4.00444 5.51244 2.37775
-8.19953 1.0533 7.497
-1.40243 -9.76236 -5.06221
-3.47536 4.60203 -14.0053
4.9566 3.27855 -5.10485
11.7995 -7.97378 -4.44243
6.74824 9.99961 -7.07865
1.67454 2.75219 -6.00302
8.37466 2.03768 18.9998
11.7995 8.30573 -2.30018
11.6086 -9.99926 -0.504189
-8.19949 5.89883 9.88434
8.90485 -4.87811 -3.50365
1.61344 -7.68259 -9.9999
11.7994 -5.01298 -6.70562
2.11407 7.00648 11.2082
-7.9295 -9.99948 0.517195
-8.19948 -6.25353 4.00005
-4.1702 -8.62439 -0.706101
4.93131 -6.25798 -12.1654
8.55166 -1.88182 17.2156
5.04819 6.20193 14.4009
10.3686 7.28591 9.99939
-2.6149 -8.502 -4.06
-2.00591 -5.87751 15.2001
-4.83142 2.24277 -18.842
11.7997 4.26547 9.51686
10.0408 -4.23199 4.24731
11.7995 2.91144 5.42732
-8.19951 3.27078 6.65692
7.94175 2.72589 -5.3442
-3.82325 9.99921 2.67345
2.83135 6.92191 17.191
-6.12429 -9.99965 -0.78774
-7.88903 -9.99957 6.54403
-1.68672 9.99954 -8.49286
7.37529 -6.91004 -2.22191
3.16517 -6.87809 -12.5704
9.44297 -5.86597 -9.99942
2.9751 9.99973 -6.14827
-7.354 -5.10333 -3.17642
-8.19955 6.06179 5.03273
0.756936 -6.61322 18.9997
3.66946 6.74891 -13.9761
9.65156 2.55764 5.42714
7.5562 9.7535 -9.9995
-5.12967 0.982018 -13.5115
0.473608 0.121396 5.99502
-3.90561 -4.05598 -16.1512
-5.04723 -2.88348 -5.27136
11.7994 7.67067 8.38415
-3.4813 3.03819 -5.19314
11.4257 -9.99922 -6.26562
8.67404 -1.30621 -15.0791
-4.36186 -3.32964 14.0759
-2.12616 2.13471 18.9999
2.82732 -9.48688 -9.99954
-2.02709 -9.9995 8.57641
11.7995 -9.84056 7.9465
-2.74594 -2.01639 18.9999
3.16616 -1.88562 5.85044
7.98485 -7.59358 -9.9994
11.7997 -2.8859 -9.82148
-4.70003 8.12608 -9.99939
2.5731 9.51271 -9.99953
11.7995 -5.97773 -8.44925
0.905994 9.99966 6.15678
4.61084 6.41792 -15.3649
-4.08103 7.0605 -1.17187
-4.32085 9.99951 -0.729038
0.0594757 -8.44249 5.74788
11.7994 7.05939 -9.07098
11.7996 -8.2311 -0.535273
0.447416 -8.36385 -5.86012
-8.19955 -9.50567 8.10297
11.7994 6.32396 -4.06838
0.30484 1.5779 19.0001
5.45093 2.5585 5.41919
3.62628 6.76316 -16.7611
-0.383044 -2.5448 19.0001
-8.19956 7.37073 -4.36074
11.7995 -2.58693 -7.29323
-6.4601 8.01862 -9.9993
5.64454 -5.85013 11.1421
5.68817 0.497518 19
-4.30374 9.99958 4.76782
-6.33636 9.99954 5.03473
7.04227 4.64155 16.9502
1.74648 3.30995 6.00919
-0.290505 0.0275109 19
-2.67575 -9.99968 -6.09847
5.80637 8.9619 -9.99942
11.7996 1.16299 8.41431
-2.90374 4.94166 3.74715
7.04193 -5.42871 2.93025
-2.05277 5.83756 10.064
-3.79169 -4.22489 -14.3461
9.23891 -4.5989 9.99955
11.7993 -5.4638 2.9198
6.57407 5.64811 9.99978
-4.54428 -2.95477 -13.6631
3.05636 9.99951 9.83558
4.41236 -6.50413 17.7389
-2.25219 5.72475 -13.4117
9.97172 -9.99939 9.72468
6.30318 -1.27249 19
-2.07413 -8.60944 9.99945
-8.19951 -4.51135 -6.89072
2.06883 -2.93585 -19.0001
3.77403 4.92192 -18.9999
-2.46713 5.55168 -17.5009
8.32787 -2.5214 15.419
8.17794 -9.99943 9.77812
8.73866 -8.50111 9.99943
1.8788 -2.76627 -6.01512
11.7995 -8.53904 -6.43694
-5.18487 0.690054 12.4432
-3.45964 0.492172 -18.9998
5.03584 6.2067 -17.2238
2.16278 7.01245 -17.3149
8.75424 0.923844 13.6667
-8.00474 9.99968 6.60027
11.7995 8.14106 3.95176
0.433191 2.19585 5.85215
11.7995 7.87338 6.31115
9.77386 -9.99953 7.01615
-7.9539 8.82296 9.99967
0.566229 -4.07153 -5.89322
-7.84422 -9.99957 9.78945
5.23679 -4.99092 -18.9998
1.80155 0.97119 -19
4.33744 -6.53052 -18.8137
11.5616 9.9992 2.7378
8.97245 0.182014 10.0001
10.247 3.53363 9.9995
-8.19963 2.24287 -5.85182
-0.0715947 3.71309 -5.69672
-4.74236 -2.51555 -15.4271
6.14751 5.5035 15.5835
-8.19958 -4.94565 5.27689
-8.1992 -7.76644 9.83051
7.91661 -5.97816 -0.591715
6.274 -8.31326 -9.99936
-2.01081 5.87451 -15.3964
7.89617 -5.84585 1.37665
-3.46683 -7.93972 2.89446
-4.76354 2.98816 -9.99997
-2.22714 -9.99961 6.97251
-7.7823 -4.54454 3.93263
5.96091 -6.41926 9.99972
-7.96454 -0.856357 9.9994
9.71153 9.99957 4.58944
10.9909 9.99937 0.857871
-2.24928 -5.98587 -4.4358
3.86042 6.68923 10.8116
8.13505 2.98427 12.0127
8.58099 9.9995 7.91339
4.41215 -1.51694 19.0001
5.37981 -7.35437 -4.82726
-5.02597 1.60854 -15.2593
3.15585 -9.9995 9.57047
-5.49404 -9.99939 9.75392
-0.894827 -2.34315 -5.52863
2.5535 -6.9565 -16.222
4.66666 -8.74123 5.28487
-2.62318 5.42341 11.8931
1.1864 -6.97559 -13.2141
-8.19886 -9.71077 -7.85943
-7.96498 9.9996 -7.6785
-5.08117 -1.27827 -13.6487
2.26333 6.99565 -15.4258
8.74223 -0.965156 13.6272
2.86622 -6.91635 14.072
-6.72872 5.30536 -2.79718
7.46726 4.12895 14.9555
9.28235 -9.99959 4.82359
9.90388 -5.99431 -0.15113
8.13357 -0.940858 -5.93892
-5.02334 0.570077 18.9998
-8.19912 8.42408 -9.80699
-8.19952 1.91818 9.86101
5.84233 -2.08704 -5.66005
8.52859 1.98523 -17.2965
-4.38656 9.9993 -2.25113
-7.91248 -9.99838 -9.68465
11.6642 9.99937 6.57804
-4.75934 2.46043 13.8263
-7.94893 9.99945 3.50349
-4.11173 -4.48989 -3.98532
0.477296 6.88401 -18.2465
-8.1996 4.23048 4.57068
0.88448 6.95482 17.0843
11.7995 -8.14707 -2.31729
6.73614 4.9661 -11.921
10.3964 6.65289 -9.9994
-8.19959 8.31053 -2.48621
-8.19947 4.78042 -9.76223
-8.19964 6.1929 -0.641765
-0.34913 9.99954 7.99622
7.304 4.32345 -15.4095
3.58586 3.46117 5.75315
-1.01953 6.27973 -19
8.15007 9.99959 4.11693
-3.93125 -1.15061 5.88747
11.7997 9.80348 -3.22336
-6.38733 5.98887 -0.407397
0.315139 6.83749 -13.3066
0.025104 -9.9997 6.24936
-6.05274 0.836687 5.95183
11.7994 3.81181 -6.98829
-8.19955 -3.72499 8.23983
-4.13373 8.28307 9.99938
5.34068 9.99961 6.88272
7.46239 7.83825 -1.97884
-7.85629 9.99957 8.7976
0.31339 1.81356 -5.81455
3.16829 -0.562507 19.0001
-8.19949 6.90239 6.93112
11.7995 -8.50347 5.40369
9.07826 9.80248 -9.99966
-0.0399301 -6.75469 14.8794
11.7997 -9.6872 1.42461
-6.51264 4.04725 -9.99953
11.6273 2.28588 9.99946
-7.98095 -1.66554 5.77828
-1.34708 4.43007 -18.9999
-8.19951 -8.06411 -3.91517
-4.06743 -3.49662 -18.9995
-4.09396 -2.80127 5.30962
1.15917 7.14073 -5.96543
-0.369245 3.05521 19
8.18156 -6.48749 9.9995
-5.41175 -1.33493 10.0001
11.7995 4.03097 -8.67498
8.3778 5.91498 -0.99707
-4.16217 3.67644 -18.1445
-6.02605 -9.99956 -6.20504
-4.141 -9.99948 7.66784
-3.28809 -9.99987 -3.77679
-3.66609 -8.43311 -2.47738
3.69258 -6.8268 -5.70421
11.7995 2.85607 7.93593
-3.15423 4.7325 -18.9993
-1.46488 -7.64441 -5.04973
11.7993 -3.18413 5.4008
6.85027 4.86156 -13.6693
5.80802 -9.99941 -9.65577
-3.51607 -1.36439 -18.9999
6.70564 6.77111 3.44417
11.7994 -3.36798 -5.23582
11.7998 1.45846 5.99761
7.75985 0.874789 5.95274
-1.32996 5.49349 5.12739
-8.19947 -8.31496 -5.78655
6.76004 7.03887 -9.99958
11.4193 -4.60302 -9.99934
8.1252 0.338159 18.9999
-5.65208 -9.99953 6.59531
5.56329 -5.90634 -17.6213
9.71576 -2.8691 5.28904
-0.999777 6.41512 16.7459
3.65499 2.80671 -5.72473
1.81709 -9.99956 -6.26444
-0.782126 -4.59651 -18.9999
-8.19964 -6.07361 -1.80153
3.5245 6.79518 14.8226
-7.9739 -9.99945 4.43452
-4.87186 2.11785 -11.4511
9.02379 -1.29106 5.85677
11.7994 -8.1158 7.63322
2.30736 -8.45646 -5.98614
6.40648 5.27222 -17.3103
-1.32207 2.47427 -5.47234
-8.01235 -5.51791 2.36829
-4.41435 -3.70922 -10.0002
0.671215 -6.92195 -11.5545
-8.19965 5.01142 -3.93681
9.62307 9.99949 -8.56426
-8.00879 -2.37945 9.99949
5.94858 -3.81529 4.63144
-0.564729 6.59501 -14.6181
-0.0218941 6.65134 5.71633
5.84076 -9.99959 -7.23036
4.45425 -9.99961 7.52607
4.02728 -8.46192 -5.57594
7.76437 -9.99966 5.75535
8.69893 6.89516 9.99952
-0.820094 9.64585 9.99942
5.80541 -5.74245 18.4204
8.18354 2.90226 10.1287
7.37963 -4.2318 16.0421
-0.0484625 -9.47748 -9.9995
11.7995 5.55102 5.83888
3.15772 6.09211 -5.85447
11.6452 -1.21073 -5.87852
8.66065 1.36133 -15.3464
-4.025 9.99958 6.59105
-0.0267154 -6.5928 -5.71119
4.33155 5.0969 5.44301
6.43288 9.99973 5.24787
1.30881 -1.63175 19.0001
11.7997 -3.18186 9.67991
-4.45048 6.0068 0.422913
9.55915 1.69264 9.99971
7.92407 -4.32983 4.14869
8.51649 9.99966 -4.2012
-4.04533 -6.71875 -1.37151
1.07506 -1.74149 5.95941
-2.32738 9.99959 7.05953
11.3842 9.82941 -9.99822
-2.30734 -6.70132 4.38626
5.68122 9.99945 9.8643
-0.424443 -3.32915 5.58871
2.91588 8.28955 -5.89198
-8.19953 7.64938 -6.42422
1.30491 -6.79542 -18.9994
3.2655 3.26368 18.9999
-5.29433 3.33926 -4.98455
-5.9913 -9.99942 -7.91328
-3.50548 -3.31789 -5.00637
9.49424 -9.99956 0.589925
6.04875 5.57063 -15.3195
5.02068 -8.3192 9.99943
-7.38303 2.77473 5.32963
11.7997 -9.8381 -2.69329
0.741187 5.35 -19
-0.523693 -6.61068 16.598
-2.73036 -9.75717 -9.99945
-8.19949 5.59914 8.38267
-6.40922 2.63269 9.99974
-2.4302 -7.02532 9.99962
2.63566 -2.95278 19.0001
-2.14925 -3.65616 18.9999
0.0360888 -2.79258 -19
-2.06004 -3.77298 -4.66515
7.25605 4.3865 10.7178
11.7994 -5.03034 6.66145
-1.42531 -7.88543 5.0847
2.6275 -8.54046 9.99961
-0.52997 0.272186 -5.99491
2.65471 6.94638 13.1176
-8.19951 -6.22526 -5.59305
6.95377 -5.84378 -9.99968
-6.20305 -9.9996 4.69411
7.22198 5.56206 2.564
-8.19966 5.98673 -2.27198
11.7996 8.67897 1.29465
11.7997 9.74711 -0.596173
8.65919 1.38138 17.0445
3.95007 -0.31001 5.99273
-3.03716 8.72366 3.57931
-8.19947 -7.1769 -7.56386
-8.1995 -2.14189 -9.8821
-2.88763 -4.5335 3.93702
-5.83127 -4.8736 3.49484
5.89999 7.46222 -4.37699
8.75645 5.28489 2.85894
3.6587 -9.99953 -6.03116
-3.51818 -9.9994 9.78591
5.06604 6.43225 -9.99974
-5.70145 9.99951 3.44724
9.89283 9.99956 6.25054
5.61843 -9.99952 5.02743
-8.19953 4.91089 6.85625
10.0918 -7.84369 9.99931
3.50961 -6.79605 11.5776
6.15772 5.49375 13.4402
5.65557 0.412403 5.99737
4.5531 3.42521 -18.9998
-3.453 4.62583 10.0653
7.66094 -3.82324 -11.812
-4.56781 -4.17105 4.31468
8.79803 -0.127039 -16.4092
11.3285 5.13511 -3.13642
-3.48396 -5.39828 -2.86811
5.04254 2.41229 18.9999
11.7997 -9.7943 -4.50664
7.80124 7.35072 -0.303117
-5.08701 -1.23428 -11.8888
2.10556 4.44123 -19
-0.930001 3.56508 5.35716
0.150632 1.10487 -19
4.48992 -7.98908 -9.99956
-7.98925 -6.62215 -9.99957
8.79523 0.038915 -12.0344
7.51474 9.99963 6.58158
-1.28087 -9.99951 -9.51269
-2.99488 -1.91986 -5.70876
1.33439 0.32916 -5.99453
8.70991 9.99949 -2.33537
-0.85684 -4.89381 -5.39455
3.3123 -8.03312 5.82311
-8.19954 3.01553 8.45274
-1.30437 -9.99957 -7.41496
8.6876 1.24243 11.6941
-5.49346 4.50917 9.99965
-8.03019 9.99931 -2.26844
-0.947597 2.71649 -19
11.5121 -4.65404 9.99937
3.59486 1.1947 19
4.19459 -9.99945 -9.81373
-8.19957 3.67612 -5.14241
2.23348 7.06475 5.9992
-5.91515 9.99952 6.84237
-4.53454 -5.99742 -0.198114
1.82971 -6.99878 10.1728
8.73046 5.07042 9.99962
-3.88326 9.99945 9.82754
-5.05038 -1.44538 -18.7572
-7.95953 -9.99939 -4.0412
10.5378 -9.99947 2.21889
-8.19954 -5.5068 6.65457
11.097 9.99926 -7.48096
11.7994 8.94888 -6.8374
-2.68314 -9.5336 3.99272
7.6464 -3.85297 17.5254
8.79754 0.691877 -13.8481
0.0123949 -9.99955 8.2994
4.41367 8.83551 9.99951
11.7994 -6.80354 6.34759
0.698493 8.0355 9.99965
-3.46013 9.99954 -8.61875
4.89101 6.63999 9.99966
-8.19963 -2.75217 7.00321
7.16442 -0.956311 5.93842
-4.26333 -9.99959 -5.95618
11.5423 -9.99924 6.09072
2.00382 7.01688 15.3169
7.11008 9.99969 -5.11401
6.16102 2.02494 -5.67992
-0.642548 -1.39381 5.82986
11.3495 -5.82328 1.41689
7.63805 3.86542 -17.357
10.426 -6.08047 9.99938
8.44982 7.53794 -9.99948
-5.75704 9.99953 -6.3621
-3.05436 -5.0579 13.8703
-6.40427 -5.90479 -1.09292
7.95391 -2.95088 5.23825
-0.705813 -4.67717 19
-1.08512 6.37549 12.3067
1.18876 -6.97785 17.3746
10.9544 9.9994 -1.90871
-2.92502 4.96196 -3.69693
-2.16291 -2.05393 5.66856
5.10715 9.9997 -6.49898
-0.799557 9.85382 5.43199
11.2592 -9.99932 4.20045
-1.85735 6.52656 -9.99985
-8.1995 7.3511 9.5885
-6.08745 9.99955 -3.47472
-2.34607 -0.0515038 5.99539
3.08565 -6.88437 16.4462
-6.18121 -1.31433 -5.84952
-8.19955 3.9701 -7.43737
-3.70713 -4.34515 15.5074
11.7995 -6.47505 8.89251
7.40448 -4.45478 10.0001
11.7996 6.59948 -2.40107
-8.04154 -6.00713 -0.286281
-1.75101 9.99964 -6.82854
0.0977484 6.78724 15.3925
-1.99643 -0.510054 -5.99631
-7.87324 -4.72097 -9.9995
-3.65067 5.99159 -2.55104
6.08503 -3.20384 18.9999
10.0804 -9.99955 -4.54539
2.49234 7.8241 9.99974
-3.99556 3.92289 14.8343
9.82525 -3.11211 -9.99958
-5.11309 9.99945 -8.04542
11.7996 -3.93948 -8.39093
11.7995 5.93946 7.62937
6.63595 -8.11478 -3.55629
7.62306 -8.39877 -1.49251
-3.85418 -0.490996 -5.99568
-5.28705 -0.0632517 -5.99656
11.7996 5.33519 -9.81748
10.2574 5.57263 2.24486
1.2198 -3.40226 5.96925
-2.26642 9.99951 9.48028
3.00634 -4.84965 -19
11.5887 4.04048 -4.43824
0.544066 6.89654 -16.0035
-6.04595 -5.64779 -9.99961
-1.61722 -0.784587 18.9999
-3.48253 7.16118 2.85659
-6.24832 -9.99947 -9.824
4.29613 -9.99954 -7.94996
-0.351453 6.68596 -10.1414
8.07106 3.13344 17.3949
3.60237 1.28571 -19
-4.41181 -5.98076 -9.9998
-8.19951 -0.0782241 -9.39412
-4.6813 -3.08565 9.99993
8.53488 -1.9391 10.1568
-8.19958 -8.38111 1.96599
8.93822 9.99961 0.50821
7.26963 4.36683 13.0402
1.2314 -6.97749 -17.357
0.569025 6.90343 12.203
8.80595 0.317388 -18.2459
-0.351087 6.94567 10.0001
8.17449 -2.91855 11.4546
2.68 2.81479 -19
4.50317 9.99953 8.40127
7.71641 -4.35292 -9.99999
2.98461 -6.89547 -18.4464
-2.32265 1.20921 -5.87651
8.22039 -2.81337 -10.203
-8.19939 7.83663 -8.20477
-6.56695 -9.99943 8.25477
3.62615 7.21063 -9.99987
8.56054 -1.84154 -11.7985
-0.431557 4.79412 18.9999
0.241143 -6.82158 11.767
-0.937949 1.20725 5.87706
-3.23479 -4.8733 -10.2401
-5.19849 -0.33828 -15.0475
4.5698 1.00612 -5.9256
6.20098 -9.99961 7.2356
-4.69089 9.78892 -9.99936
0.69642 8.29101 5.92152
-6.44057 -3.39515 9.99962
5.23566 -6.31465 -10.0001
0.942666 6.96054 13.9194
-5.94579 1.78812 -9.99964
-1.35054 -6.2654 10.8394
6.4716 0.0899275 -5.99579
-3.92677 8.33345 1.82338
-8.06739 4.09378 9.99959
-2.91468 0.407081 18.9998
8.76487 -0.815767 11.7741
10.3002 8.44724 -9.99953
4.39032 -3.33277 19.0001
-6.49885 9.9996 -1.61294
11.7995 4.07291 6.87708
3.837 -6.8962 9.99974
2.81758 -3.50134 5.90888
-5.52699 -9.99961 -4.50443
-6.34599 9.99943 -9.68146
-5.11569 -1.07311 -16.6842
-6.9195 -5.90773 1.05544
5.478 0.843869 -19
9.44624 9.99956 -0.924828
-6.11651 9.99947 9.82045
-1.02706 -6.39837 -10.3996
6.53527 9.81742 3.67651
10.134 4.43991 4.03665
0.744604 3.10376 -19.0001
0.215108 -7.13596 -9.99982
-3.48292 -4.5912 -11.9249
11.5658 -6.30132 -9.99931
1.52858 7.15739 -9.99995
6.4322 -2.3323 5.5447
