1.49162 5.646 0.42402
-3.10331 5.83999 -0.883805
-2.79098 5.39724 -1.3588
0.67792 5.71971 -5.28885
0.661984 7.04135 -4.58342
2.37627 5.06859 -0.859884
-1.28103 6.78073 -2.89815
-2.08057 7.05291 -3.08816
-2.91517 6.2031 -0.917753
-2.50498 4.8538 -2.65723
0.663979 6.78782 -5.15788
-0.0726347 6.08677 -3.42315
-3.00827 5.53342 -2.20544
0.619313 5.01841 -0.294495
-0.603377 6.47733 -5.29415
-2.24962 6.57984 -0.368671
0.733372 6.39179 -2.81253
3.10385 6.43834 -1.74688
-2.84756 6.65513 -2.94099
-1.95373 4.8359 -4.13819
1.42467 5.2981 -1.90469
-2.20864 5.23646 -0.56561
1.25938 6.44253 -2.10248
-0.00554419 5.44128 -5.34146
0.0852583 5.88303 -1.03708
1.25914 5.26471 -5.16292
-2.83552 6.69008 -2.55783
0.532093 7.02333 -0.572094
-2.96793 5.50169 -1.77756
-1.289 7.12895 -0.328865
0.918271 5.95157 -2.79092
0.70658 5.79647 0.773209
1.3944 6.47183 -4.90033
2.07743 5.77571 0.037447
0.192548 6.93762 -5.23281
1.60142 5.09836 -1.54127
1.80245 7.1775 -4.19531
-1.18787 5.13817 -3.32551
-1.52065 6.01482 -4.95205
1.18299 4.78763 -3.47037
-0.820222 5.32972 -2.96629
-1.28618 6.48391 -2.52311
-1.46424 6.51556 0.361636
-3.27738 6.28361 -2.11434
-2.73642 6.1132 -0.540496
-1.87234 4.69326 -1.43451
0.253374 6.47898 0.839398
2.33168 6.55086 0.0904617
-2.54171 5.08962 -3.3267
-1.11532 6.81572 0.451854
-0.719489 6.87949 -5.22192
0.0100172 6.30452 -1.05751
1.05852 6.5549 -2.82367
-1.46088 6.68832 -2.19945
0.482949 5.04806 0.719246
-0.252026 5.01921 -3.93817
2.1496 4.71042 -2.10601
1.57 6.9823 -0.532225
0.911917 5.89163 -2.26781
-1.84804 5.05765 -0.589211
2.48309 5.1562 -3.15385
1.50344 7.05888 -3.71278
0.0904151 5.67512 -3.43827
-0.43262 6.48233 -3.38435
-2.13034 6.10805 -4.55846
1.38118 4.99971 -4.03549
-1.03866 5.45016 -1.36467
-1.22126 7.02716 -3.88632
-2.22425 6.88877 -3.51404
-2.19446 5.09007 -0.927031
-0.121425 6.99125 -4.01021
-2.66363 6.55339 -0.993007
2.33962 5.50394 -4.5853
1.07204 5.05041 -4.39738
1.88993 7.28389 -1.78374
1.33222 6.93969 -0.166548
-0.120755 6.17352 0.8505
2.21555 6.94408 -1.14162
1.48106 5.29 -2.34579
-1.38169 5.156 -1.50289
2.72228 6.5095 -0.396316
-1.59909 5.02697 -3.31565
0.684754 5.10021 -0.804546
-1.27465 5.22334 0.403465
-2.10312 4.69097 -1.73491
2.38276 5.19062 -3.49749
0.200697 5.02806 0.401595
1.23601 7.09029 -0.744029
-1.53732 4.7395 -1.23472
-0.837866 5.59799 -2.70821
1.01948 6.54956 -5.06534
0.580072 6.9753 -4.13944
2.61204 5.40117 -0.942339
2.66047 5.59385 -4.27073
-0.548786 6.57837 -1.36091
1.69813 5.78524 -4.9408
-0.775612 5.14478 -3.3883
-2.52441 5.27128 -1.03164
0.99296 6.83881 0.722972
2.92691 6.54922 -1.34516
-1.93854 7.29364 -2.31784
-0.264751 5.26295 0.904733
-1.31808 5.21489 -2.97075
-0.290846 5.85107 -1.06249
-1.65824 5.87858 0.501172
-0.581074 5.21908 0.850433
-2.69615 5.74437 -0.223103
1.00853 6.71258 -3.16367
-0.273696 5.76545 -5.32164
2.17043 7.24026 -2.02527
2.70038 6.69862 -3.07911
3.0957 6.43512 -2.17482
-1.06182 6.09989 -2.49649
2.81206 5.43538 -3.34316
1.41795 7.12023 -4.13711
-3.13894 6.45311 -2.54306
-0.516259 5.29796 -3.21729
1.80357 7.1324 -3.40135
-0.332189 6.33147 -1.18733
-0.968695 5.10484 0.181604
-0.600551 6.86905 -0.733241
-0.855288 5.89593 -1.53129
1.15496 5.32078 -1.5446
-2.51688 6.59392 -4.2987
2.06874 4.6979 -2.5366
-2.76828 6.51772 -4.01286
-2.43738 6.16764 -0.235107
-1.34654 5.1104 -0.039444
0.714406 6.90586 -3.77849
2.16701 5.17825 -3.82645
0.219043 6.98917 -4.32295
1.81652 5.10995 -4.04464
3.15974 6.29355 -1.03845
0.171427 4.99395 -4.12154
-1.37513 7.12266 -3.45672
-2.96132 6.57965 -2.1545
1.89147 7.23123 -3.8542
-0.203625 5.07942 0.53416
-1.46063 4.92616 -4.20958
2.12867 6.92288 -3.99811
2.47384 6.1074 -4.19938
1.81366 4.95219 -0.0909726
-0.15801 6.96505 -3.49872
2.95257 6.33302 -0.629441
1.76752 5.0329 -1.98463
1.68504 7.0952 -0.979564
2.80901 6.68948 -1.80254
3.00907 5.57868 -1.78906
1.39472 6.75933 -2.87095
0.577476 5.1478 -5.27774
0.582247 7.04934 -4.99859
0.503082 5.39521 -3.42733
-1.74624 7.26466 -2.70395
2.46334 7.03848 -2.9169
2.90331 5.64441 -3.919
0.898356 5.11648 -4.90039
-2.03547 7.30556 -1.93879
-3.02595 6.45033 -1.73987
-1.82356 7.02898 -3.48761
1.38083 5.6515 -5.11391
-2.6948 5.13662 -2.19842
0.659674 6.12738 -3.11277
-0.891398 5.75804 -2.38192
0.925715 5.2057 -1.15441
1.62398 6.83893 0.0804573
1.32049 6.09748 -5.03621
1.84173 4.90288 -1.2043
-0.15656 6.77897 -1.11238
1.01424 5.01163 -0.453068
-2.53096 6.91236 -2.55347
2.49532 6.96276 -1.92768
1.60823 5.00103 -2.74429
-1.461 5.00766 -0.406052
0.599205 5.34762 -1.38279
-0.219474 6.6241 0.793241
-1.15466 6.32778 -2.12374
1.35841 5.17375 -4.75629
-0.575306 4.98355 -4.73571
1.13109 6.36871 -1.68854
2.95114 6.40777 -3.01974
-1.67359 6.85509 -4.57292
2.37948 5.81499 -0.243298
0.253085 6.93495 -3.79742
-2.01899 6.88195 -3.88712
0.755377 6.55738 0.799885
2.77579 5.974 -3.94191
-1.9744 6.9297 -0.330189
-1.88701 4.87529 -1.03659
-1.78336 6.26178 0.267583
0.526163 6.90512 0.78324
0.668639 6.79443 -3.42063
-0.217229 6.17987 -5.32737
-3.20883 5.77724 -1.80789
1.17953 5.6276 -2.44977
2.16495 5.08266 -0.457085
2.39399 5.43715 -0.519898
0.228231 7.01369 -4.77277
1.00408 7.05293 -4.30713
1.12351 5.75708 0.629268
2.00727 6.75366 -0.0298092
0.709385 6.32934 -1.20821
-2.21453 4.92187 -1.35908
-2.85682 5.55453 -0.951835
2.96228 6.52397 -2.56985
1.55825 5.14529 -4.42946
-1.50774 6.88704 -2.60933
-1.59912 6.99294 -3.82858
0.0970368 5.1539 0.854081
-2.6181 6.69543 -3.6332
3.0343 5.54909 -2.88398
-2.69224 6.12716 -3.98893
1.80759 5.46541 0.147271
0.247565 5.01191 -0.0495964
1.55785 5.1987 0.256513
1.96907 4.86839 -1.64634
2.90149 6.16371 -3.55221
0.885879 6.17628 -5.18121
-2.52637 6.46768 -0.633312
2.85126 5.66646 -1.10039
-0.303869 5.0862 -3.4497
1.37136 5.11414 -1.1882
0.261552 5.97256 0.854024
3.19795 5.75017 -3.28309
1.64105 6.71641 0.519167
-1.26394 7.17892 0.159874
0.87189 5.11579 -3.37536
-2.98398 6.42509 -3.69874
-1.69975 7.0134 -2.28241
1.61475 6.85791 -2.57499
-0.859291 7.01141 -4.09373
-0.616785 5.02606 -0.00487317
0.634367 4.9901 -4.21739
0.398302 5.6448 -1.15604
1.02715 5.35435 -3.16541
2.92205 6.00186 -0.833136
0.989792 7.07558 -1.11377
2.09126 5.37882 -0.166529
-0.972224 5.06666 -3.70476
1.64726 5.3414 -5.01895
-0.500656 7.02736 -3.8674
0.415059 5.86111 -3.36309
2.56437 6.81973 -1.45683
-2.73096 6.65831 -1.39493
-2.15 7.14036 -2.65829
0.386461 5.48713 -5.33934
-0.0412257 6.54421 -3.41941
2.12716 6.17456 0.154648
1.80116 4.95225 -2.3672
-1.80912 4.99954 -2.89418
2.30855 4.72841 -1.63199
-1.44103 6.4094 -5.04333
0.655002 5.04724 -4.60587
-1.5543 4.8639 -0.796352
0.246159 5.01729 -4.51926
1.73096 6.17784 -4.7928
-3.36511 6.1586 -2.55292
2.85789 6.53004 -0.885141
0.0425165 4.99514 -3.70428
1.96997 5.40243 -4.84347
-1.46317 6.86993 0.208547
0.37062 5.15204 -1.11448
1.76437 7.03953 -2.14392
2.29863 4.92509 -2.82723
0.782904 5.69561 -3.19895
-0.242082 7.03893 0.675334
-0.140795 6.61864 -5.32055
-2.06125 6.44441 -0.0583614
-0.594572 6.96568 -4.79662
-1.35772 6.16986 0.544502
1.14287 5.5436 -2.01099
-2.38646 6.74286 -3.96544
0.60998 6.19027 0.810758
0.918105 5.29723 -5.28097
-1.36358 5.00865 -3.74843
-0.674341 5.62263 -1.15969
-2.51075 6.81435 -3.2298
0.120946 6.96678 -0.552308
0.306604 6.57493 -1.04282
0.0264142 5.04551 -0.959396
3.06832 5.56537 -2.40193
-1.4361 6.94378 -1.13729
2.45876 4.88483 -1.99131
-0.703351 6.73 0.655749
1.04023 6.14207 -2.02618
2.35552 6.67729 -0.291099
-1.85926 5.3683 -4.57414
0.63746 4.98559 0.202486
-0.632225 6.06822 -5.27661
0.790343 5.51575 -1.67094
-2.31731 4.79816 -3.49374
1.57607 4.90924 -3.66138
-2.06881 5.17932 -4.28113
-3.14381 5.76601 -2.5282
2.20089 7.2957 -2.74746
1.03384 4.95235 -0.0399472
-2.42598 7.01412 -1.46971
-0.594041 5.10417 0.406382
-1.3089 6.95648 -4.27148
0.0519053 5.60985 0.883144
2.49146 6.27431 -0.112273
-2.4062 4.76052 -2.34514
1.21874 5.31996 0.510335
1.75332 6.3234 0.437721
-3.31183 5.93181 -2.15447
-1.03698 4.96605 -4.97862
0.146069 5.08127 -5.27309
-2.91087 5.75785 -0.53416
-2.89152 6.03158 -3.62853
-1.80641 5.19705 -0.178299
-2.73096 5.65118 -3.5722
-2.25306 6.88052 -0.699289
-2.8029 5.27841 -2.54769
-1.08106 6.17769 -5.16336
-1.03726 7.07841 -3.26032
1.58564 4.73849 -3.21938
0.911861 6.08823 -1.53605
-1.04194 6.69245 -1.30063
-2.73186 5.24231 -1.79915
-0.924962 7.08156 -3.64537
1.89652 7.11125 -2.60771
-2.89073 6.58968 -3.32292
2.68997 5.24675 -2.87005
-1.86169 5.85363 -4.70226
-0.222721 6.90594 -0.672907
1.59224 7.03216 -1.72416
3.20241 6.22796 -2.68557
-2.51377 5.31183 -3.67432
-0.336938 6.91291 -5.25631
1.11586 6.88215 -3.52932
2.0981 4.76432 -0.809614
0.488171 6.08681 -5.28529
-1.59806 5.59457 -4.83409
-0.508388 6.99605 -4.32303
2.5877 6.71879 -1.03607
-0.465752 4.95511 -0.343934
0.424117 5.48 0.827105
0.84541 4.99647 0.581891
-1.25119 4.7423 -0.98551
-1.01862 6.42959 0.612278
-1.73662 4.91017 -3.76262
3.39028 6.10126 -2.25621
-3.08139 5.67235 -1.38669
-3.16485 6.28942 -3.32743
2.75803 6.76022 -2.23154
0.849177 5.78076 -1.88062
2.44337 4.9428 -2.46101
-0.887879 4.8289 -0.915885
-0.173354 5.006 -4.37109
2.26575 6.52539 -4.13819
-1.78505 6.72329 0.0210828
-1.59 5.20498 -4.75821
2.59289 6.35352 -3.8421
1.29084 6.56998 0.675208
1.45864 4.90955 -0.379525
-0.486018 6.05151 -3.32215
-2.09976 6.78208 -4.33115
-2.43363 5.50762 -0.133929
-0.658381 5.02155 -5.1655
-1.68386 6.95543 -1.88034
-0.912966 7.14281 0.369622
3.105 6.1161 -3.21757
-0.677643 4.86536 -0.626885
0.996426 6.997 -4.96024
0.745503 6.94265 0.431355
0.736464 7.10195 -0.895431
-2.30845 7.12044 -2.26806
-0.62627 5.59689 -5.25681
1.00154 4.92252 -3.90845
-2.34983 5.8404 -4.25112
-1.28631 5.30852 -4.97691
0.689458 5.82211 -1.36785
1.83974 4.70948 -2.88358
2.09728 7.29519 -2.3408
-1.05506 6.86608 -0.920335
0.962615 6.94901 0.0656218
-1.42819 7.0699 -0.73097
-0.185605 6.98098 -0.209522
2.01121 6.62396 0.327504
-2.02715 5.8274 0.310585
-1.08142 5.66359 -1.71474
1.89203 7.17196 -1.36926
0.300918 6.29196 -3.3383
-0.97024 6.98088 -0.529723
2.65811 5.7413 -0.660928
0.839454 5.39271 0.697441
-1.54521 6.76497 -4.98947
0.258151 6.95928 -0.965587
-1.01549 4.96087 -4.52157
-1.15883 5.42079 -2.61011
-1.28919 6.90746 -4.69156
0.364263 5.00171 -3.52724
1.04675 5.75874 -5.20157
-2.0993 7.31349 -1.54431
1.4439 6.91163 -3.26244
-2.57213 5.74523 -3.91724
1.8987 6.79753 -4.37535
0.523195 6.58422 -3.10348
1.46107 4.87236 0.079774
-1.82607 6.31019 -4.8247
1.52904 7.13613 -4.50998
3.35624 5.87639 -2.56915
-1.0736 6.89098 -5.03545
1.89013 4.80062 -0.445796
1.27429 6.89961 -1.41753
1.22843 6.49987 -2.4862
1.50577 6.73414 -2.20345
-0.30275 5.72158 0.884922
-0.301966 5.62938 -3.36329
-0.1895 5.02778 0.10049
-0.688621 6.75108 -3.33515
-0.574559 6.97974 -0.314757
-1.09383 6.3604 -2.8645
2.23038 7.07018 -1.59037
-1.67658 4.93561 -1.65032
2.61395 5.40339 -3.79076
-3.3252 6.10029 -1.68393
-0.803313 5.2328 -1.06555
-2.03911 4.85546 -2.47244
1.64056 4.92788 -0.821161
-1.16519 5.40394 0.791731
3.09015 5.74699 -3.62143
-1.14116 5.60878 -2.14234
1.41434 6.12391 0.562296
-3.18436 5.98296 -2.91982
-3.01736 6.316 -1.32607
2.79308 5.28667 -2.50812
2.24829 4.74197 -1.21359
-0.393915 5.3261 -5.29317
1.91591 6.85339 -0.367594
-1.77884 7.09246 -1.48646
-0.651372 6.74493 -1.06315
-2.56851 5.44386 -0.589416
-1.59941 5.15695 -1.98202
-1.32454 6.60377 -1.85405
-0.0553739 4.9893 -0.339093
-1.40772 5.34816 -2.28127
-2.15623 5.33035 -0.221267
2.6174 5.09438 -1.66598
-1.94984 6.6947 -4.77267
-2.14708 6.10275 0.0805341
-1.43715 6.8157 -1.51141
-0.0879102 7.02365 0.24592
-3.24681 5.97226 -1.2603
0.357133 5.05377 -4.92305
-2.63644 6.86066 -2.18075
2.15366 7.20149 -3.594
1.16685 4.93337 0.370049
2.54113 5.09883 -1.26731
0.0458278 5.2701 -3.45328
2.85628 5.3534 -1.98824
-1.97355 4.87219 -3.30252
-1.05497 6.57621 -5.1991
-1.72775 6.8994 -4.19474
0.41567 6.10735 -1.10554
-1.87414 5.49519 0.477386
-1.75599 4.91295 -4.48585
1.31687 5.03476 -3.10387
2.66371 5.12659 -2.17209
1.96788 5.27311 -4.45207
-1.04623 6.50224 -1.64376
1.37431 6.69685 -1.76978
2.68946 6.53392 -3.44376
1.01955 6.19465 0.717774
-2.32675 5.43514 -4.07521
-0.678057 5.73303 -3.13083
2.07551 6.30619 -4.47495
1.99169 6.93301 -0.775816
3.38072 6.12668 -1.83671
1.33895 5.32305 -2.77211
0.995533 7.02366 -0.439593
-0.662166 6.33801 -1.57315
0.126201 6.93434 0.786175
0.146729 5.8736 -5.33364
1.5423 7.24036 -1.37796
2.40454 6.74695 -3.72229
-0.877002 5.94699 -2.05995
-2.45104 4.93352 -1.86435
-2.38801 4.75773 -3.10345
1.93923 4.97738 -3.52496
2.81568 5.43035 -1.44167
0.252303 6.99913 0.441186
3.14114 5.83016 -1.56672
3.29097 6.22578 -1.42747
2.32463 5.90641 -4.46761
-1.32909 5.39642 -1.82165
-0.768318 5.59028 0.858273
-2.98528 5.8498 -3.24838
2.31182 5.33669 -4.15706
-0.162533 6.98704 -4.93039
2.09131 4.91754 -3.17657
-1.59296 7.17363 -0.092847
0.0501335 5.48621 -1.01773
0.242974 6.82162 -3.36067
-2.43003 6.92268 -2.88385
1.09244 5.61856 -2.86074
-1.3993 4.91715 -4.72213
1.2027 5.05338 -0.796163
-1.71048 7.17285 -3.13603
-1.73673 7.25931 -0.453638
-0.973635 4.97903 -0.269567
2.0316 5.85301 -4.71833
-0.818167 6.19292 -1.85108
-0.898071 7.08497 -0.0727552
2.15529 7.28128 -3.16903
-0.612646 5.04521 -3.84131
-0.244755 5.02532 -5.19867
-2.11539 4.79298 -3.77004
-0.553827 6.34944 0.770793
-1.75698 5.06502 -2.3659
2.68206 6.08798 -0.423625
-0.345995 5.3873 -0.982188
-0.50928 4.99895 -0.908641
0.450884 6.98198 0.13016
1.43287 6.83338 -4.75965
3.08094 5.93741 -1.21387
0.287763 5.02953 -0.614626
1.73934 6.56274 -4.63657
-1.54282 5.19251 -2.64539
1.7816 7.04818 -2.98866
1.25143 6.8713 0.370978
-2.40529 6.91082 -1.07695
-2.22527 4.68478 -2.09611
-1.67652 5.27405 0.190507
-2.66658 5.1378 -2.91825
-0.599267 7.08226 0.567639
-2.39117 5.78734 0.0611148
-1.90149 4.88275 -2.0201
1.77173 5.92106 0.321247
1.01902 6.59011 -1.34799
3.33112 5.89252 -2.9507
-1.9856 7.25423 -0.748778
-0.925811 6.96316 -4.53376
0.51422 6.49937 -5.23952
0.745157 4.86194 -3.57817
-2.44887 6.21688 -4.30651
-2.24422 6.53199 -4.57707
-1.17234 5.04396 -1.19006
-1.13312 4.86728 -0.615621
0.881911 6.20381 -2.46984
-0.936468 6.02937 0.738527
2.45662 7.06454 -2.41189
0.218325 6.98676 -0.169956
-1.25704 5.73205 -5.04804
0.496634 4.94245 -3.88266
-1.54677 5.42989 0.643093
-2.50579 5.11255 -1.46715
-2.28758 5.06379 -3.89
3.22216 5.77876 -2.06627
-0.593193 5.00258 -4.29965
-2.76522 5.44307 -3.22915
-0.567783 5.96311 0.830523
2.38019 6.74981 -0.683184
-0.595151 6.02835 -1.28219
0.686543 6.76545 -1.08883
-0.116543 5.01096 -4.79734
1.29064 7.20708 -1.12608
0.668578 6.99265 -0.20038
-0.481048 7.05606 0.149637
-3.23108 6.37166 -2.95151
-1.02896 4.99924 -4.10816
-1.74987 7.16419 -1.02914
-2.09658 5.61594 -4.42794
1.15667 7.12316 -4.69346
-0.211508 4.9258 -0.741825
1.0974 6.99033 -3.91963
-0.996483 6.67224 -3.14001
-0.160856 6.99252 -4.50342
-2.37738 7.09862 -1.87454
-2.18497 4.77656 -2.82549
2.69812 6.79947 -2.67462
-0.555524 7.04096 -3.47077
-0.919341 5.9574 -2.86901
-0.924372 5.80625 -5.18678
-0.798935 6.27023 -3.16982
-1.26685 5.77744 0.696975
2.43082 6.94985 -3.343
-1.41323 7.1653 -3.01327
-0.928065 5.36052 -5.14851
0.155077 6.37313 -5.31086
-2.14151 5.46789 0.194939
-2.11236 7.27775 -1.14564
-2.94677 5.5662 -2.84904
-2.69991 6.78236 -1.79245
-0.907744 5.21551 0.683255
