-4.16713 -3.91942 4.55423
-8.08529 -6.16685 -0.394181
10.1498 3.13206 -10.0067
-6.64857 -5.08113 -3.17537
-4.11942 -10.0101 7.81036
4.74611 -6.35072 15.866
-6.1842 -10.0113 2.69683
7.25117 -4.42271 -17.3932
11.5969 9.89391 1.65048
-3.2067 -0.845706 -19.0048
-6.15976 10.0069 0.652494
9.46157 3.16865 5.08711
-6.29171 -10.0072 -0.999101
8.37533 -9.89415 -9.76002
8.38085 1.94259 18.8088
9.98323 -10.0143 -5.95525
-8.2136 -1.49413 7.94708
-1.81602 -5.98192 -11.7303
-4.72628 -10.0156 -4.38403
-7.94671 1.43358 -9.9643
11.763 3.02814 -9.71692
1.19957 6.97498 -14.6689
11.7221 9.78736 -4.84203
7.6428 3.57649 18.8125
6.37518 8.22938 -3.87075
3.98256 6.12269 5.58581
11.6769 4.16703 -4.57367
5.50285 6.0463 -4.7312
8.18074 10.0058 7.76881
-8.20854 -8.00568 1.03179
3.66192 -6.76146 17.2164
-3.95495 9.83943 -9.86983
-6.68725 -0.359711 10.0096
-4.44826 -3.1948 17.1865
-2.93156 -9.82067 -3.94978
4.6002 -3.61968 19.0051
7.69672 -7.97537 0.99344
7.46434 10.0038 -5.95507
-8.10135 1.26933 6.07029
-6.28809 0.337689 6.00111
-1.8767 -3.15714 5.10696
-7.04273 -9.92133 -9.8493
-1.65957 1.70232 -5.74968
7.66204 5.95101 1.72351
-6.06759 -5.60779 2.11201
-5.79424 -10.0077 6.34193
-8.20661 -5.8142 -8.0032
5.82919 -6.21475 -4.43951
11.7253 0.890764 6.12812
11.5501 -9.96612 2.09387
-8.18486 -5.65333 3.07572
11.6517 5.31912 -3.11491
9.99427 3.00208 10.0034
-8.20951 7.9392 3.86844
8.56911 0.403728 -18.8878
7.77657 -3.65325 -15.4752
-8.13057 3.6801 -5.04787
-1.57999 -9.80144 4.95402
-6.27019 4.51456 -3.96532
6.08889 -5.52714 11.6241
4.90494 -6.26658 -12.2672
7.37248 4.24273 -15.4663
-8.21397 7.91149 1.92957
11.7539 -5.95864 1.91006
-8.20709 -8.27733 -5.56682
-8.07093 4.76811 -3.98828
6.7655 8.00349 -10.009
-8.20844 -7.93608 6.46847
-4.73234 -2.53431 -13.6997
-4.83681 -10.0097 4.22473
-8.21125 8.25958 6.02567
-5.1824 0.604407 -16.9095
-2.00255 2.6911 19.0056
7.71361 -6.00042 -1.70019
11.7357 -7.73442 9.77937
-4.51863 4.09064 -4.37944
-1.07459 -6.56799 -10.1009
-4.9136 -5.02935 -3.25401
-2.67389 -5.38802 -15.4305
11.8067 7.98667 -1.21653
4.02086 -10.0083 7.4658
-1.74425 -6.05101 17.0732
9.73489 -10.0098 0.984613
-2.47781 9.94116 4.48488
2.71873 -6.80856 18.8744
11.2197 9.70981 9.92674
8.16839 2.91033 -14.8382
-3.67048 -5.42429 2.86392
3.12378 6.88252 15.3527
4.87662 -6.28734 14.1548
7.3975 9.94162 9.72387
-2.2357 -7.87425 -4.43528
0.850881 3.37308 5.93202
-8.07076 9.86488 -1.20647
-1.47144 9.86327 9.84953
2.10287 -10.0111 8.11244
-8.2091 -6.66002 -4.12141
-8.13085 -4.22256 9.7696
-8.10459 2.42709 -5.72261
11.8089 2.15321 7.86738
-5.41353 -9.92775 9.78757
2.05392 7.0004 11.8769
-1.2448 0.268312 19.0022
-0.0833664 7.54361 5.6925
11.6618 9.84821 -6.58232
-5.06409 -1.39781 -15.3277
11.6626 9.84689 6.7542
0.372194 9.93694 -6.11756
2.83911 6.92144 -13.3703
-1.97898 -10.0117 -8.55101
9.90983 4.26755 -4.20378
4.77146 6.3392 -15.3846
7.00197 4.75598 -10.1933
11.5554 -5.03687 3.37651
-2.69309 -4.57194 4.07149
11.5156 4.86271 -9.93092
-8.20776 -7.30169 8.11993
9.63906 -5.44638 2.50618
-8.21174 -7.62348 2.83776
7.7592 3.66158 -11.8541
11.752 9.75233 -3.02299
11.7622 9.76729 -0.0208912
-4.84487 -2.67092 -10.1097
-2.74528 4.59089 -4.02748
10.042 10.0131 8.02456
3.72908 6.41809 -5.68136
6.13242 -9.9036 4.46314
-0.0743204 -6.65992 -18.808
-8.20935 8.1393 -8.15729
11.7216 -3.91426 -4.84614
-2.40305 5.59979 14.984
-3.05958 8.05049 -10.0101
11.6387 -9.87037 -1.82148
4.32452 -6.60928 -5.44888
-6.29295 3.17032 -5.10326
7.53511 9.86386 -9.8409
-4.38708 2.64051 18.955
8.24502 -2.71891 12.1887
-4.76572 2.48109 -17.3316
5.47955 1.20496 -5.90153
-3.5574 -10.0109 -5.95011
5.39215 9.9632 5.16659
-3.7888 4.18993 -18.6459
-1.92742 -10.0073 -6.84374
11.808 7.97867 5.82545
-6.49632 -10.0111 -4.85379
-8.20567 5.35462 -6.1777
-0.499396 -4.00588 19.0047
-8.21376 -5.87779 5.54332
1.66502 4.90583 -19.0035
-4.81299 -2.30365 15.3335
-8.20416 4.61337 6.47543
0.913791 6.958 -12.4125
2.45557 0.674473 5.98452
9.40164 9.9233 -9.83306
-8.05935 9.81094 0.580664
-6.21692 9.8653 -9.87707
-6.50018 -1.6431 5.76323
-3.65106 -10.0047 5.82506
-7.96478 4.89333 9.95706
9.83201 -10.0075 -1.2607
10.0795 10.0189 -7.93178
0.251626 -6.81279 11.2284
5.74328 9.9493 9.73637
-2.70829 -5.77406 -10.0521
11.6171 6.38218 9.91294
6.59941 -4.17564 -19.0056
-8.20676 7.9695 -2.10614
11.8127 -8.09846 -8.14246
4.56091 -6.35625 -18.7187
-8.20614 6.45474 -4.68836
-6.20389 -5.99612 0.33221
7.59978 -3.90812 -11.8838
-5.15481 0.823514 13.7194
-0.655589 4.25162 19.0054
7.44813 8.08847 10.0113
11.804 -6.81069 4.00275
8.31213 -5.87752 10.002
-7.99699 -3.35123 -9.94281
3.826 9.7212 9.96231
-8.09117 3.17605 -9.74817
-1.82315 -1.17197 5.88479
7.08653 2.92284 5.24199
-8.09772 -8.10261 9.79693
11.7363 -2.32451 -5.80593
6.02755 -8.10985 -4.24147
-4.02667 -10.0112 -7.99742
5.91724 -10.0115 8.25826
-2.70461 4.54219 4.12492
-8.2232 8.03129 8.09121
-3.3657 9.73756 -3.20446
9.89908 1.64812 5.75951
10.099 -9.74661 -9.95936
8.29323 -10.0051 -7.30615
4.23505 0.799403 5.96121
3.38103 4.68101 19.0051
-8.07339 -9.88273 5.84273
0.957136 7.02023 10.2271
-8.21138 -8.44064 -3.58849
6.12912 5.96915 10.0402
11.806 -7.78448 -6.32874
6.2201 5.4327 -13.9686
4.63742 10.0091 -7.98443
11.533 1.16779 9.9611
9.46704 -4.55595 3.89224
10.0907 6.9597 -10.0095
-4.39754 3.25884 -13.8114
-3.13794 4.99033 -16.8505
11.8064 7.92653 -5.65616
-1.86699 -10.0094 6.80059
5.19074 3.6346 19.0062
11.7738 -9.67911 -3.53502
-2.40381 9.75971 -4.40245
-2.87496 7.41146 -3.76395
-7.96815 9.96941 2.26993
8.67008 -1.34959 -13.2742
-6.12393 -10.0071 0.878293
11.749 2.9211 9.72563
-4.73797 2.4944 -11.8984
-8.20551 -3.40419 7.69812
-0.242368 -4.44251 -5.63627
8.38725 -10.0039 -4.93041
-8.21572 0.534866 7.96722
-7.86888 8.35933 -10.0004
-8.17234 5.92684 2.14251
11.8079 4.53115 -8.27781
-0.236684 0.679898 -5.98089
-6.08415 4.0764 10.0057
-4.56833 2.89976 13.7315
-8.20859 7.97594 -0.126738
-1.57771 6.14055 16.7263
9.15057 0.213274 -10.0617
-1.63025 -9.78383 -4.98193
1.54109 -6.785 -18.8614
-8.1971 -2.38136 -5.93204
11.8056 -4.02214 -7.32108
3.43941 -6.35171 5.78839
-5.94125 7.84945 10.0112
6.79362 -4.00018 19.0081
-0.860881 -9.88105 9.85979
11.8078 -8.20314 2.95491
7.93883 -10.0072 7.75195
10.2196 -10.0119 -3.81566
11.8107 0.291434 8.08555
-8.21479 -8.18287 -0.732423
-5.75604 4.76304 3.65689
0.119526 2.29159 19.0032
-3.32133 0.881813 -5.94705
7.64497 -3.85865 15.6773
9.91451 -10.0128 -8.02921
-3.09388 2.95053 -5.23219
2.71787 -7.82607 -5.92852
11.718 5.95152 -1.72213
7.23465 -5.19613 3.15938
-6.46528 10.018 -5.42034
11.6476 5.13609 3.34885
-4.76093 -2.40453 11.8448
6.58909 -5.10626 -15.7218
7.48759 9.85467 -2.45185
3.71204 9.85128 -9.75289
0.868875 10.0085 -8.02434
-8.21181 4.33994 8.2579
9.4555 5.05212 -10.0028
10.0331 4.47303 3.98796
1.99553 5.47954 -6.01269
11.8023 -5.96214 -7.841
-3.51057 -4.35272 -4.11248
11.7597 -9.75966 -5.28075
-2.67313 5.08249 18.7998
-4.14712 3.70328 -16.1622
7.43532 4.14464 11.9109
4.48706 -8.32718 -5.35291
-0.0997486 -9.93023 -5.91129
4.8009 -6.52126 10.1157
-5.04971 -9.8452 -9.86537
-3.81225 -9.88923 -2.54585
-8.21128 -7.67227 4.58154
-6.62492 10.0163 -7.78304
3.92683 4.52369 -5.61327
-4.94471 9.88618 9.80302
8.31913 -2.59045 -16.9703
8.31361 -8.35886 -10.01
1.71722 6.86686 18.8703
11.5454 9.98291 -1.5506
-7.80262 -9.91305 9.76629
9.24815 9.75421 9.88078
-6.18631 -4.23991 10.0054
0.0264046 -10.0149 -7.96611
-8.02913 9.92063 -9.43235
1.61125 -4.4732 -6.00482
-6.51393 -2.61659 -5.39063
2.97115 10.0125 7.92512
3.94745 6.68292 11.7763
9.90881 -6.534 10.0067
7.07094 -4.61149 -13.829
-1.34583 3.53562 -5.11611
-0.845602 6.49122 -12.2365
5.96225 5.64383 16.9479
0.470535 3.09469 -19.0046
11.7053 -0.837593 6.12055
7.53715 0.829167 -5.95179
5.30574 8.16504 10.0081
3.01483 -6.60486 -18.98
-1.10539 9.90683 5.45372
8.52589 -1.98969 -15.0619
-4.59708 -2.21687 -18.8883
11.5637 -0.618556 9.90363
5.8709 -2.8415 5.27599
-8.08878 -9.84452 -8.12588
-4.74113 -5.88402 -10.0033
3.76812 4.72725 -19.0081
6.80589 4.89698 15.251
-5.02198 -0.423498 -18.8247
-3.6957 -3.9931 18.9434
3.03963 7.21492 10.0072
-4.94668 1.24981 -18.8606
1.5499 -6.20485 5.99979
-3.34843 4.74056 13.547
-8.21373 -7.46516 -2.2007
2.45246 -6.97385 -15.3088
10.2265 10.0076 -4.09977
-5.84755 -4.02288 -4.45562
-8.16307 -6.01478 9.75108
4.74157 10.0132 7.85964
10.0584 0.0103421 6.00044
8.46456 -2.15577 -11.6803
-4.16941 6.63347 -10.0021
-3.40819 4.67951 -14.6406
2.79368 10.0185 -7.84788
8.99739 -1.43055 -10.0401
4.55018 -6.22877 18.8643
-5.19502 -0.221598 15.3456
-8.21344 2.03558 -7.97533
8.83792 -10.0042 -2.9539
-4.27139 6.12659 -0.899948
5.6917 6.13977 4.5719
-8.21 6.1778 7.95748
-3.83846 7.88551 -2.03247
5.99471 -2.17542 -19.0071
-7.8555 -1.8792 -9.94982
9.7491 -3.24679 5.03264
-3.3066 -4.81209 17.1758
-1.51418 7.87238 -5.00697
6.37879 -5.29156 -12.1192
-4.88333 10.0178 -8.30862
2.70109 -5.77972 -5.93275
-0.409078 8.29269 10.0053
-8.18189 4.88715 -9.61375
8.4238 -2.28977 14.5411
3.63036 0.162599 19.0021
6.49765 -2.37415 -5.5097
-6.05789 -5.79541 -1.53415
3.90433 9.89227 5.81427
-1.76888 -6.01848 11.9079
-8.20641 -5.32209 7.52658
-2.11156 -10.0145 8.51552
7.75995 -3.87385 4.59455
-1.96222 -8.11227 -10.0074
6.83942 -10.0036 -6.02215
0.937242 -6.78694 18.794
-6.13011 10.0062 4.3649
-3.04675 -9.84203 3.75331
11.4997 -0.406446 -9.91248
0.16712 4.61577 -5.76978
-0.104278 -6.74278 -11.7178
8.13127 3.00875 -16.9703
-8.10658 -0.42061 6.20152
11.7853 -0.590983 -6.23688
-0.0907644 -6.74468 13.1659
-1.43513 5.99313 5.05471
-6.24402 3.53126 4.85553
-4.38279 -3.28648 13.4983
-0.533808 6.60656 -14.1967
7.72184 -9.79697 9.92789
-1.17988 10.0112 7.88133
11.7794 -6.96594 -9.74706
-4.14869 3.6883 11.9866
-3.53666 5.63946 -2.78001
4.29806 6.41057 -18.8693
11.8073 0.309207 -8.10088
4.64366 6.39542 -13.5442
6.08348 -8.01108 10.0133
6.06498 -0.612737 -5.9907
3.0971 -4.8006 19.0099
3.87647 9.93991 -5.84619
5.99816 5.58998 11.6799
-0.253133 9.94139 -9.75405
7.94285 -3.07688 18.808
-6.30307 -8.22797 10.0222
9.58898 10.0064 -2.17567
6.62894 9.84244 3.84068
0.798097 6.75855 -18.7845
8.86524 1.57318 10.0722
-1.69959 5.75886 -4.88577
9.84971 -1.68234 5.76206
4.31463 -0.828703 -19.0036
-6.56807 9.72974 9.94751
1.80479 9.94777 -9.79208
6.3762 1.84849 19.003
2.75076 8.32334 -9.99623
-5.1943 0.37971 -15.0679
8.26557 -2.6996 16.9497
9.9457 -2.7458 -5.33722
-5.57683 -10.003 -6.39294
0.350771 5.39628 5.82388
-8.08707 6.64214 -9.80733
-8.05781 -4.56896 4.18217
-8.14926 0.815333 -6.15764
11.8108 7.17678 2.84714
-4.18194 8.03987 0.0655411
5.08132 -10.0047 -6.93933
6.70212 2.66408 -5.3826
-6.15074 -10.0223 -8.08756
6.40076 -5.28054 15.4158
11.8019 -4.5919 6.81188
-3.93995 -4.0113 15.3594
11.8089 -1.56638 7.90281
-5.06706 -1.37164 13.5805
-8.20484 6.49273 6.09193
-3.42966 -2.09793 5.62708
8.94389 1.73657 -10.0406
11.6956 9.79689 -8.42332
11.8051 6.42848 4.64877
-6.54174 -6.26926 10.0129
-8.20849 3.9355 -7.5267
8.4925 10.0051 -4.15577
2.72427 6.94679 -11.6159
7.42634 7.96942 -2.05061
11.8064 7.69479 7.75906
-3.23746 4.88406 16.918
-7.99699 6.04975 0.512806
6.69743 -0.301924 -19.0037
7.36558 -4.23128 12.0015
-8.20546 7.71517 -6.21224
8.00466 -6.12584 -0.0526838
5.96862 5.31346 -18.9569
-0.0342924 6.46525 -5.71225
11.8112 -5.98694 8.17185
-8.18398 -3.57028 5.39047
2.01089 3.55558 -6.01124
11.5837 -9.91874 3.98439
8.39219 2.36355 12.0681
0.232641 8.32673 -5.79577
6.52858 -10.0122 -8.11156
4.32753 -9.84955 5.60358
0.677702 8.47066 -10.0031
-3.74123 -4.28228 -14.1403
8.08108 -3.09405 -13.5073
11.7135 -4.27961 9.76705
-6.32508 -10.0148 8.1194
6.21293 5.43601 -15.8158
-2.76488 -5.97388 -3.88464
8.12156 4.31898 4.15732
-8.0318 -9.90895 1.85579
3.91432 -10.0091 -8.21541
11.8083 -8.00622 -0.837008
-8.20438 -4.59808 -6.26777
-4.43457 1.84525 5.71999
9.8779 10.0085 -0.0547335
-4.75359 2.7987 10.1235
0.100441 6.56485 18.86
-2.37639 -8.16726 4.30826
-4.99998 -1.68524 -11.8095
-0.710662 -9.69505 -9.91344
-4.24124 -6.02035 1.34886
7.52961 8.01924 1.7247
-8.05695 -5.03865 -9.84834
11.7088 4.02219 4.80943
-2.20311 -6.36422 4.46567
4.10912 -9.94918 9.60035
-7.96286 9.95614 5.62931
4.43139 -4.47955 5.3974
2.8933 2.58661 5.8947
-2.87836 1.15174 -19.0048
-8.01258 -9.94476 -2.07099
7.2771 -4.58634 10.1935
-6.12324 5.95722 10.0079
-5.06762 -1.39381 -17.0869
-2.9144 -1.01698 19.0048
5.92779 4.20843 4.41812
-8.20454 -6.40872 -6.02275
7.77941 8.00963 -0.249786
-5.20043 -0.230613 12.0415
8.81177 0.305665 17.5907
-0.45978 4.64735 -19.0045
4.83129 8.1832 -10.001
-4.36814 3.81194 4.63176
11.8086 -8.331 5.21299
4.91583 -0.987046 5.92377
-6.56508 2.03281 10.0028
0.0209384 -6.79103 16.9551
-8.21016 6.2377 4.35418
11.6951 -9.86608 -9.25573
3.50456 7.97774 5.75147
3.42858 1.24559 -19.0037
6.7323 -9.89606 -3.74286
0.187328 6.82928 17.0046
-4.79807 -6.22581 10.0023
5.99517 -4.40513 4.32279
2.54988 6.85781 -18.8716
8.71427 1.1098 15.8684
-8.20484 6.13166 -7.8711
11.806 -5.47006 5.3125
-0.956388 6.51502 10.2888
-7.98778 -3.60935 -4.8635
-8.11169 9.79689 9.54077
9.72118 10.007 2.01862
11.8055 -7.99509 1.15125
-8.20883 8.05737 -4.0181
5.12816 6.1617 15.0879
9.80069 5.93666 0.902854
-6.00442 10.0039 -3.3245
-3.8807 -3.88713 -18.7603
-3.60495 -4.48086 -16.7458
9.59818 10.0038 -5.98281
7.9821 6.44048 -10.0019
-1.15631 9.90067 -5.44274
1.21423 4.75563 19.0062
7.86467 -6.52836 -10.002
6.98862 4.73195 -17.3511
5.25207 -9.84649 -5.05327
5.60319 9.88457 -9.8429
-0.844403 -6.50829 -16.9469
4.15039 -1.74685 19.0025
-1.45085 -0.541223 -19.0034
-8.04952 -5.74088 -2.19823
8.16808 -3.2863 10.0945
-3.05597 1.00195 19.0053
-2.34615 5.64317 -13.4155
8.09157 -10.0034 5.34775
-8.09796 4.16686 4.55398
4.19637 2.05085 19.0028
4.94155 7.98766 -5.09706
6.27148 -5.91066 10.0245
11.8052 6.24317 -7.24127
-0.177057 -1.92109 19.0057
11.5368 1.32152 -9.94206
6.53236 4.9419 18.7683
-3.99045 3.93801 15.3225
0.693152 -4.79362 -19.0035
2.27183 3.09328 19.0026
-8.16823 1.13617 9.78877
-2.42279 5.31667 -18.8101
9.92077 -4.25039 -4.22357
0.836441 -9.92429 9.79693
5.67184 6.04042 -10.1172
-4.31847 -6.14642 -0.459202
7.59552 -3.92925 13.8617
-8.19142 5.93057 -2.71372
2.02039 -3.00514 19.0038
4.27667 -1.3303 -5.84732
3.75047 0.462554 -5.99115
-8.12647 9.79689 3.9416
6.75968 7.61245 3.36044
6.62683 9.92462 -3.97317
8.04133 -9.9137 -0.280606
11.8056 7.95979 -7.78475
11.7718 -3.82954 -9.68305
4.25002 4.26659 5.47321
3.03113 6.89615 -15.282
3.17004 -6.8762 13.2388
-3.39949 -9.81622 9.91393
-2.55847 -5.4776 -13.4149
0.525413 0.0490372 19.0026
-8.07094 9.88152 7.50259
-7.8434 5.0262 3.30187
-2.87496 5.20978 11.7165
-4.4478 -3.16137 -15.538
3.24699 -8.17429 5.8131
11.7151 -2.55845 5.75901
-8.06596 6.55392 9.89937
-6.58357 1.41878 -5.8132
11.6725 -9.79697 -7.2382
-8.21503 -1.80375 -8.01037
8.73933 1.14317 -17.1552
-2.38136 5.60787 -11.6541
6.10172 -5.30864 18.8607
11.5938 -5.94746 9.90184
9.35444 5.2768 -2.85668
8.35065 10.0102 -7.82558
11.803 3.97492 7.43916
4.23643 6.57277 17.0261
8.08743 3.29708 10.1751
-3.86627 -5.86674 -2.15964
-5.00345 1.28069 18.8061
-1.46557 -5.98833 -18.8789
-8.10125 6.07401 -1.03796
8.52391 1.98752 14.1886
-2.34214 7.83241 10.0088
0.399103 -0.91356 -5.94754
-1.95404 5.91436 -15.2916
-6.40361 -6.11925 -10.0191
3.58015 6.79413 -17.1054
-4.28527 6.07422 1.03802
5.86886 -9.84593 9.92727
2.71427 3.10416 -19.0026
7.82092 -5.85725 1.62971
1.79459 -2.7347 6.00781
-4.3557 -9.84579 0.451176
-3.56484 -4.48841 11.91
4.45043 -6.48854 -15.8718
7.7677 -9.85889 1.55109
-5.10616 5.35344 -2.71639
9.76677 5.90015 -1.05575
2.32576 -0.755912 -19.0024
-2.54885 -5.60467 10.2551
-5.54167 -1.21953 -10.0041
6.02107 -4.14245 -4.46083
-4.27531 -3.47328 -12.1626
11.6265 -9.88684 0.148169
3.34971 6.84093 13.6188
-1.65992 6.08818 12.8059
11.4932 -8.45942 -9.96543
-4.51739 3.03757 17.1201
-1.90995 -8.55167 10.0061
1.87852 -7.26303 10.0403
-8.05962 -9.86976 -0.0743433
1.56398 8.27378 6.0052
-5.17927 -0.644671 -13.4515
3.33216 -9.9253 -6.08407
-1.68724 8.02572 4.88646
7.2361 -7.19951 2.52038
9.2621 10.004 3.97224
7.50948 -9.82159 -2.06428
11.5728 5.82215 1.73694
-5.23677 0.435088 -5.9986
-2.34608 -5.66477 -17.2594
5.10729 5.94759 18.8365
-8.10724 -8.59306 -9.78358
8.20788 0.236231 19.0069
-0.837296 -6.48508 -13.3076
8.00188 -2.31587 5.54736
7.32891 4.68292 10.1076
-1.83912 -5.98206 13.6273
6.28992 -10.0055 6.40116
-6.30041 2.03874 5.65028
0.457986 -6.87668 -15.2443
-4.52756 10.0108 -4.63104
-3.02973 8.40835 3.53856
5.58333 -5.90151 -17.0255
-7.96004 8.17964 9.97539
-2.05528 9.85649 -9.79693
4.13767 -6.60079 -14.1232
2.02861 -1.11974 19.0032
-0.716993 -6.53636 15.1954
-2.81881 6.60332 3.82406
-8.20675 2.56974 7.72967
-2.02518 6.12575 -10.0716
-8.20593 0.0868111 -8.08223
5.3488 6.05141 -17.3139
7.3818 4.25082 17.1087
1.2278 -6.97709 14.6617
3.91908 -2.68729 5.62967
3.98559 -2.76129 -19.0048
-3.48547 -7.60337 2.83621
4.62364 6.53477 10.1683
7.20371 -4.50091 17.4173
0.724107 -6.32299 -5.91722
5.70356 -5.82367 17.2908
2.06916 9.96176 9.69413
9.42768 5.39364 2.64592
9.57482 -9.97909 9.64094
7.95451 6.13927 0.0317825
-0.814798 1.51874 -19.0058
5.00801 -9.92917 -9.77248
5.00446 2.54774 5.42764
-0.785998 -8.00686 5.43457
7.64671 10.0018 5.56944
-8.1258 -4.83415 -3.96414
0.949878 10.0084 7.88857
-8.15179 -6.90164 -9.75274
10.1636 2.71693 -5.34974
6.30665 -5.35895 13.4095
1.08632 -2.69282 -5.96104
7.9261 9.90591 -0.81761
8.39536 2.40615 17.1804
-3.02967 -7.20391 10.0012
11.6751 1.08452 -6.08363
11.7789 2.74924 -5.62446
-0.149676 6.74107 -16.4219
5.6701 0.0579839 19.0045
8.55776 1.84203 -11.5932
-2.37793 -5.29856 18.9639
-3.90158 4.42117 10.0843
11.6208 4.58882 9.87963
2.74814 -6.93725 -13.263
8.72955 -1.09452 16.3423
-4.25539 2.78833 -18.9522
11.7825 -5.32109 -3.46327
8.79626 -0.30832 14.6027
-4.86191 2.1661 -15.3575
9.61738 0.808459 -5.95695
9.41172 -10.0034 3.18572
-5.7277 -4.79078 3.61778
-5.04139 -2.57935 5.42037
-1.26579 -6.06992 -5.16004
-4.21557 9.94799 -1.95938
1.79842 -7.00069 12.3113
-1.28431 8.16407 -10.0087
7.38309 3.89716 -18.9003
-0.313473 6.73272 -10.2552
6.36529 -1.78058 19.0088
11.8111 -8.14707 7.74341
1.78949 8.57108 10.0067
-4.2981 10.0049 5.30994
11.8074 -3.39487 8.05453
-0.0329907 -2.01309 -19.0023
5.17806 0.947952 -19.0046
1.17051 -8.09693 5.98334
3.04085 -6.8918 15.1945
2.00932 -10.0139 -8.04968
3.42836 6.64719 18.8562
-5.20462 0.336146 -11.7361
0.244474 -7.90936 9.99155
-1.13361 10.0087 -7.66311
9.71628 -10.0089 7.30773
6.61534 10.0095 -8.09533
5.01527 6.21851 13.2054
11.8036 -5.70752 -5.7337
6.64734 -9.79386 -9.89507
6.39478 10.0054 7.3258
-8.11468 9.78323 -5.13009
11.756 8.11194 9.76785
8.6568 1.4119 -15.3366
1.70396 0.981484 -6.00296
11.518 -9.67657 9.85176
-4.74531 2.29795 -5.54804
-0.189238 -2.37035 5.67603
-3.91892 -1.0371 -5.90983
11.786 9.7151 8.42582
11.1096 9.76866 -9.97622
2.20867 9.92156 6.12995
7.96279 -4.22111 -4.26536
-3.74841 4.27272 -12.2383
4.79642 -2.95618 -5.31925
11.8056 -7.44555 -4.45352
7.73025 -7.93148 -0.894042
5.04134 3.14642 -19.0034
-0.835334 -6.28582 18.8618
-3.35466 4.83559 -10.2072
0.997031 -6.95831 -13.5507
0.438801 -0.158067 -19.0029
8.79223 0.295238 -13.8155
6.27114 -6.56364 4.00723
1.01548 -8.21145 -5.93993
-5.05791 -0.431443 18.8687
-5.06665 1.37704 -13.4228
-2.93027 10.0088 -6.2082
-1.99758 3.17864 -19.0042
6.71651 -8.40328 3.42159
11.7905 6.48065 -9.62908
2.84162 -9.78752 -9.93685
-8.20743 -7.87559 -7.64631
-8.20895 -3.71334 -7.96053
0.251568 9.96738 9.77455
-4.2686 6.44436 10.0005
-3.89025 5.45884 2.7234
-6.14703 -8.0444 -10.0252
-4.57486 -2.34001 18.9407
8.74801 -5.25671 -2.88049
-3.7832 4.03347 18.8169
9.71052 5.1446 10.0054
-2.6814 2.83932 5.27767
-6.7685 4.96492 -10.0144
-4.10767 -7.78406 -10.016
6.12831 -7.85673 -10.0066
-8.13983 -2.10002 5.91855
8.49541 2.4872 -5.46202
11.8027 5.72178 6.30886
-6.48223 -3.55583 4.83089
3.75625 6.79431 -10.1768
11.8064 6.12898 -5.07801
11.6779 2.63513 5.67424
-8.12871 -9.71569 7.83074
-5.56027 0.400849 -10.0037
-3.16338 -9.79352 -9.93276
6.01651 -5.44144 -18.734
-1.10201 -6.62445 10.0938
11.6778 -6.17053 0.0747195
7.93742 9.88478 0.824576
-2.25229 1.02006 5.92336
1.78723 -2.73136 -19.0027
-4.07518 -8.00652 -1.0866
9.82988 -4.4015 10.0082
-1.0764 4.01518 5.27019
6.36811 5.30573 -12.04
9.82551 -8.35615 10.0146
-4.91404 1.99373 15.426
2.47734 -4.56035 -19.0045
-5.18845 -0.761485 10.2738
-6.15358 5.58131 2.19655
3.12679 -6.89865 -17.2142
-3.22941 -4.87056 13.6702
9.7797 -5.94233 0.839121
5.44744 9.82614 -4.94193
-1.81796 -0.587613 -5.98695
11.8076 7.92965 1.01283
-0.743402 2.18378 5.62578
7.46935 4.10291 -13.4993
1.81239 -7.01457 16.8762
7.2205 -4.59015 -10.1398
2.6313 -4.46381 5.94331
11.5638 -5.47952 -9.87033
8.51916 -1.45691 18.7901
11.6613 -9.86059 6.23856
-6.60638 -10.0094 4.65508
-3.79818 7.69174 2.05454
-4.04265 8.31571 10.0159
6.26365 0.907617 5.93893
-8.05012 -9.91452 -4.13197
10.0518 -0.954774 -5.92751
4.33683 -4.74777 -5.43904
-8.04714 9.87896 -3.14174
11.8061 2.40511 -7.74354
-0.744169 -3.83213 -19.0079
-5.19222 8.40482 -10.0132
7.70708 5.89154 -1.75737
8.16801 -2.85882 -5.2812
6.52784 5.16116 13.4348
4.07201 -8.40661 -10.0057
-3.73543 -4.74057 10.0813
11.7186 8.10052 -9.79693
8.70226 -1.17228 12.7621
11.8063 7.64581 -3.40026
8.05798 4.0456 -4.43149
-6.2969 10.0244 8.20187
-7.91206 -2.48123 9.96906
-0.474119 0.0550234 6.00156
11.554 9.91661 4.99712
0.00293835 6.76737 12.1262
2.99667 -1.1065 5.93688
-2.10687 -2.74801 19.0047
2.33889 -1.03676 -5.99688
2.27975 7.00911 17.0904
9.95572 -10.0115 5.23083
-2.26194 -2.67267 -19.0047
0.345301 9.85773 6.01309
-8.01615 -0.273186 -9.94016
-8.11527 -9.79697 3.75666
7.03369 5.33041 3.15406
-3.69637 9.92442 3.08754
9.6248 10.0051 6.0025
0.607832 -4.39014 5.88679
11.417 9.94657 3.29773
11.5749 -3.84079 4.67261
-4.35006 -9.93067 -1.15463
8.33931 -1.64939 -19.0014
11.807 -1.97766 -7.98556
11.8121 8.41778 3.75427
-1.94703 -4.05226 -4.73809
8.01603 3.2369 15.5332
8.9306 8.31797 -10.0171
9.88751 -7.19424 -10.0074
9.77888 7.6284 10.0099
8.25506 -0.276714 6.00197
-4.04613 -4.17446 -10.1508
-0.350227 -6.30961 5.60559
8.23348 -3.23144 -10.1143
2.42827 -9.71089 9.93622
-4.35193 9.88118 -0.397941
1.13678 -9.71925 -9.93001
5.82195 4.1118 -4.50959
7.75746 3.67907 13.6852
-3.2422 -4.85307 -11.7591
6.96783 5.02931 -3.36644
-6.05906 10.0073 6.35343
2.03163 1.21531 19.0022
1.56269 -7.00176 -11.6955
8.78359 -0.0808584 -11.8633
5.32578 8.07345 4.85199
5.7121 -5.80686 -14.2268
-6.24354 10.0151 -1.37031
1.47103 1.40702 -19.004
11.5705 -9.95478 8.14237
-6.12065 -10.0083 -2.89762
-5.15606 0.834376 16.9849
-6.37421 2.9612 -10.0105
1.74835 7.38892 -6.01202
0.926501 1.41876 5.95051
-3.08222 9.9434 9.70322
3.27416 -6.86232 10.4386
-4.5415 -2.87093 -5.27539
-8.09888 -0.720501 9.68844
5.18662 -8.09541 4.94309
-1.713 6.07354 -17.0843
4.41892 -6.65816 -10.1299
-6.88743 5.4214 -2.55154
11.803 -6.84417 6.38482
1.64645 -9.93893 -6.21087
-6.12294 5.97477 0.541705
-8.06944 -6.0291 1.37144
1.31461 6.98238 13.6644
9.78885 -5.90716 -1.04723
-1.10684 -4.6605 5.26131
2.36599 4.56998 5.98607
11.6971 -2.48251 9.8163
-0.620203 6.57702 14.5304
-2.53979 -5.49711 15.4472
7.29734 -9.94582 3.16241
-4.47928 -8.2534 10.0136
8.79557 -0.42656 -15.6803
-3.55837 0.00531192 6.00128
4.35017 -4.55153 -19.0061
8.31989 2.23789 -18.7867
11.6879 6.13798 0.0653774
3.9447 -8.35547 10.0059
-3.44029 -7.79039 -2.91729
-5.19267 0.977865 10.2252
8.10528 1.61887 5.77949
-8.17013 9.76113 -7.00857
-3.99717 -9.87043 2.15781
8.69868 -1.55572 10.3419
-3.03873 10.0112 -8.0951
0.118005 -9.85981 5.86285
8.24402 6.40306 10.0032
7.1067 -7.71282 -2.79299
-2.50246 5.74393 10.0957
-2.70093 -2.47403 -5.4637
6.77331 6.69388 -3.36143
3.21428 2.23464 -5.8004
5.95946 -5.74664 -10.1859
-8.08401 2.82996 5.53519
-5.83652 10.0078 2.62965
-6.17652 -3.92895 -10.0078
6.97377 -5.41479 -3.20266
10.0856 -2.26093 10.0056
0.0691439 -10.0088 7.80332
11.5984 -1.9971 -9.87711
-2.74388 -4.96136 -18.9288
2.17975 -9.85762 6.15893
10.3676 -5.34867 -2.67405
-4.33716 10.0069 7.72967
8.17748 3.4115 -10.0886
9.34108 0.022799 10.01
11.8071 5.72209 8.25927
-6.24348 6.98605 -10.0181
9.43418 -5.05597 -10.0031
1.05915 6.96628 15.4302
8.76804 0.776566 13.1079
0.49728 -7.33327 -10.013
-5.14407 1.76671 -10.1177
-0.673737 -7.93147 -5.46676
1.09889 -6.9775 -17.0277
-5.22386 5.06933 -10.0003
3.00382 -3.12686 -5.87773
8.77833 0.22324 11.5208
8.16181 -1.0264 -5.91745
3.26512 8.28403 -5.80719
-4.11493 -7.95695 0.945833
10.0794 -3.13546 -10.0069
-4.19814 9.83329 1.39559
-2.74733 10.0051 6.85977
1.65721 7.01742 -16.858
7.44869 9.88102 2.54125
-8.07575 3.0169 9.82809
-7.9837 -0.680713 -6.00709
-5.08595 -1.2978 17.1071
-6.12926 5.896 -1.10863
4.68531 6.37297 -11.7817
0.328921 2.5302 -5.8163
4.79329 2.87049 -5.28858
8.47862 2.12117 -13.24
1.11807 -0.847784 5.98423
5.65523 10.0053 -6.55543
11.805 4.42943 -6.4486
4.53192 -6.4387 12.1273
-4.40955 -3.45045 10.2237
1.52256 7.06482 -10.2259
-4.48885 -3.11497 -17.3622
-4.87836 10.0056 -6.50066
-6.01894 -1.08579 -5.89973
-4.95923 1.84732 12.0094
-0.789899 -2.45061 -5.53057
1.13316 -4.90671 19.0056
6.66842 1.88058 -19.0133
2.36198 -7.28891 -10.0219
-0.812573 6.37576 -18.7126
-1.36017 6.07291 18.7642
2.02269 9.77481 -5.97754
11.8048 -7.76847 -2.65931
-5.3968 -2.20509 10.0112
-1.24475 -6.30373 -14.9582
7.9105 -3.21619 -18.8269
-7.92795 -9.90083 -6.28483
1.97225 6.46778 6.01731
11.712 -5.99291 -1.71052
3.40274 -6.82672 -11.5621
6.65087 -1.07692 5.91344
-4.94076 -0.639363 5.98578
5.02688 -6.19778 5.05893
-4.46356 3.40116 -10.1072
8.77806 -0.833735 -17.4309
7.92347 -7.71397 10.0065
