-0.950404 -0.216816 0.327849
-0.732404 -0.0741021 0.603119
-0.75038 -0.195448 -0.565987
-0.0643436 -0.672698 -0.239475
0.423727 -0.693673 -0.459554
-0.735108 -0.134665 -0.584117
0.099656 0.370915 0.874802
-0.0661532 -0.517369 0.019151
0.127727 0.404513 -0.179234
-0.628353 -0.113309 -0.815605
-0.882012 -0.00144921 -0.140476
0.926851 -0.0415801 -0.540275
0.776973 -0.323516 -0.585353
-0.608312 -0.0351965 0.580194
-0.339864 0.0882128 0.726987
0.645584 0.162626 -0.091004
-0.605834 0.634254 0.843498
-0.330928 -0.240013 0.240607
0.0621085 0.435642 -0.693116
0.095785 -0.570187 -0.0452631
0.664506 0.216076 -0.260369
-0.201055 0.25639 -0.697844
0.589631 0.20101 -0.0898764
0.253629 -0.417718 0.19355
0.687077 0.207235 -0.399625
-0.181089 0.0456095 -0.928695
0.225323 -0.565597 -0.0366568
-0.39062 -0.560718 -0.481396
0.0663392 -0.610943 -0.988426
0.485012 -0.268623 0.197152
-0.598539 0.562244 0.67713
0.811661 0.0987108 -0.730667
0.572265 -0.557678 -0.639009
0.0451147 0.142862 0.664379
-0.927957 -0.323374 -0.253806
0.541504 -0.462876 -0.899288
-0.812115 -0.229818 0.600855
-0.58593 0.756551 0.879976
-0.722068 0.558246 0.779245
0.793743 0.0704307 -0.655276
-0.810774 0.0266713 0.139797
-0.69998 0.0654248 0.33445
0.408364 0.379906 -0.304637
0.0756856 0.291028 -0.0616585
-0.0653897 0.240253 0.0167961
-0.270781 0.234767 -0.79801
-0.113542 -0.711612 -0.950746
-0.370876 -0.109824 0.473571
-0.233785 0.289717 -0.18971
0.387141 0.335683 -0.805776
-0.187749 -0.564869 -0.106354
0.957724 -0.0224211 -0.601826
-0.397494 -0.440466 0.0970843
0.725123 -0.437178 -0.440319
0.33166 -0.440953 0.165045
-0.481735 0.234919 -0.384902
-0.0447544 -0.694889 -0.966191
-0.454742 -0.212567 -0.754495
-0.884399 -0.134758 -0.408288
-0.78134 -0.545908 -0.00305345
0.838502 -0.167407 -0.890169
-0.416028 0.0396123 0.598573
0.916974 0.0209202 -0.727657
-0.937802 -0.156095 -0.177353
-0.00871227 0.240982 0.995074
-0.480302 -0.489714 0.0699825
-0.202776 0.161191 0.824805
0.740024 0.112539 -0.492364
-0.251205 -0.103404 0.237013
0.0476402 0.24958 0.869399
0.729408 0.0671939 -0.645929
-0.703992 -0.545115 0.5285
-0.276421 0.185185 -0.54592
0.434158 -0.0398052 0.221035
-0.644438 -0.165431 -0.849249
-0.584671 -0.342936 -0.868783
-0.861939 -0.0424242 0.358892
-0.5296 0.249769 -0.313407
0.494395 -0.347865 0.163969
0.768368 0.0267768 -0.596274
0.380368 -0.0277676 0.239597
0.138683 -0.554337 0.0130002
0.803564 -0.0542749 -0.266796
-0.605841 -0.580441 -0.113487
0.736277 -0.346894 -0.147236
-0.406542 0.0188687 0.721547
0.280148 0.119651 -0.943615
0.101249 -0.742601 -0.271533
0.0188128 -0.66898 -0.710622
0.535695 0.098768 -0.879964
-0.0644879 -0.595318 -0.66687
-0.415881 -0.0612344 0.435943
-0.720315 0.10275 -0.463272
-0.88348 -0.351639 0.0293189
0.605165 0.0955171 -0.858458
0.0859133 0.188771 0.705913
-0.934651 -0.0955053 0.206818
0.459186 -0.396254 0.146086
-0.948566 -0.281366 0.334874
0.349504 0.163733 0.137574
0.645002 -0.477221 -0.150364
0.321864 -0.726772 -0.509807
-0.515373 -0.449735 -0.587376
0.193382 -0.19726 0.265959
-0.531385 -0.377416 -0.978504
0.390214 0.226951 -0.983231
-0.0995396 -0.631217 -0.465531
0.751896 0.0600251 -0.200885
-0.246279 -0.045186 0.786011
-0.694531 0.166594 -0.418759
-0.793879 -0.0871048 0.578372
0.0578946 -0.575705 -0.116147
-0.221435 0.169428 0.749071
-0.859735 0.0219951 -0.338657
-0.198454 -0.564877 -0.322579
-0.626742 -0.625529 0.34233
-0.0725881 -0.479078 0.0575398
-0.04995 0.121633 0.73539
-0.468867 0.177292 0.0782308
-0.619103 -0.400974 -0.860454
-0.0296419 -0.016071 -0.932945
0.293871 -0.702612 -0.681787
-0.391806 0.181031 -0.860978
0.386359 0.0887984 0.176317
-0.295416 0.237065 -0.392871
-0.738611 -0.544328 -0.164626
0.132757 -0.416811 0.187634
-0.075145 0.123345 0.134735
0.664554 -0.493646 -0.538889
-0.768621 -0.143197 0.600647
-0.595948 0.577833 0.782977
0.907046 -0.330424 -0.741503
-0.925197 -0.30611 0.0460444
0.435205 -0.609094 -0.752895
0.369029 -0.506545 -0.996092
0.4257 0.235418 -0.0523192
-0.0659935 0.195178 -0.926176
0.7487 -0.356992 -0.606805
0.734606 -0.412519 -0.260352
-0.584629 -0.405126 -0.592777
-0.79924 -0.470567 -0.378729
-0.494844 -0.566844 -0.0649184
-0.38529 -0.382365 0.263052
0.224895 0.392844 -0.747278
0.376171 0.287279 -0.939622
0.388614 0.236193 0.00956309
-0.476935 -0.58418 -0.117608
-0.821402 0.0412053 -0.40709
0.519724 0.306765 -0.261587
0.778172 -0.194638 -0.919139
0.951702 -0.279687 -0.711902
-0.0714486 -0.726056 -0.3794
-0.661715 -0.392704 0.603073
-0.250376 0.0364125 0.208371
-0.574282 0.221304 0.620073
0.0256872 -0.734482 -0.253294
-0.197082 0.044929 0.176848
0.719121 0.0975243 -0.151682
0.470537 -0.645084 -0.334841
-0.892616 -0.290729 -0.00760301
0.123324 0.445185 -0.651018
0.938658 -0.232874 -0.530002
-0.59351 0.198773 -0.0517835
-0.268328 -0.588183 -0.966171
-0.942211 -0.246195 0.423484
-0.651213 0.0799156 0.211954
0.198953 0.437678 -0.632895
-0.603205 -0.538115 -0.0244625
-0.125098 0.0302697 0.588697
-0.428693 -0.600664 -0.214133
-0.28575 -0.0771511 0.727596
-0.720114 0.0462646 -0.501174
-0.254602 -0.195522 -0.981234
0.0772661 0.208097 0.0665272
0.748259 0.129196 -0.315561
0.261249 -0.148738 -0.996785
-0.801065 0.0222215 0.324545
-0.651252 0.71071 0.70197
-0.116972 0.0553707 -0.930122
0.254043 -0.133895 0.269797
-0.529595 0.00229621 -0.693243
-0.666267 0.716345 0.87982
0.594838 0.212625 -0.718964
-0.376386 0.330368 -0.957707
0.33767 -0.674432 -0.743929
0.617072 -0.550813 -0.309135
-0.852237 -0.083702 -0.446919
-0.130924 -0.462856 0.0556145
-0.875687 -0.36049 -0.0439207
0.664639 -0.494654 -0.604139
0.680379 -0.376189 -0.861745
-0.523471 -0.146643 0.614396
0.626099 -0.550236 -0.442786
-0.920908 -0.107343 -0.199295
-0.45573 0.0895761 0.185978
-0.342494 -0.33984 0.178484
0.00883589 0.494489 -0.458249
-0.547967 -0.498328 -0.801553
-0.762929 -0.539582 -0.232982
-0.513841 -0.223009 0.602461
0.751987 -0.0734664 -0.932963
-0.0918723 -0.567542 -0.599737
0.328722 0.421684 -0.406071
-0.709835 -0.34948 -0.554325
-0.922225 -0.236595 0.0319716
-0.550006 -0.0428179 -0.657509
0.629414 -0.0272786 0.0783884
-0.243346 -0.616353 -0.893269
-0.700845 -0.117383 -0.856238
-0.960207 -0.46655 0.109152
0.0807982 0.338879 -0.868945
0.256255 0.249387 -0.992859
0.608858 0.14783 -0.0302564
0.604435 -0.356623 0.0772542
-0.301491 0.103475 0.185336
0.467133 -0.62145 -0.639294
0.754996 0.094048 -0.398658
-0.286835 -0.028509 0.237806
-0.92161 -0.288723 -0.0770526
-0.138819 0.393323 -0.659004
-0.593917 0.6935 0.876006
-0.44828 -0.606502 -0.352736
0.79666 -0.00940731 -0.320654
0.56269 -0.577683 -0.492402
-0.50297 0.0582667 -0.704977
0.131313 -0.652555 -0.806958
0.433249 0.371744 -0.430903
-0.805859 0.415568 0.761212
-0.775484 0.0453 -0.470645
0.0104383 0.456882 -0.654621
-0.878894 -0.288443 0.579424
-0.924284 -0.499901 0.327069
0.620218 -0.20639 0.102595
-0.591648 0.428777 0.61619
0.785753 -0.396246 -0.791035
-0.242875 0.298867 -0.251647
-0.257077 -0.517983 -0.738944
-0.649221 0.638988 0.905891
-0.057011 -0.0436458 0.2069
0.74003 0.0349549 -0.123981
-0.174657 0.372769 -0.883388
0.69714 -0.248665 -0.000895109
-0.684977 -0.734296 0.172123
-0.75304 0.0405802 0.365514
-0.504268 -0.423588 -0.791226
-0.475509 -0.0732138 -0.98535
0.550916 -0.564569 -0.560796
-0.0524761 0.157319 0.809674
0.0740279 0.255475 0.0140903
-0.396625 -0.16672 0.372039
0.724649 -0.0501699 -0.0466319
0.642539 -0.34426 -0.90891
-0.736622 0.208594 0.738514
-0.206027 0.368341 -0.507624
-0.707896 0.0729463 0.193019
0.516657 0.335366 -0.419409
0.875447 -0.234751 -0.854876
-0.726166 0.429629 0.591865
0.343649 -0.707734 -0.581429
0.0121263 -0.496875 0.0736186
-0.196283 -0.083929 0.214617
0.0747149 0.116621 -0.9274
-0.376776 -0.590806 -0.233759
0.0752505 0.483096 -0.478023
-0.399508 -0.0739393 0.316992
0.678545 0.189761 -0.576593
0.0501199 -0.646578 -0.848711
-0.413832 -0.417988 -0.977996
-0.842274 0.0170608 -0.0482786
-0.760237 0.22444 0.543435
-0.455971 0.0975025 -0.80819
0.125421 0.168983 0.125062
-0.632331 0.732045 0.933551
-0.24536 -0.528656 -0.667761
-0.835871 0.053306 -0.125036
-0.483941 -0.433366 -0.97745
-0.317487 -0.0994279 0.678781
-0.470001 -0.358687 0.56867
-0.913639 -0.423072 0.0670873
0.632228 0.213548 -0.657587
-0.0501076 0.301184 -0.116242
0.701151 0.164462 -0.250963
0.484881 -0.491201 -0.00665778
-0.36337 0.243319 -0.358933
0.199628 -0.651982 -0.812926
-0.337193 0.154968 -0.799789
0.276363 -0.0748619 0.265562
-0.508195 -0.552601 0.218958
0.334716 -0.075145 0.259339
-0.718887 0.330977 0.800707
0.1722 -0.0757442 -0.948273
-0.906563 -0.192421 -0.368205
0.330768 -0.728335 -0.322049
-0.147114 -0.222405 0.200028
0.519802 0.24136 -0.827907
-0.692651 -0.136515 0.609361
-0.0151615 -0.0956413 0.226109
0.0124957 0.110351 0.696424
0.332055 0.0926096 0.192199
-0.307992 -0.102225 0.54382
0.00458123 0.284481 0.812715
-0.220227 -0.381449 -0.971976
-0.587259 0.639572 0.777777
0.378808 0.372778 -0.744026
-0.873189 -0.565961 0.0256045
-0.131769 -0.0447718 0.194159
0.68483 0.134132 -0.11916
0.249444 0.33833 -0.164262
-0.0508978 -0.353434 -0.935625
-0.15298 0.449942 -0.290781
0.205579 -0.702022 -0.191735
-0.309754 -0.0646481 0.502816
0.356729 0.387523 -0.689299
-0.664735 -0.579519 -0.341669
0.234311 0.431314 -0.563331
-0.123108 0.0333879 0.174293
-0.954917 -0.168013 0.0744135
0.546898 0.274446 -0.205996
-0.243691 -0.426772 0.104884
0.39091 -0.695037 -0.347558
-0.978354 -0.222059 0.253817
-0.676673 -0.542951 -0.411031
-0.669497 0.051301 -0.536762
0.48807 -0.576648 -0.766134
-0.740911 0.248735 0.599951
-0.0586137 -0.621293 -0.593584
-0.808412 0.00715248 0.401082
0.364441 0.402586 -0.470134
-0.326196 0.190116 -0.526209
-0.861873 -0.49341 0.0223903
0.270265 -0.50179 -0.992613
0.381892 -0.2883 0.239569
-0.462003 0.149019 -0.534398
-0.943081 -0.302729 0.397613
-0.291659 -0.574236 -0.224931
-0.13791 -0.514937 -0.581539
-0.0575145 -0.668205 -0.515517
-0.464475 -0.0208256 0.412758
-0.0430824 0.491586 -0.50518
-0.0690046 0.00795266 0.641642
-0.913971 -0.282212 -0.301737
0.0385816 -0.699278 -0.642251
-0.547668 -0.588039 -0.144845
0.393206 -0.698709 -0.412416
-0.889735 -0.124352 0.019705
0.00539676 0.208168 0.850319
-0.0119498 -0.222323 -0.9377
-0.813634 -0.65562 0.38483
-0.195485 -0.292747 0.190878
-0.247084 0.203909 -0.938567
-0.475217 0.193643 -0.454972
-0.45914 -0.419874 -0.63152
0.134755 0.421569 -0.716748
0.21826 -0.505242 0.106193
-0.0774469 -0.419525 0.119733
-0.300222 0.374334 -0.932648
-0.883027 -0.0785822 -0.375575
0.120873 0.115642 0.181632
0.143956 0.298412 -0.11933
0.0161369 0.25298 -0.00975937
-0.664757 0.171424 -0.103917
-0.533244 -0.405669 0.58609
0.401576 -0.647125 -0.211582
0.283794 -0.227792 -0.996853
-0.247716 0.382521 -0.918107
0.226082 -0.599675 -0.86013
-0.418396 -0.07195 0.372351
0.164772 -0.750455 -0.398131
-0.966945 -0.38161 0.273806
0.0151211 0.165408 -0.925998
-0.860798 -0.665893 0.315863
-0.659693 -0.640561 0.404577
0.196515 0.404695 -0.189688
0.0031764 -0.699486 -0.213934
-0.744602 0.375314 0.532824
0.410032 0.16634 0.108993
0.27827 -0.690397 -0.756478
-0.26779 -0.564001 -0.457232
-0.900423 -0.188256 0.0133037
-0.218989 0.00189206 -0.930743
-0.0350605 0.397702 -0.773779
0.204396 -0.397388 -0.932599
0.0670879 -0.672053 -0.172404
-0.49804 0.106564 -0.866364
-0.373443 0.262299 -0.167606
-0.82574 -0.17422 0.589729
-0.633682 0.0627345 0.386408
0.922935 -0.214059 -0.819146
-0.0551621 0.0531628 -0.929592
-0.735848 -0.206879 0.613205
0.588166 0.279774 -0.402116
0.813156 -0.199391 -0.471487
-0.618174 0.0321595 -0.983084
0.548843 0.100194 0.0748242
-0.875621 -0.0731628 0.0485537
0.673353 0.0791218 -0.878441
-0.879087 -0.366711 0.563144
0.728136 -0.292837 -0.0692866
-0.436118 -0.188573 -0.971724
-0.695575 0.0345069 -0.971984
-0.0676425 -0.706744 -0.894754
0.282686 -0.195495 0.270802
-0.227825 0.113489 0.13601
-0.684188 -0.0404232 0.619503
-0.335978 -0.569127 -0.49531
0.406838 0.274574 -0.094502
-0.625185 -0.536675 -0.460107
-0.0850006 0.496669 -0.446029
0.119252 -0.314523 -0.9377
-0.902887 -0.0376034 -0.184687
0.560674 0.14479 0.0147673
-0.583763 -0.0986867 -0.649137
-0.68428 -0.553351 -0.110374
0.804042 -0.348575 -0.839019
0.647895 0.105707 -0.797573
-0.267862 -0.250945 0.223381
-0.633297 0.567195 0.839458
-0.248198 0.165755 -0.615374
-0.465729 0.100527 -0.67122
0.794828 -0.291775 -0.467989
-0.922801 -0.390143 0.511247
0.0438552 0.291973 0.978294
-0.68721 -0.0167683 -0.864458
0.986242 -0.219352 -0.594026
0.315118 -0.328439 0.24216
-0.452264 -0.260607 -0.718872
0.516479 -0.525239 -0.785955
-0.475296 -0.410626 0.542265
0.283631 0.413164 -0.62088
0.236482 -0.729278 -0.649959
0.127503 -0.174066 0.258296
-0.880857 -0.387411 -0.295388
0.442462 0.355467 -0.754482
-0.569239 0.0967753 -0.903658
0.579738 -0.508894 -0.738677
-0.419832 -0.0160493 0.4744
-0.0867784 0.464876 -0.572094
0.271659 0.178516 -0.961619
-0.174416 0.22156 -0.929303
0.0146841 0.0394086 -0.930068
0.536387 0.281765 -0.707978
-0.973772 -0.234188 0.083676
0.111349 0.392765 -0.80967
0.408668 -0.566818 -0.913169
-0.579264 0.0865042 -0.97981
-0.463888 -0.44902 0.332191
0.969925 -0.270073 -0.643889
-0.769453 0.363706 0.795354
0.711686 -0.361235 -0.0977374
-0.616961 0.0019101 -0.829054
-0.0641214 0.496627 -0.388911
-0.464731 -0.266576 -0.816572
-0.488177 -0.111509 0.651534
-0.199746 0.422419 -0.451637
-0.175531 -0.346748 -0.942165
-0.341831 0.204091 -0.983089
0.48063 -0.00751896 0.18717
0.816291 -0.111887 -0.491469
-0.193783 0.359624 -0.267341
-0.445867 -0.435674 -0.680474
-0.317306 0.208026 -0.477569
-0.645956 -0.413225 -0.966972
0.757932 0.0960641 -0.270583
-0.487875 -0.343894 -0.802921
-0.192851 -0.493946 0.00959645
-0.668725 0.261851 0.764432
-0.729486 0.36296 0.614688
0.172308 -0.740066 -0.539537
-0.748831 0.039461 0.4363
-0.0809776 0.325493 -0.981115
-0.879586 -0.16362 0.557832
0.467593 0.356405 -0.367189
0.0614403 -0.276466 -0.938185
-0.656434 -0.594423 -0.260392
-0.794151 -0.709139 0.185744
-0.149836 -0.42001 -0.933805
-0.403196 0.200175 -0.463531
-0.808297 0.468528 0.804123
0.658678 -0.156263 0.0594851
0.868813 0.0685453 -0.738281
-0.807219 -0.721571 0.274736
0.158526 -0.454159 -0.931539
-0.544412 0.17284 -0.496838
-0.907961 -0.153421 -0.0413046
-0.158118 0.202387 0.0465752
-0.726156 0.28327 0.510762
-0.154872 -0.413172 0.104793
-0.842602 -0.0975182 0.550815
-0.908775 -0.134471 -0.328821
0.165725 0.402685 -0.768943
-0.686387 0.0900382 0.0586238
-0.735568 0.598722 0.840284
0.131085 0.445963 -0.223722
0.00421489 -0.0857476 -0.934522
-0.114695 0.100936 0.833322
0.330574 0.363609 -0.804952
0.476451 0.0475816 0.159206
-0.578178 -0.638851 0.142895
-0.674642 0.134065 -0.470869
-0.672681 -0.57909 -0.167528
-0.366719 0.291415 -0.89151
-0.329452 -0.390337 0.137894
0.0694589 -0.546104 -0.972023
0.297482 0.423359 -0.530516
-0.81842 0.0788732 -0.347882
0.42467 -0.240762 0.233026
0.416588 -0.640013 -0.671953
0.226924 -0.0986571 -0.994145
-0.587529 0.361867 0.583179
-0.727156 -0.0568186 -0.893464
-0.138536 0.364516 -0.710075
-0.206158 0.223007 0.00223829
0.676868 -0.305189 0.0161829
0.152262 0.0361407 -0.929539
0.335239 -0.565373 -0.985637
-0.664599 -0.496738 0.560633
-0.601002 0.723707 0.711718
-0.50584 -0.155245 -0.726093
0.667912 0.236929 -0.344579
-0.598556 0.0370179 0.572195
-0.230827 -0.588226 -0.256697
-0.599893 0.436214 0.748452
0.26934 -0.746379 -0.3468
-0.547422 0.17165 0.0521025
0.452941 -0.152214 0.223487
-0.855442 -0.182016 -0.440182
0.851132 -0.346025 -0.793214
0.225656 -0.733966 -0.585547
0.0614503 0.149994 0.133996
0.809609 -0.199864 -0.396252
-0.792972 0.0973499 -0.112275
-0.678126 -0.509294 -0.467885
0.806196 -0.262025 -0.413576
0.404051 -0.445571 0.131713
-0.785292 0.023547 0.0826814
-0.179119 -0.591827 -0.808218
-0.119961 0.215197 -0.928193
-0.505005 0.137617 0.12056
-0.164922 0.443766 -0.49192
0.39727 -0.399848 0.18358
-0.924319 -0.0772778 -0.270382
0.478962 0.359659 -0.54869
-0.574549 0.36536 0.657227
-0.574088 -0.525478 0.390985
-0.637755 0.0888534 0.105395
-0.834024 -0.137238 -0.481882
0.441972 0.340022 -0.26188
-0.105111 -0.13087 -0.935452
-0.908446 -0.248197 -0.351997
0.400838 -0.614571 -0.131067
-0.796647 -0.496963 -0.165693
0.476533 -0.531736 -0.929242
0.0493256 -0.027685 -0.932843
0.180093 -0.700431 -0.678938
-0.915982 -0.436739 0.376622
0.428063 -0.256662 -0.991428
-0.927715 -0.142652 -0.104236
-0.824466 -0.215241 -0.498233
-0.375512 -0.370481 -0.984738
-0.158401 -0.524391 -0.96023
0.167007 -0.609403 -0.865641
0.542044 0.153345 -0.846675
-0.770753 0.0953009 -0.407735
-0.885273 -0.322981 -0.344897
0.540706 0.197895 -0.0452616
-0.626622 0.528577 0.60288
-0.544309 -0.581246 0.170484
-0.689344 0.570594 0.573632
-0.0959114 -0.690013 -0.318296
-0.848362 -0.413028 -0.0604365
0.427059 0.108803 0.147901
-0.540085 -0.277494 0.606631
-0.503605 -0.192414 -0.803548
-0.73823 0.30114 0.625845
-0.753197 0.0595213 0.281835
-0.394092 0.161255 -0.580004
0.544223 -0.374303 0.119777
-0.468198 -0.292638 0.57714
0.127769 -0.752333 -0.460707
0.0368257 -0.74808 -0.3141
-0.685504 -0.52335 -0.0108994
-0.611826 -0.551765 -0.88925
-0.226664 0.363061 -0.445727
-0.497169 0.0985531 -0.594846
-0.10562 -0.623607 -0.240839
0.130624 0.485124 -0.360385
0.395913 -0.553138 -0.0634182
0.922167 -0.273322 -0.78666
-0.186011 -0.0327141 0.588161
-0.45713 -0.350105 0.48579
0.196784 0.137724 0.151357
-0.753749 0.0582338 0.135427
0.645722 -0.464956 -0.728954
0.808268 -0.0786799 -0.329696
0.597142 0.138721 -0.790238
0.609908 -0.515835 -0.671334
-0.208882 -0.643655 -0.865391
-0.821873 -0.365782 0.585007
-0.199935 0.282945 -0.634342
0.414653 -0.320676 -0.994815
-0.553516 -0.0897477 0.601843
-0.323117 0.152746 -0.604448
0.656807 -0.426221 -0.0854301
0.711274 -0.208837 -0.946621
0.212868 0.131164 -0.927453
-0.442841 0.21439 0.0146335
0.322575 0.241325 0.0383049
0.639704 0.238165 -0.428298
-0.454818 -0.489796 0.244596
0.070795 -0.0908591 -0.935114
0.391533 0.0421967 -0.994701
-0.162934 -0.351586 0.147536
-0.622546 0.364777 0.532615
0.167303 -0.484353 0.130288
-0.0647421 -0.0885367 -0.934734
0.334392 0.27546 -0.983425
-0.815457 -0.634367 0.0415144
-0.958749 -0.155397 0.269988
-0.812257 0.105699 -0.195592
0.76035 -0.370249 -0.44777
-0.754008 0.3011 0.547795
-0.949331 -0.572355 0.231842
-0.848228 -0.535622 0.481523
0.48733 0.354699 -0.483938
0.661254 -0.231649 0.0535934
-0.0246217 0.231871 0.744746
-0.679628 -0.676373 0.347777
0.390724 0.31542 -0.193104
-0.386035 -0.552609 -0.827675
0.509641 -0.0786455 0.186124
-0.111374 -0.529572 -0.676139
0.00171936 0.180598 0.782495
0.0645622 0.29245 0.92334
0.627346 0.154869 -0.735331
-0.0276075 -0.171926 0.22726
-0.60823 -0.497266 -0.83762
0.332367 0.410346 -0.330281
0.926499 -0.329092 -0.659006
0.56169 0.0539621 -0.936865
0.103026 -0.71635 -0.669977
0.73821 -0.267007 -0.921151
0.116289 -0.633133 -0.877618
0.661599 -0.0881546 0.0514226
-0.434845 -0.469209 -0.60199
0.629404 -0.376792 0.033683
-0.507582 -0.544287 -0.803274
-0.897215 -0.0104049 -0.244117
-0.491556 0.0114216 0.380484
0.757599 -0.281396 -0.145902
-0.654429 0.192212 -0.167922
-0.577955 0.0377378 0.507483
-0.774099 0.173762 0.605352
-0.205813 -0.594486 -0.980506
-0.443204 -0.297619 0.447184
-0.399093 0.235222 -0.0442352
-0.475037 -0.0312419 0.662502
0.756354 -0.0287117 -0.111771
-0.14159 0.0450507 0.886696
0.397402 0.0337313 0.207301
0.405675 0.393051 -0.504523
0.526844 0.245437 -0.113799
-0.309961 0.110448 0.649092
-0.525046 0.0620452 -0.818977
0.695805 -0.14062 -0.960728
-0.568883 -0.178069 -0.826967
0.617029 0.0948787 0.0238312
-0.756814 -0.513181 -0.113873
-0.534302 0.126506 -0.537887
0.674449 -0.0321433 0.0239028
0.805988 -0.225614 -0.339776
-0.491699 -0.2382 -0.982929
-0.0480809 0.254022 0.807068
-0.0971867 0.369246 -0.778151
-0.601437 0.153708 0.646286
0.496439 0.158148 0.0638323
-0.273899 -0.501109 0.00203541
-0.296515 0.019062 -0.957138
-0.227332 -0.565149 -0.398356
-0.36067 -0.200739 0.293375
-0.771531 0.13699 -0.162748
0.287962 -0.422627 -0.940931
-0.945744 -0.272385 -0.221926
-0.713735 -0.64426 0.430504
-0.877833 -0.0221498 -0.0779249
-0.209507 -0.528791 -0.0549435
-0.213088 0.214195 -0.765675
-0.749809 0.06495 0.0299366
0.767829 -0.345574 -0.523498
-0.64981 0.316284 0.503438
-0.635877 0.0512634 -0.869002
-0.531701 -0.50393 0.515298
-0.117435 0.243964 0.0031279
0.537473 -0.0277994 0.154646
0.804875 -0.0448768 -0.475116
0.139977 -0.723632 -0.217297
-0.789526 -0.577072 0.48506
0.187905 0.278435 -0.988422
0.0895459 0.182505 -0.927964
0.21042 -0.693825 -0.777641
-0.609872 -0.137289 0.603225
-0.922767 -0.508953 0.0497064
0.324112 0.351461 -0.191732
0.858248 -0.0886379 -0.512472
-0.575368 -0.621158 -0.269657
-0.140124 0.204215 0.832582
0.0263496 0.0962752 0.153274
-0.361338 0.028962 0.771496
0.392491 -0.100467 0.246538
-0.466412 -0.364763 -0.712477
-0.479436 -0.513311 0.0117102
0.579803 -0.250963 0.136299
0.706678 -0.110406 -0.011154
0.234395 -0.74742 -0.406241
-0.125437 0.358003 -0.841872
-0.774186 0.511014 0.866175
0.262219 -0.561024 -0.0844657
0.44063 -0.67565 -0.379919
0.267406 0.374678 -0.791407
-0.268053 -0.392244 0.15069
-0.548565 -0.383797 -0.824361
-0.81718 -0.422994 -0.405688
-0.897533 -0.0385638 -0.316813
-0.245999 -0.55548 -0.826222
0.255306 -0.65607 -0.160115
-0.324263 0.257782 -0.120346
0.767477 -0.00218166 -0.163789
-0.76998 -0.528037 0.529585
0.254718 -0.293806 0.255518
-0.348839 0.221596 -0.824689
-0.204958 0.161068 0.0957333
-0.630297 0.744665 0.818549
0.545554 -0.495161 -0.0428687
-0.266721 0.215071 0.0311307
-0.428981 -0.479146 -0.97717
-0.040519 0.277853 -0.0360351
0.563496 0.246431 -0.76617
-0.23238 0.363209 -0.382868
0.699017 -0.449516 -0.209331
0.112292 -0.63878 -0.9676
0.50579 -0.598944 -0.594181
-0.680605 0.195718 -0.281537
-0.411911 -0.29532 0.363936
0.177298 -0.316444 0.248445
-0.871799 -0.675197 0.179458
-0.415874 -0.523765 -0.540411
-0.264676 0.231108 -0.470897
0.334893 -0.608273 -0.131525
0.251649 0.445898 -0.409339
-0.599762 -0.60492 -0.338569
-0.386647 -0.592397 -0.159217
-0.732812 -0.265998 -0.580064
-0.194958 0.0411522 0.871769
0.529086 -0.457807 0.0216856
-0.725948 -0.600469 0.482426
0.0334121 0.388837 -0.807586
0.0340577 0.337083 -0.929001
0.107041 -0.758266 -0.378773
0.439515 0.227418 -0.924849
-0.773935 0.425431 0.819052
0.253781 0.261978 -0.00963179
0.784059 -0.239153 -0.195551
0.018494 -0.453088 -0.930714
-0.558235 -0.161753 -0.666508
-0.616664 -0.0300753 -0.623191
-0.289023 0.170458 0.0912994
-0.111964 -0.475142 -0.928342
-0.0517098 0.254456 -0.983365
-0.413484 -0.126911 0.665837
-0.00244881 -0.399506 0.160523
-0.638213 -0.448183 -0.887805
-0.00871992 0.428879 -0.720441
0.804628 -0.034297 -0.404817
-0.181165 0.103803 0.598835
0.61231 0.041834 0.0646161
-0.427345 -0.0227076 -0.984972
-0.441914 -0.495152 0.174301
0.00384714 -0.532837 0.0168643
-0.319149 0.0641482 0.797792
-0.435854 0.254644 -0.328442
-0.609334 -0.697729 0.14659
0.866807 -0.110624 -0.869284
-0.619253 0.080592 0.15179
-0.694642 -0.165692 -0.617636
0.449269 0.0607851 -0.976047
0.222765 0.0542341 -0.932647
0.385202 -0.65512 -0.736121
0.56628 -0.570919 -0.20025
-0.749301 0.166468 -0.304486
-0.750453 -0.602953 0.00700745
-0.0379845 -0.72021 -0.27951
-0.968323 -0.535183 0.127721
0.263904 -0.701242 -0.203887
-0.578716 0.156564 0.573527
0.795251 -0.130418 -0.211155
-0.793482 -0.160321 -0.519144
-0.91841 -0.0586555 0.141003
-0.627335 -0.553177 -0.958167
0.961525 -0.221263 -0.757085
-0.616548 -0.57584 -0.397954
-0.540344 0.0458065 0.366531
0.596034 -0.486321 -0.0987156
-0.624308 0.194522 0.702572
-0.661896 0.178557 0.464912
-0.503704 -0.499455 -0.976702
-0.289577 0.146046 -0.934591
0.00678359 0.189822 0.682919
-0.673122 -0.691231 0.0582659
-0.687968 -0.33408 0.613166
-0.322718 0.0716558 -0.957817
0.805351 -0.0212669 -0.541131
-0.535264 -0.626874 -0.89912
-0.119816 0.136838 0.633471
0.65387 0.0410872 0.0170047
0.138324 -0.746332 -0.317721
-0.371533 0.0742766 0.656087
-0.330716 0.225025 0.00264976
0.0101475 0.49486 -0.399869
-0.950008 -0.309598 0.459703
0.735434 0.0452803 -0.882167
-0.471304 0.0264687 0.310761
-0.089316 -0.303678 -0.937692
-0.440543 0.141104 0.141555
-0.388748 0.255413 -0.100466
0.504864 0.0827014 -0.924741
0.497536 0.33386 -0.705875
-0.876694 -0.631163 0.0556686
-0.282667 -0.582162 -0.290397
-0.509261 -0.593898 -0.835781
-0.644017 0.407881 0.797375
-0.0506829 0.067884 0.171539
0.148696 0.329794 -0.875035
0.876971 0.0312735 -0.794361
-0.605268 0.0943621 0.615602
0.943589 -0.296006 -0.595249
0.334447 -0.177515 -0.990879
0.700727 0.0602369 -0.084674
0.602954 -0.390154 -0.871815
-0.591321 -0.557967 0.326329
-0.41138 -0.0864428 -0.986349
-0.539889 -0.306338 -0.981604
-0.620903 -0.497029 -0.512805
0.327232 -0.145734 0.267165
-0.675354 0.148053 -0.0499014
-0.599007 0.144042 0.477635
-0.668554 -0.0021855 -0.592217
0.208919 0.420793 -0.688107
-0.215709 0.205232 -0.676144
0.320836 -0.45948 -0.987077
-0.820928 -0.493359 0.531976
-0.630219 -0.358584 -0.923961
-0.124201 -0.0282725 0.639267
0.683202 -0.412973 -0.723398
-0.645962 0.20514 -0.228372
-0.226139 0.263529 -0.981676
0.0107802 -0.624592 -0.792309
-0.696703 0.367044 0.510871
0.469596 -0.614453 -0.231988
0.254228 0.349566 -0.837912
0.0331154 0.495509 -0.314904
0.188055 -0.149691 -0.978422
-0.233752 0.149392 -0.923494
-0.410898 -0.489526 0.0391767
-0.996687 -0.302209 0.178411
-0.435683 -0.616176 -0.280991
0.423005 -0.508108 0.00147513
0.108057 0.345645 0.810107
0.805806 -0.139095 -0.277635
-0.487655 -0.201052 -0.693553
-0.574192 -0.471504 -0.556206
-0.607131 -0.620665 0.275333
-0.237637 0.241945 -0.533971
0.536926 -0.603049 -0.234712
0.720947 0.0961294 -0.828704
0.0047082 -0.01741 0.21422
0.00120553 0.30095 0.942452
-0.276355 0.0695393 0.561569
0.497076 0.277859 -0.142608
-0.138812 0.169177 0.895441
-0.531818 -0.334873 0.598757
-0.230152 -0.00803964 0.730479
-0.839128 -0.0490331 0.417891
-0.930962 -0.332852 -0.181396
0.571335 -0.595797 -0.316022
0.812586 -0.141549 -0.421605
0.378145 -0.416352 -0.993332
-0.512561 0.247483 -0.142152
-0.663311 -0.586082 0.487557
0.632244 -0.167921 -0.981127
0.668517 0.159949 -0.6726
-0.127529 -0.511533 -0.0054527
0.245772 -0.359529 0.2306
-0.694901 0.518141 0.862672
-0.923397 -0.0881235 0.281374
-0.418416 0.181644 0.0710164
-0.0163551 -0.512649 -0.931303
-0.179826 0.375503 -0.959565
0.0908412 0.330414 -0.940453
0.284833 0.428743 -0.281188
-0.582417 -0.501797 0.54888
-0.55871 -0.55745 0.266154
0.260723 0.000823558 0.247629
-0.659576 -0.683651 0.283324
0.212055 0.438529 -0.25458
-0.601662 0.753159 0.777863
-0.184415 0.0440922 0.75267
0.390798 0.359399 -0.242785
-0.723857 0.164567 0.482554
-0.271824 -0.564725 -0.145387
-0.599874 0.170088 0.00543186
0.0266106 0.279699 -0.990463
-0.268876 -0.535147 -0.0766723
0.0590122 -0.656398 -0.915776
0.957739 -0.0147933 -0.674177
-0.647644 0.0270649 0.628307
-0.629381 -0.172005 -0.645869
0.240055 0.238724 0.065748
0.538128 0.314196 -0.353692
-0.875355 -0.668095 0.107151
0.522101 -0.398963 -0.950987
0.664195 -0.510162 -0.453348
0.676105 0.0235894 -0.935774
-0.167205 -0.498208 -0.650201
-0.852029 -0.0969822 0.489887
0.0401341 0.277058 0.765667
0.507951 0.181526 0.00830269
0.854279 0.077833 -0.670675
-0.439778 -0.544272 -0.977988
-0.580138 0.703618 0.806275
0.313351 -0.58383 -0.915901
0.359127 0.407926 -0.557631
0.84927 -0.35055 -0.616672
-0.127785 -0.306575 0.166015
0.257731 0.118876 0.176836
0.701549 -0.460106 -0.497673
-0.582106 0.227158 0.55682
0.702513 0.129863 -0.635055
-0.653719 0.34548 0.78701
-0.616259 0.134782 0.0571612
-0.796758 -0.510403 -0.271866
-0.0448229 -0.619661 -0.985705
0.782005 0.0241983 -0.377987
0.443614 0.303262 -0.812527
-0.708259 0.661729 0.874492
-0.521296 -0.3907 -0.616361
-0.66538 0.109675 0.444187
-0.139755 -0.689735 -0.876793
0.523213 0.322587 -0.550638
-0.133644 0.268632 -0.984927
0.0133492 0.482729 -0.540267
-0.697746 0.0775257 0.270151
-0.912156 -0.0401809 0.226116
-0.683055 -0.628655 0.0247934
-0.771477 0.0163694 0.492131
0.424055 0.381721 -0.583668
-0.305388 0.130967 -0.66279
0.11102 -0.109176 0.253738
-0.599716 0.0760675 0.447186
-0.409575 -0.185846 0.510573
-0.158718 0.0475136 0.813703
0.800023 -0.228652 -0.273384
-0.438283 -0.37144 0.36418
0.194283 -0.574958 -0.113287
-0.0336876 0.327143 -0.974859
0.27544 -0.724203 -0.278704
0.549412 -0.00364076 -0.977349
-0.737931 0.463085 0.84989
0.739124 -0.164399 -0.0642039
-0.0743525 -0.233311 0.206411
-0.841795 -0.455735 -0.295233
-0.692148 -0.225519 -0.615614
-0.837755 -0.261218 -0.463616
-0.654569 -0.722237 0.112441
-0.208412 -0.529838 -0.592274
-0.940284 -0.267252 -0.146386
-0.490875 -0.538731 0.143372
0.692861 -0.4119 -0.133179
0.109252 -0.734148 -0.529056
-0.599024 0.205532 0.505615
-0.63168 0.0927153 -0.532176
0.811249 -0.0878785 -0.399255
-0.59613 -0.0732151 -0.983108
0.667831 -0.300979 -0.93638
0.692516 -0.343175 -0.0340707
0.604778 0.271957 -0.473694
-0.654168 -0.195247 0.613682
-0.496107 -0.00919871 -0.9844
-0.487102 -0.0142312 0.465549
-0.468598 0.080897 -0.75409
-0.572589 0.294279 0.623579
-0.432031 -0.236989 0.481156
-0.312577 0.147751 0.131754
-0.0229614 0.350187 -0.906985
0.675018 -0.467101 -0.670151
-0.563114 -0.443102 -0.976695
-0.158948 0.199062 0.771268
-0.619975 0.260356 0.726671
-0.11591 -0.369299 -0.936389
-0.848845 -0.426817 0.553986
-0.427545 0.228156 -0.394301
0.393641 -0.680164 -0.601566
-0.17992 0.263545 -0.0420172
-0.912921 -0.0792353 -0.130034
0.74065 0.0791961 -0.57232
-0.666229 -0.0773575 -0.613461
-0.0670417 0.0714717 0.61039
-0.265408 0.11346 0.81307
-0.148871 -0.651962 -0.82573
-0.708669 -0.434051 0.588077
0.0806993 -0.00770022 0.231172
0.788294 -0.0658722 -0.189021
-0.0689134 0.0128661 0.189794
-0.579962 0.0789032 0.206801
0.469073 0.129187 0.104893
0.324296 0.00673087 0.240155
-0.891328 -0.397084 -0.148587
-0.733531 0.100858 0.473511
0.461233 0.209681 -0.00230564
-0.941402 -0.440879 0.296412
0.579169 0.283334 -0.537779
-0.26632 -0.586522 -0.364346
0.886357 -0.326554 -0.588761
-0.459762 -0.365194 -0.981613
-0.545531 -0.502342 0.344541
0.648254 0.218902 -0.526665
-0.710944 0.531089 0.707993
0.996389 -0.131088 -0.628692
-0.726403 0.456888 0.534821
0.0728074 -0.516863 0.0664281
0.773083 -0.31317 -0.213838
0.814592 0.074304 -0.806659
-0.163195 -0.572024 -0.371315
-0.928556 -0.370729 0.410241
-0.935709 -0.141058 -0.272038
-0.634317 -0.600519 0.448205
-0.789384 0.133847 -0.257768
-0.310186 0.263049 -0.325333
-0.731934 -0.728808 0.227815
-0.207898 0.00135931 0.682056
-0.201021 0.0386512 0.558533
-0.509093 0.115775 -0.980672
-0.475291 -0.499028 -0.557808
-0.908809 -0.0935287 0.350296
-0.671607 0.680963 0.815367
-0.748012 -0.363271 0.604141
-0.377911 -0.139058 -0.964996
-0.314978 -0.156221 -0.96475
0.264486 -0.593533 -0.135827
-0.9906 -0.243065 0.190376
-0.717427 0.169963 -0.187548
0.183155 0.342892 -0.151645
0.071842 -0.498459 -0.936901
-0.855971 -0.693413 0.243348
0.636518 -0.285916 0.0775582
0.575949 0.259482 -0.667112
-0.194453 0.431659 -0.369781
-0.00695744 -0.707353 -0.530567
-0.555134 -0.586154 -0.39407
-0.199729 -0.514502 -0.771724
0.208067 -0.441574 0.17157
-0.61874 -0.245667 -0.644147
-0.638567 0.0780228 0.28404
-0.697452 -0.448355 -0.511703
-0.390172 -0.508845 -0.618317
0.305335 0.329672 -0.87286
0.686468 -0.493674 -0.26836
0.027169 0.341461 -0.861123
-0.358833 -0.0474286 0.254265
-0.426727 -0.0502964 0.713226
-0.467464 -0.322666 -0.757797
0.152662 -0.263871 -0.939
0.594591 -0.290546 -0.959944
0.409214 -0.171887 -0.983092
-0.755368 0.136564 0.551527
0.31777 -0.721448 -0.400598
-0.251668 -0.0110128 0.527728
-0.365156 -0.0246727 0.476735
0.362511 -0.514227 -0.000750026
0.240084 -0.738513 -0.515381
0.0577368 0.412672 -0.182614
-0.624637 -0.546358 0.517483
0.482929 0.17429 -0.879235
-0.0694624 0.402609 -0.195233
0.361641 0.255524 -0.0526221
0.432435 0.293325 -0.877795
-0.966328 -0.492891 0.181284
0.578953 -0.588163 -0.413539
-0.0956363 0.0849802 0.921753
0.309034 0.0145398 -0.995956
-0.247217 0.245685 -0.0417478
0.265522 0.0483595 -0.972779
0.216511 -0.547584 0.0349075
0.209066 -0.00937933 -0.948827
0.0681404 0.23085 0.797892
0.790081 0.0504472 -0.853038
0.980463 -0.222783 -0.695497
-0.482562 -0.34096 -0.654688
-0.177392 0.325448 -0.226752
0.547259 0.32024 -0.475101
0.15431 -0.525272 0.0658811
0.540193 -0.329098 -0.96162
0.485486 -0.437057 0.103893
0.295221 0.274198 -0.0756581
-0.519766 0.0506001 0.287623
-0.436323 -0.610232 -0.963801
-0.3171 0.00336053 0.503134
0.373809 -0.240205 -0.990021
-0.548245 -0.222599 -0.670205
0.158722 0.32614 -0.949185
-0.345997 -0.526825 -0.742517
-0.311609 -0.361975 -0.982826
0.714156 -0.452373 -0.325727
-0.282574 -0.553874 -0.621754
-0.560691 -0.276538 -0.65393
-0.21087 -0.448466 -0.959671
-0.453719 -0.602056 -0.85629
-0.0815683 0.196279 0.938576
0.150051 0.214867 0.0637946
-0.1563 -0.0280215 -0.931302
-0.411151 0.258528 -0.235217
0.644656 -0.0824146 -0.9767
-0.0865248 -0.678974 -0.828165
0.361702 -0.213317 0.257959
0.590943 -0.527841 -0.152425
0.692811 -0.476939 -0.393671
-0.619114 -0.559669 0.035366
0.731089 -0.0113884 -0.928297
0.388433 -0.348229 0.21844
-0.421615 0.204952 -0.972171
-0.870415 -0.608539 0.383957
0.0844209 0.0379271 -0.929963
0.0965696 -0.446537 -0.9313
-0.75057 -0.687032 0.060465
-0.409037 -0.11919 0.408136
0.729003 0.154877 -0.374037
-0.97953 -0.196645 0.129837
0.0641881 0.347745 0.951026
0.913555 -0.0883897 -0.825667
-0.727585 -0.0130676 -0.53687
-0.199361 -0.497535 -0.708716
0.36828 0.206956 0.0736734
-0.114873 -0.614846 -0.78688
-0.675887 -0.0720095 -0.832504
-0.630672 -0.181927 -0.977949
-0.446472 -0.229434 0.558935
-0.745548 -0.122366 -0.929621
-0.37572 -0.507841 -0.978253
-0.531369 -0.514323 0.0710807
-0.1214 0.365245 -0.934442
0.597001 -0.464814 -0.793086
0.439658 -0.476278 -0.990575
-0.320111 0.279553 -0.825573
-0.581587 -0.0441943 -0.801133
0.467846 0.125414 -0.928599
-0.745395 -0.717951 0.107886
-0.950059 -0.509103 0.249505
-0.318296 -0.114441 0.600046
0.874649 -0.365197 -0.676607
0.46075 -0.575586 -0.098804
-0.800538 -0.698359 0.333201
0.714167 0.148521 -0.557501
-0.475234 -0.425333 0.394783
-0.931251 -0.592261 0.0770188
0.110839 0.274165 -0.990437
0.087642 0.47966 -0.303602
-0.55467 -0.558231 0.101871
-0.0783201 0.194334 0.0666538
-0.559548 -0.5412 -0.975399
0.713777 -0.438238 -0.564651
0.428935 -0.0680755 -0.982447
-0.571656 -0.61038 0.216325
-0.287624 -0.527523 -0.782806
0.438429 0.192618 0.0546677
-0.723046 -0.560269 -0.293805
-0.0883205 -0.169481 0.211821
-0.52965 0.199104 0.00832584
0.494704 -0.0719676 -0.998653
-0.771208 0.0962712 0.615044
0.479559 0.336721 -0.314232
0.225518 -0.212149 -0.991845
0.213407 0.195417 -0.95874
-0.144558 -0.186233 -0.944162
-0.698839 0.188251 -0.345977
-0.720809 -0.718044 0.293982
-0.680419 0.657321 0.668916
0.410146 0.372756 -0.644523
-0.817898 -0.035014 0.484764
0.376349 -0.360452 -0.992553
0.322511 -0.376547 -0.950906
0.202032 0.46034 -0.335774
-0.259441 0.15923 -0.778483
0.300922 0.212942 0.0881016
-0.262037 0.0469855 0.843854
-0.928513 -0.633918 0.134166
-0.0981897 0.228798 0.788534
0.159311 0.173555 -0.928177
-0.111561 0.483561 -0.337491
-0.989273 -0.340864 0.229067
0.0508254 0.329018 0.832884
0.202446 0.256708 0.00661387
-0.614744 -0.310086 0.613935
-0.28077 -0.469121 0.0555702
-0.208389 0.308149 -0.987494
-0.85605 -0.41644 0.0279482
-0.104401 -0.361739 0.146876
0.294703 0.311173 -0.940024
-0.821964 -0.477702 -0.225407
0.614154 0.265575 -0.348903
0.535743 -0.489894 -0.835799
0.0209965 0.236982 0.937257
-0.0934001 -0.599634 -0.537469
-0.987015 -0.357424 0.150955
-0.0154901 -0.283348 -0.9377
-0.868679 -0.0216626 0.303385
-0.663468 0.481109 0.82927
-0.0255675 -0.669896 -0.830122
-0.357503 -0.310431 0.25253
0.681291 0.0977194 -0.727396
0.688332 -0.0560549 -0.958
0.0447017 0.235053 0.717091
0.789188 -0.0149196 -0.896464
-0.581076 -0.210255 0.610842
-0.148175 -0.260073 -0.94338
-0.741067 -0.678957 0.383092
-0.414674 0.134175 -0.873908
0.0620031 -0.553029 0.000416039
-0.07517 -0.519655 -0.938271
0.861985 -0.0165953 -0.546629
-0.855139 -0.0235536 -0.403476
0.990531 -0.15604 -0.574914
-0.770947 0.396691 0.717706
-0.387177 0.121163 -0.796636
-0.176034 0.123026 -0.92722
-0.323436 -0.54739 -0.826721
0.468588 -0.217359 -0.979952
0.622855 -0.0107249 -0.96497
0.233189 0.316486 -0.962231
0.73869 -0.403768 -0.515389
0.0500553 -0.729424 -0.490529
0.266696 -0.517519 0.0778005
0.674043 -0.509701 -0.33762
-0.373465 -0.142769 0.624456
-0.957865 -0.418954 0.131258
0.283961 0.443391 -0.477212
-0.355182 -0.593738 -0.285496
0.472104 -0.60426 -0.167046
-0.295786 -0.0133735 0.804718
0.160547 -0.577845 -0.0507497
-0.826564 0.0850168 -0.273412
-0.90697 -0.378871 -0.217723
-0.70334 -0.575244 -0.223846
-0.521055 0.124855 -0.927379
-0.69517 -0.186675 -0.958204
-0.147882 -0.601756 -0.981796
0.461145 -0.146689 -0.980492
0.79866 -0.371 -0.655613
-0.576304 0.122732 0.101207
-0.908392 -0.565822 0.358056
-0.567778 0.0770384 -0.567447
-0.158155 -0.588585 -0.248931
0.653821 0.108758 -0.0410288
-0.446147 0.262879 -0.152425
-0.443409 -0.54448 -0.0369325
0.266647 -0.580252 -0.985921
-0.568542 -0.144715 -0.983105
0.0119401 -0.66022 -0.978184
0.223762 -0.459106 -0.947671
-0.882749 -0.105917 0.419039
-0.620329 0.496919 0.793431
-0.209781 0.322327 -0.565379
-0.256123 0.298887 -0.312013
0.0623902 -0.0565701 0.238957
0.351212 0.297418 -0.139732
-0.603472 -0.285692 -0.966345
-0.384675 0.0271401 0.532574
0.0280049 0.0445493 0.194128
0.853324 0.00250649 -0.844511
-0.344869 -0.545619 -0.574091
-0.0179537 -0.752197 -0.343694
-0.55126 -0.343614 -0.629726
0.381836 0.321483 -0.862446
0.798658 -0.266007 -0.52383
0.149407 0.0113273 0.238495
-0.777046 0.51674 0.801197
-0.284848 0.126406 0.747361
0.066589 0.417769 -0.759719
-0.332656 -0.108928 0.255371
-0.626844 -0.255442 0.614449
0.538971 -0.535222 -0.103221
-0.274178 -0.0712737 0.633251
-0.100585 0.117659 0.786664
0.54218 -0.553184 -0.713444
0.335896 0.402125 -0.264704
-0.593813 0.296904 0.541764
0.615203 -0.551265 -0.374414
-0.0461555 0.338199 -0.168478
-0.463003 -0.132371 -0.979917
-0.966084 -0.578615 0.163381
-0.326437 0.0323275 0.228728
0.704738 0.00868828 -0.0440938
-0.214792 -0.460485 0.0491714
-0.0247531 0.184883 0.906391
0.369875 -0.0261613 -0.991856
-0.734838 -0.470414 -0.463914
-0.478153 -0.300504 -0.982351
0.685141 0.179563 -0.501708
0.303372 -0.722956 -0.624554
-0.18213 -0.15985 0.21402
-0.371611 -0.590474 -0.962599
0.901066 -0.161829 -0.844903
-0.311127 -0.246458 -0.965835
0.210091 -0.0366102 0.256763
-0.696449 0.692785 0.943304
0.293937 -0.660759 -0.805209
0.170323 0.466508 -0.413572
-0.179979 0.360571 -0.619131
-0.344118 -0.295531 -0.970924
-0.538195 0.251592 -0.227442
-0.794758 -0.683946 0.115103
-0.504974 -0.590969 -0.975107
0.318467 -0.119813 -0.991256
-0.591474 0.0609098 0.339407
-0.889494 -0.649972 0.257619
-0.200376 -0.550771 -0.453405
-0.769942 -0.521042 -0.330166
-0.248259 -0.0646981 0.565288
-0.156802 0.104955 0.138623
-0.897082 -0.0903803 -0.0591638
-0.222205 0.236762 -0.604162
-0.768818 -0.4938 -0.0238
-0.785967 -0.429373 0.577687
0.245591 0.183219 0.117067
-0.574831 -0.515411 0.0352781
0.72532 0.116149 -0.220898
0.682835 0.155685 -0.1943
-0.59004 -0.44713 -0.822953
-0.806498 -0.00682046 -0.470905
0.396042 -0.47511 0.0763862
0.0669467 -0.648783 -0.797729
-0.0794752 -0.0973257 0.210815
-0.0717961 -0.183198 -0.936418
-0.784585 0.126516 -0.333548
-0.698525 0.580578 0.643484
0.946181 -0.0375011 -0.74184
-0.489879 -0.594815 -0.173337
0.556405 -0.41046 0.0680156
-0.0427124 0.253011 0.937095
0.318271 0.257743 -0.017085
-0.117126 0.142599 -0.926368
-0.894285 -0.155453 0.484354
-0.134672 -0.62837 -0.328227
-0.371125 0.270729 -0.984386
-0.433293 0.0194756 0.666444
-0.928265 -0.209403 -0.290573
-0.0926396 -0.570179 -0.968825
-0.324082 0.244433 -0.0563612
-0.980316 -0.29591 0.272539
0.483714 0.340858 -0.629477
0.139218 0.103971 -0.9274
-0.741709 0.110058 -0.0509372
-0.0631183 0.145879 0.880119
-0.523213 -0.458651 0.562695
0.0699723 0.310313 -0.128839
0.804271 -0.242189 -0.896613
-0.585537 0.223709 -0.258702
-0.607195 0.146287 -0.505439
-0.206151 -0.0100424 0.828388
0.376897 -0.623976 -0.792338
0.14518 -0.674216 -0.163234
0.102862 0.352844 -0.152477
-0.880281 -0.00576508 0.165007
-0.252416 -0.340842 0.183584
-0.288411 0.240458 -0.981468
0.734615 -0.330867 -0.894738
-0.303577 0.34921 -0.87122
-0.167255 -0.0987313 -0.93861
-0.41342 -0.25381 -0.972538
-0.331545 -0.09704 -0.987505
-0.259618 0.0971999 -0.925806
-0.538667 0.0155246 -0.782054
0.700839 -0.394452 -0.790853
-0.45769 -0.162451 0.620614
0.911359 -0.0285537 -0.806973
-0.568696 -0.608374 -0.956796
0.441403 -0.552501 -0.816553
0.475463 0.232505 -0.0730497
-0.8688 0.0309701 -0.268236
-0.680415 0.574379 0.885001
0.207174 0.0380003 0.228546
-0.384592 0.0519194 0.227849
-0.447358 -0.358483 0.419334
0.0785404 -0.679518 -0.730216
0.960829 -0.156729 -0.767781
-0.0951701 0.456563 -0.250348
-0.863142 0.0480551 -0.201701
0.564787 0.291643 -0.295117
-0.88778 -0.457749 0.502779
-0.592943 0.628675 0.714987
-0.70838 0.524325 0.636037
-0.623461 -0.585711 -0.185369
0.342714 -0.616408 -0.835319
-0.250392 0.311642 -0.810621
-0.618217 -0.647213 0.064875
0.71493 0.14583 -0.431545
0.613024 -0.530571 -0.513882
-0.415134 -0.605533 -0.91036
0.296066 0.29487 -0.148055
-0.496598 -0.59689 -0.406364
-0.42537 -0.4417 0.28162
-0.668884 -0.715884 0.228465
-0.754844 -0.28853 0.611836
-0.763653 0.0816075 0.524974
-0.632338 0.602181 0.61784
-0.729997 -0.0523868 -0.970613
0.876113 -0.292328 -0.823169
0.00152778 0.0701218 0.653926
-0.0202453 -0.714664 -0.475005
-0.376304 -0.387209 0.174071
-0.147084 0.396954 -0.230172
-0.382892 -0.603431 -0.339069
-0.141318 0.116069 0.916231
-0.741502 0.446066 0.719874
0.609718 0.25364 -0.585335
-0.389585 -0.542909 -0.0345094
0.608542 -0.555083 -0.250795
0.60871 -0.531187 -0.58552
-0.607105 -0.22084 -0.875062
0.441405 -0.659098 -0.273871
-0.552959 -0.571493 -0.0762716
0.436736 0.296155 -0.134753
-0.25491 0.265806 -0.102443
-0.0286386 0.178065 0.987741
-0.245933 -0.256412 -0.985371
-0.867611 -0.428159 -0.219861
-0.0173495 0.477855 -0.591272
0.751402 -0.232898 -0.108626
0.634665 -0.517358 -0.200272
0.33797 -0.68618 -0.238437
-0.16314 0.300787 -0.174567
0.5813 -0.445591 -0.853457
-0.107401 0.478559 -0.512312
0.795117 -0.29671 -0.339134
0.107781 -0.224779 -0.938428
-0.579778 -0.281507 -0.909215
0.15038 0.224234 -0.983019
-0.241606 0.138454 -0.668842
-0.191161 0.413778 -0.311127
0.425662 -0.544494 -0.972807
-0.771999 0.0571173 0.211857
-0.323728 -0.573749 -0.168342
0.0210163 -0.609201 -0.158856
0.482162 -0.203714 0.207593
0.329594 -0.651623 -0.183473
0.976036 -0.0842679 -0.572079
0.0890494 0.488314 -0.410298
0.334093 -0.493437 0.0870836
0.651437 -0.236117 -0.963351
-0.198502 0.275269 -0.776588
-0.73092 -0.0547542 -0.562337
-0.353059 -0.0185166 -0.985515
-0.780099 -0.425802 -0.451586
-0.712097 0.10374 0.00191657
-0.0234253 -0.579146 -0.114952
-0.70644 0.066792 0.111269
-0.97307 -0.162087 0.196137
-0.275837 -0.565168 -0.871506
-0.787904 0.243286 0.660279
-0.37214 0.166929 0.115375
-0.639303 0.202306 -0.385627
-0.587747 -0.599887 0.0822976
-0.652569 -0.233921 -0.957354
0.166599 -0.203795 -0.947708
0.788 0.021787 -0.445147
-0.870763 -0.24158 -0.414457
-0.0747327 0.410307 -0.71258
-0.406316 -0.00642022 0.260576
0.78013 -0.312584 -0.259502
-0.464441 0.249709 -0.094447
-0.668383 0.67361 0.757451
-0.534888 -0.093079 -0.706581
-0.138659 0.181714 0.701747
0.0502768 -0.705222 -0.561967
-0.0790308 -0.690297 -0.439708
-0.900488 -0.169475 0.419205
0.0885914 0.464368 -0.545201
-0.466246 -0.485854 -0.78294
-0.19889 -0.152354 -0.973442
0.751481 -0.399429 -0.375481
-0.363765 0.223311 -0.423869
0.28486 -0.599598 -0.863908
-0.69572 0.0607133 0.417968
0.556897 0.0211344 0.120465
0.4329 0.168543 -0.960213
-0.717055 -0.123172 -0.971562
-0.436659 -0.468382 0.115917
-0.656801 0.078379 0.66538
-0.876505 -0.00228673 0.243736
-0.259613 -0.120891 -0.987797
0.988872 -0.170799 -0.689366
0.340253 0.15391 -0.992903
-0.271969 -0.418813 -0.983888
0.0607238 0.232467 -0.978197
-0.0244543 0.131156 0.64162
-0.77041 0.0246994 0.571783
-0.207424 0.120306 0.866768
-0.0912026 0.282342 -0.0576209
-0.401378 0.280408 -0.93892
0.935629 -0.112766 -0.515771
-0.447334 0.0449656 -0.984925
-0.270482 -0.48204 -0.983123
-0.746649 -0.496355 -0.409337
-0.719581 0.637165 0.938359
0.61478 0.0624342 -0.91672
-0.700316 -0.263544 0.616103
-0.934167 -0.407837 0.45075
-0.468095 -0.412705 -0.759452
0.285296 -0.721608 -0.557413
-0.372214 -0.26973 0.306188
0.776168 -0.109624 -0.146461
-0.11438 0.334553 -0.186303
0.111894 -0.355442 0.223512
0.854139 -0.368583 -0.743518
0.122906 -0.0381126 -0.933607
-0.451467 0.0356526 0.236341
-0.861878 -0.366242 -0.377971
0.2821 0.0552738 0.220301
-0.603591 0.352227 0.735397
0.138408 -0.691997 -0.743897
-0.562203 -0.225413 -0.982552
-0.290279 -0.560367 -0.56015
0.570428 0.194132 -0.801607
-0.440174 0.135148 -0.605019
-0.369607 0.109871 0.185684
-0.617005 -0.356579 -0.973246
-0.551643 -0.55208 -0.477301
-0.810144 -0.438426 -0.0161482
-0.224248 -0.0565749 0.64525
0.651176 -0.393472 -0.0267712
0.0260466 -0.330808 -0.936472
-0.412634 0.211206 -0.912939
0.175589 -0.507183 -0.970241
0.365149 -0.672921 -0.654044
-0.792575 -0.0563756 -0.494088
-0.906223 -0.478178 0.45043
0.258884 -0.353085 -0.93514
0.470652 -0.537551 -0.856142
-0.323925 -0.539079 -0.03008
0.450024 -0.646847 -0.586064
-0.941909 -0.265754 0.534539
-0.568713 -0.024232 0.548375
-0.341969 0.276647 -0.2164
-0.760726 0.639223 0.91474
0.886637 -0.160956 -0.501205
0.103115 -0.491718 0.115641
0.0169751 -0.561243 -0.0612178
-0.734727 0.271183 0.770655
-0.808182 -0.313825 -0.480736
-0.366462 -0.584844 -0.88153
-0.586377 -0.542968 0.468804
0.59237 -0.119296 -0.993
0.149858 0.448003 -0.577928
-0.568728 0.227472 -0.37247
0.897042 -0.272959 -0.535391
0.231197 -0.70609 -0.711686
-0.505975 -0.618445 -0.243579
-0.287806 0.275431 -0.173523
-0.497942 -0.0109295 0.538522
-0.259673 0.283528 -0.368756
-0.521962 0.0582918 -0.984387
-0.11535 -0.666722 -0.382181
-0.766318 -0.313761 -0.523122
-0.673234 -0.304841 -0.606017
-0.843302 -0.447444 -0.134332
-0.00518571 -0.575763 -0.97601
-0.0110481 0.167439 0.105288
0.172435 -0.620078 -0.958993
-0.156485 0.331843 -0.760227
-0.00596983 -0.236586 0.227122
-0.583064 0.308352 0.688967
0.521124 0.0752303 0.117828
-0.865921 -0.0527546 -0.0138662
0.109944 -0.627088 -0.141248
-0.517606 -0.174297 -0.98568
-0.538247 -0.00373096 0.475497
-0.737801 -0.00096835 0.622213
-0.525618 -0.535748 -0.0162742
0.489686 -0.658417 -0.404409
-0.151026 -0.558797 -0.444591
-0.927369 -0.106066 0.0858282
0.105206 -0.300949 0.242353
-0.740558 0.49207 0.753627
0.228772 0.319354 -0.890609
-0.214929 -0.657101 -0.957528
0.808132 -0.159898 -0.34414
-0.973876 -0.405968 0.193702
-0.184571 0.152383 0.65443
-0.90762 -0.606157 0.295638
-0.608453 -0.326073 -0.620202
-0.0901149 0.206031 0.729637
0.208508 -0.745261 -0.327211
-0.707069 0.397941 0.823731
0.590474 -0.435731 0.0102934
-0.381289 0.0405669 -0.984165
0.732805 -0.373897 -0.6788
