-0.781408 -0.113704 0.590903
0.0792939 -0.583666 -0.130468
-0.214196 0.172392 0.737347
-0.850499 0.0174608 -0.363704
-0.193108 -0.570588 -0.309797
-0.643267 -0.651649 0.325896
-0.0467429 -0.478665 0.076981
-0.0217922 0.13706 0.736196
-0.472871 0.174489 0.0814564
-0.626852 -0.399911 -0.870249
-0.0300435 -0.0105718 -0.932558
0.3051 -0.686946 -0.704727
-0.388762 0.193455 -0.863753
0.380673 0.0853684 0.18089
-0.282049 0.23785 -0.400639
-0.725324 -0.550314 -0.153726
0.123828 -0.408659 0.191774
-0.0937519 0.127215 0.130556
0.651119 -0.50085 -0.573205
-0.779568 -0.182007 0.603821
-0.589477 0.587861 0.756691
0.89602 -0.351194 -0.715336
-0.948975 -0.292214 0.0602376
0.418292 -0.622956 -0.738684
0.365139 -0.511101 -0.996093
0.39775 0.249172 -0.0654755
-0.053529 0.212483 -0.931143
0.741748 -0.379857 -0.581402
0.730611 -0.421207 -0.262129
-0.60035 -0.38553 -0.597847
-0.813055 -0.4706 -0.359768
-0.524555 -0.573688 -0.0766272
-0.382728 -0.39581 0.233942
0.207247 0.397382 -0.742142
0.378867 0.295193 -0.92087
0.384731 0.23754 0.0090883
-0.46645 -0.579895 -0.123477
-0.821755 0.0318884 -0.423976
0.520395 0.31459 -0.2874
0.780724 -0.202242 -0.916706
0.938667 -0.306321 -0.692864
-0.0794074 -0.714351 -0.330195
-0.654062 -0.427731 0.592041
-0.258285 0.0575134 0.201931
-0.579062 0.221262 0.643541
0.0192057 -0.735468 -0.261284
-0.193868 0.0519188 0.171792
0.736071 0.0679953 -0.153888
0.471107 -0.643146 -0.331187
-0.891793 -0.308237 0.0200075
0.12385 0.450077 -0.639022
0.90455 -0.214288 -0.507953
-0.610984 0.198254 -0.0704034
-0.251087 -0.603069 -0.9709
-0.925097 -0.222671 0.440545
-0.644206 0.0791045 0.2243
0.193877 0.447098 -0.602613
-0.615409 -0.528567 0.0195166
-0.12649 0.0414199 0.587108
-0.429008 -0.601311 -0.237409
-0.280944 -0.0742044 0.73418
-0.706721 0.0590815 -0.501981
-0.255106 -0.186235 -0.98259
0.0864991 0.213898 0.0574246
0.740283 0.143847 -0.332434
0.269578 -0.161623 -0.997238
-0.806912 0.0148115 0.33771
-0.643162 0.725951 0.748331
-0.101352 0.0876087 -0.928834
0.242573 -0.130839 0.269067
-0.526344 0.0143868 -0.71014
-0.641959 0.7404 0.871261
0.590582 0.21717 -0.717918
-0.374459 0.326461 -0.971888
0.347109 -0.660089 -0.773689
0.650261 -0.536836 -0.288151
-0.845082 -0.0852353 -0.455648
-0.104331 -0.469677 0.0485016
-0.86563 -0.359225 -0.0113582
0.667652 -0.488977 -0.633472
0.683582 -0.363486 -0.883754
-0.541308 -0.147537 0.609314
0.632056 -0.542736 -0.460795
-0.911329 -0.0798726 -0.20869
-0.442467 0.0962346 0.18578
-0.345695 -0.343436 0.177321
-0.023688 0.497009 -0.479472
-0.559454 -0.503975 -0.806031
-0.760575 -0.540485 -0.223085
-0.494436 -0.206383 0.600032
0.754293 -0.0519841 -0.928076
-0.10088 -0.548257 -0.631628
0.332426 0.420134 -0.4116
-0.717702 -0.381922 -0.536166
-0.900452 -0.246869 0.00774484
-0.545701 -0.00967965 -0.644875
0.63927 -0.00338916 0.0618702
-0.250393 -0.611192 -0.899108
-0.687931 -0.123796 -0.847197
-0.955501 -0.472378 0.0951557
0.0905772 0.337035 -0.871686
0.275179 0.264911 -0.991274
0.599211 0.15816 -0.0353501
0.621116 -0.330468 0.0767957
-0.323322 0.0790697 0.20774
0.467015 -0.621437 -0.636972
0.746757 0.105736 -0.41171
-0.284253 -0.0294276 0.237348
-0.902474 -0.29331 -0.0445398
-0.131979 0.388514 -0.67936
-0.611502 0.672787 0.890198
-0.448791 -0.617953 -0.314189
0.800633 -0.0253348 -0.316298
0.570623 -0.574281 -0.482471
-0.505754 0.0669278 -0.669062
0.107642 -0.620264 -0.833446
0.440265 0.368168 -0.448341
-0.805607 0.408958 0.759156
-0.771796 0.0510861 -0.470084
-0.00582597 0.45343 -0.669151
-0.904141 -0.279567 0.569051
-0.92815 -0.502586 0.302169
0.629121 -0.190084 0.0935837
-0.590079 0.433174 0.623274
0.800212 -0.387964 -0.795951
-0.208392 0.311391 -0.264059
-0.280608 -0.540277 -0.667984
-0.669968 0.650574 0.93053
-0.0842054 -0.0537373 0.203343
0.737892 0.0150582 -0.102282
-0.170644 0.370992 -0.874861
0.704498 -0.259776 -0.0156802
-0.74727 -0.724196 0.189712
-0.752274 0.0402277 0.376458
-0.5415 -0.422272 -0.805753
-0.472667 -0.0539019 -0.985708
0.567387 -0.553596 -0.544255
-0.0548958 0.154872 0.805169
0.0459642 0.23602 0.0220525
-0.398135 -0.188573 0.378572
0.724473 -0.0398503 -0.0500394
0.617765 -0.339427 -0.921987
-0.766222 0.201197 0.711614
-0.206447 0.374067 -0.498972
-0.698814 0.0758648 0.165729
0.513231 0.337601 -0.439946
0.883321 -0.190901 -0.857298
-0.722822 0.439693 0.600903
0.348064 -0.706427 -0.588504
0.0158833 -0.509003 0.0568092
-0.216278 -0.0669647 0.221554
0.109282 0.109065 -0.92748
-0.360724 -0.586086 -0.23669
0.0576343 0.486985 -0.466014
-0.397026 -0.0808136 0.316742
0.670415 0.186563 -0.601621
0.0468617 -0.628199 -0.821904
-0.391519 -0.453918 -0.977985
-0.841582 0.0266884 -0.0662004
-0.759745 0.229833 0.542855
-0.452277 0.106894 -0.830607
0.11787 0.181069 0.111248
-0.596 0.7458 0.9027
-0.213598 -0.523986 -0.625546
-0.817856 0.0698987 -0.108729
-0.517093 -0.436829 -0.976698
-0.327482 -0.105445 0.682695
-0.464963 -0.353302 0.56425
-0.892676 -0.436336 0.050109
0.634207 0.207642 -0.665046
-0.0721456 0.297605 -0.102086
0.716562 0.162033 -0.272924
0.503658 -0.479488 0.00469929
-0.338873 0.244748 -0.361648
0.213206 -0.658323 -0.809551
-0.35063 0.135554 -0.795923
0.246834 -0.0615729 0.263407
-0.485542 -0.543444 0.194978
0.314873 -0.0761738 0.262564
-0.694909 0.327496 0.799321
0.179171 -0.036914 -0.939244
-0.900722 -0.182739 -0.37875
0.344232 -0.724024 -0.339968
-0.139214 -0.245302 0.19399
0.541147 0.225633 -0.823366
-0.709284 -0.150729 0.610512
-0.0197799 -0.0930807 0.225007
0.0297538 0.100577 0.676998
0.313826 0.104676 0.185384
-0.298951 -0.102829 0.562181
-0.00710722 0.281841 0.821996
-0.2267 -0.360417 -0.980862
-0.587079 0.667066 0.746768
0.348209 0.38599 -0.731798
-0.85798 -0.569275 0.0211787
-0.153919 -0.0181906 0.187881
0.693314 0.136068 -0.147148
0.251059 0.35777 -0.173508
-0.0486896 -0.369779 -0.935071
-0.141428 0.457052 -0.28812
0.214423 -0.702802 -0.192615
-0.294367 -0.056341 0.510174
0.317987 0.394071 -0.656953
-0.662967 -0.584506 -0.330051
0.232108 0.432261 -0.544348
-0.115314 0.0513727 0.168017
-0.948008 -0.157347 0.0704713
0.564465 0.271366 -0.228281
-0.21925 -0.412944 0.120692
0.418593 -0.673688 -0.344892
-0.97489 -0.226015 0.2697
-0.688986 -0.526927 -0.429349
-0.687835 0.0225819 -0.549468
0.475559 -0.581628 -0.773471
-0.746991 0.187481 0.58203
-0.06298 -0.601418 -0.620613
-0.803954 0.00597026 0.419588
0.368576 0.399571 -0.46107
-0.315359 0.182617 -0.53888
-0.842912 -0.494081 0.0162235
0.277529 -0.530869 -0.995778
0.37227 -0.295063 0.242011
-0.439341 0.161365 -0.527148
-0.941795 -0.276967 0.390621
-0.301643 -0.570755 -0.205718
-0.145904 -0.510519 -0.586075
-0.0657937 -0.669158 -0.49351
-0.428884 -0.0532269 0.377343
-0.0615201 0.484027 -0.540639
-0.0674837 0.00886027 0.643427
-0.914418 -0.266619 -0.3023
0.0246574 -0.686212 -0.659464
-0.544039 -0.58858 -0.147943
0.379289 -0.699651 -0.39623
-0.890944 -0.131337 0.0145686
-0.0131392 0.193709 0.851723
-0.0169426 -0.219765 -0.9377
-0.818665 -0.667578 0.363954
-0.201611 -0.283528 0.198035
-0.237201 0.203487 -0.931369
-0.49142 0.215006 -0.4291
-0.47232 -0.40135 -0.627339
0.136094 0.422832 -0.708262
0.222168 -0.497806 0.116251
-0.0888996 -0.422891 0.114074
-0.324962 0.367211 -0.9377
-0.883139 -0.0650156 -0.345426
0.0935808 0.13464 0.15247
0.143326 0.302433 -0.130912
0.00399091 0.254122 -0.0108474
-0.667353 0.172585 -0.121083
-0.529602 -0.410724 0.584326
0.401731 -0.628776 -0.185247
0.276226 -0.2379 -0.996186
-0.238075 0.380836 -0.897096
0.219718 -0.598283 -0.862453
-0.40645 -0.118387 0.384272
0.158867 -0.750897 -0.39893
-0.959602 -0.372491 0.296456
0.0136695 0.201929 -0.930001
-0.865218 -0.661585 0.315227
-0.671268 -0.650125 0.399649
0.210199 0.412149 -0.199321
0.010199 -0.69723 -0.207776
-0.741332 0.396636 0.534527
0.431495 0.169172 0.0924962
0.280606 -0.686193 -0.770349
-0.294233 -0.570347 -0.462821
-0.897323 -0.191536 0.0076424
-0.223452 0.000458188 -0.932055
0.00386141 0.389723 -0.803788
0.220008 -0.436998 -0.93198
0.0670525 -0.657231 -0.164462
-0.504789 0.11163 -0.879652
-0.385439 0.261759 -0.188759
-0.844291 -0.161589 0.581046
-0.638486 0.0676106 0.417628
0.918868 -0.237313 -0.814564
-0.0362097 0.0665796 -0.929469
-0.740857 -0.2346 0.61394
0.569936 0.300978 -0.444245
0.810208 -0.239547 -0.452003
-0.617188 0.00787231 -0.983046
0.551503 0.0958507 0.0765452
-0.868244 -0.0768527 0.0209585
0.645353 0.0950101 -0.857657
-0.894495 -0.35807 0.557611
0.726678 -0.312444 -0.0756678
-0.44245 -0.194422 -0.973624
-0.685749 0.0445397 -0.972418
-0.067577 -0.705319 -0.88111
0.259903 -0.201644 0.27017
-0.227399 0.11645 0.133089
-0.681361 -0.0262636 0.624026
-0.355872 -0.568388 -0.494024
0.398581 0.291747 -0.116596
-0.616515 -0.535529 -0.468865
-0.101167 0.488566 -0.485094
0.131331 -0.316773 -0.9377
-0.897417 -0.0210781 -0.173918
0.550991 0.149262 0.0178921
-0.607328 -0.115281 -0.644642
-0.699795 -0.533592 -0.0817463
0.805203 -0.336867 -0.847971
0.652088 0.107974 -0.760893
-0.263782 -0.251707 0.223085
-0.625521 0.555022 0.823954
-0.249326 0.147867 -0.642784
-0.443719 0.11305 -0.681078
0.789504 -0.306936 -0.461795
-0.941131 -0.372556 0.491215
0.0479788 0.325207 0.97224
-0.666049 0.00620754 -0.85808
0.985168 -0.226219 -0.599887
0.310387 -0.330303 0.242139
-0.45386 -0.22957 -0.709234
0.495363 -0.519388 -0.811027
-0.477813 -0.413553 0.549361
0.266884 0.424307 -0.601181
0.211833 -0.731588 -0.640329
0.102952 -0.180861 0.255363
-0.883096 -0.391992 -0.28124
0.46878 0.332624 -0.766341
-0.572184 0.0968785 -0.906623
0.578151 -0.508685 -0.740638
-0.411783 -0.00326917 0.488645
-0.0833896 0.457862 -0.591994
0.272555 0.203696 -0.989401
-0.173607 0.219877 -0.927819
0.0250894 0.0508232 -0.92948
0.528315 0.284951 -0.72087
-0.957222 -0.224897 0.0602915
0.143116 0.37475 -0.8335
0.427889 -0.564474 -0.900931
-0.5716 0.101828 -0.971578
-0.487139 -0.473512 0.328235
0.956678 -0.291749 -0.628215
-0.765361 0.370435 0.80204
0.693632 -0.375772 -0.0843671
-0.610896 -0.0053591 -0.823862
-0.0766744 0.496312 -0.416942
-0.465962 -0.25366 -0.82176
-0.513261 -0.0856259 0.639523
-0.210589 0.415105 -0.42754
-0.173435 -0.338666 -0.941635
-0.311504 0.198708 -0.978263
0.480917 -0.00246747 0.184863
0.823776 -0.130082 -0.498677
-0.157076 0.399514 -0.242943
-0.448711 -0.430718 -0.696372
-0.304206 0.210906 -0.466187
-0.655362 -0.464566 -0.959066
0.756803 0.102198 -0.275176
-0.493 -0.343929 -0.808925
-0.172624 -0.488892 0.0175532
-0.698654 0.24855 0.767873
-0.733891 0.343986 0.593746
0.139168 -0.745051 -0.524729
-0.746855 0.0412592 0.45781
-0.0777051 0.349007 -0.966712
-0.880961 -0.143699 0.531041
0.461525 0.358362 -0.388427
0.0520795 -0.291156 -0.937701
-0.644121 -0.601616 -0.264921
-0.805389 -0.686796 0.161879
-0.194091 -0.409216 -0.940229
-0.431423 0.188553 -0.464323
-0.807864 0.469355 0.79184
0.669257 -0.14735 0.0456208
0.837764 0.0912615 -0.717138
-0.795037 -0.729134 0.231447
0.163091 -0.462437 -0.935541
-0.504836 0.175213 -0.493918
-0.912689 -0.158794 -0.050608
-0.145404 0.197022 0.0488811
-0.708645 0.268977 0.494814
-0.153967 -0.385297 0.127363
-0.838541 -0.0913095 0.549043
-0.909616 -0.131548 -0.327135
0.141636 0.403911 -0.775682
-0.679726 0.104213 0.0392517
-0.7251 0.634664 0.865693
0.13537 0.460488 -0.256948
-0.0154406 -0.0855019 -0.934718
-0.109948 0.105377 0.836372
0.339092 0.354513 -0.814499
0.452863 0.061861 0.165868
-0.579639 -0.634634 0.124956
-0.657709 0.115218 -0.499069
-0.661968 -0.570882 -0.134285
-0.383823 0.265686 -0.879819
-0.323514 -0.403904 0.127404
0.065134 -0.568255 -0.985257
0.301398 0.413547 -0.548488
-0.823934 0.0724145 -0.345163
0.408219 -0.236415 0.240483
0.410713 -0.643047 -0.668643
0.204498 -0.0841653 -0.985634
-0.587236 0.367648 0.587513
-0.72467 -0.0337983 -0.897143
-0.122119 0.363353 -0.745117
-0.209723 0.222044 0.00533318
0.667059 -0.295516 0.0364934
0.152847 0.0387746 -0.929339
0.346107 -0.568995 -0.981872
-0.666602 -0.498098 0.55983
-0.601865 0.723928 0.710879
-0.526265 -0.128533 -0.733892
0.6462 0.252441 -0.352897
-0.593817 0.0374969 0.564924
-0.21233 -0.597747 -0.241812
-0.607773 0.457864 0.766653
0.271615 -0.746294 -0.347198
-0.543964 0.162393 0.0691043
0.421515 -0.165215 0.237937
-0.858526 -0.153486 -0.440964
0.860281 -0.33585 -0.795103
0.187697 -0.735071 -0.570994
0.0407944 0.176722 0.107201
0.809002 -0.202607 -0.379367
-0.782495 0.11571 -0.134596
-0.672792 -0.498029 -0.485352
0.801624 -0.274819 -0.388431
0.428757 -0.447833 0.114513
-0.776728 0.0224979 0.0659904
-0.217838 -0.595369 -0.833261
-0.111232 0.224858 -0.934286
-0.500032 0.128462 0.133772
-0.172266 0.438262 -0.488017
0.39622 -0.41331 0.171917
-0.920825 -0.0722019 -0.283773
0.47201 0.364351 -0.569864
-0.575081 0.379531 0.661428
-0.58617 -0.5485 0.403983
-0.652442 0.083714 0.103344
-0.81599 -0.141035 -0.499549
0.44744 0.337705 -0.26202
-0.132051 -0.138516 -0.937387
-0.90131 -0.257642 -0.373375
0.408365 -0.606073 -0.11747
-0.783752 -0.505624 -0.158747
0.481432 -0.520719 -0.943539
0.0377036 -0.0272367 -0.933268
0.158595 -0.700074 -0.702789
-0.912856 -0.402134 0.368541
0.426668 -0.27125 -0.994419
-0.9349 -0.156577 -0.114107
-0.829574 -0.211209 -0.492809
-0.374255 -0.379726 -0.984329
-0.138366 -0.532735 -0.957836
0.161257 -0.608928 -0.850722
0.532926 0.16684 -0.851563
-0.780204 0.0873475 -0.40182
-0.887826 -0.330409 -0.328461
0.537645 0.200527 -0.0469738
-0.650024 0.554558 0.572829
-0.543009 -0.579957 0.16958
-0.699422 0.591695 0.592756
-0.106168 -0.656348 -0.283516
-0.85792 -0.408983 -0.07453
0.420884 0.122265 0.141876
-0.540974 -0.265983 0.606906
-0.503117 -0.181345 -0.790063
-0.740533 0.25886 0.609929
-0.75109 0.0555287 0.304133
-0.378388 0.169214 -0.571976
0.526044 -0.366188 0.139758
-0.4716 -0.280805 0.581095
0.112924 -0.747357 -0.465029
0.0517837 -0.749745 -0.333558
-0.670253 -0.522309 -0.0102801
-0.599399 -0.580173 -0.898038
-0.237177 0.344451 -0.440804
-0.493321 0.0995343 -0.607505
-0.105996 -0.599715 -0.218082
0.120089 0.484815 -0.404414
0.411928 -0.549226 -0.0606288
0.915794 -0.299978 -0.769345
-0.172451 -0.014973 0.58117
-0.459497 -0.363378 0.488274
0.176214 0.145002 0.144804
-0.769818 0.0525423 0.140275
0.634403 -0.458111 -0.751768
0.809201 -0.0853866 -0.343344
0.615805 0.108752 -0.79651
0.633393 -0.498682 -0.688518
-0.207004 -0.663581 -0.890166
-0.805552 -0.366247 0.590592
-0.196674 0.291906 -0.636649
0.411475 -0.331256 -0.99441
-0.570122 -0.0837176 0.594065
-0.319462 0.150216 -0.609027
0.653242 -0.437152 -0.0949173
0.71772 -0.177987 -0.948339
0.215701 0.17695 -0.937096
-0.434587 0.208303 0.0258841
0.311544 0.248453 0.0328919
0.627313 0.255079 -0.427275
-0.453927 -0.488131 0.248534
0.0679547 -0.0944362 -0.935119
0.356146 0.0307069 -0.996519
-0.207319 -0.349485 0.166859
-0.631806 0.368503 0.52764
0.139296 -0.495181 0.115817
-0.0874324 -0.0718152 -0.933899
0.347013 0.282813 -0.976672
-0.802428 -0.627371 0.027543
-0.9586 -0.161397 0.28751
-0.82886 0.0855611 -0.180341
0.757097 -0.377141 -0.455199
-0.753416 0.306235 0.53851
-0.953567 -0.578903 0.21557
-0.859734 -0.517274 0.487381
0.493908 0.352375 -0.506027
0.673059 -0.219611 0.0382198
-0.0257167 0.234164 0.74954
-0.693552 -0.69007 0.333401
0.413038 0.313169 -0.198411
-0.352001 -0.562192 -0.845307
0.503287 -0.0709321 0.189231
-0.113127 -0.526604 -0.697971
0.0164203 0.192511 0.787806
0.0826461 0.300629 0.891311
0.631087 0.161251 -0.725618
-0.0256527 -0.168121 0.228034
-0.616787 -0.520748 -0.862144
0.340506 0.406968 -0.335942
0.900778 -0.344327 -0.635096
0.544657 0.0482415 -0.946384
0.088067 -0.722861 -0.639277
0.733712 -0.25533 -0.926999
0.152384 -0.624136 -0.908931
0.656367 -0.0730122 0.0573118
-0.448603 -0.452096 -0.606394
0.637348 -0.369488 0.0285341
-0.501202 -0.544796 -0.802705
-0.89767 -0.0129711 -0.247
-0.474385 -0.00532461 0.372187
0.753605 -0.282759 -0.134559
-0.616622 0.195876 -0.144626
-0.575569 0.033659 0.495294
-0.771914 0.126698 0.59504
-0.173358 -0.589891 -0.981787
-0.443098 -0.306034 0.4363
-0.376674 0.223961 -0.0139756
-0.47432 -0.0373632 0.668783
0.760071 -0.0544841 -0.113913
-0.115714 0.067771 0.907574
0.410286 0.0195421 0.209886
0.428821 0.386531 -0.516086
0.529223 0.238672 -0.105009
-0.312342 0.113392 0.697661
-0.502182 0.0701918 -0.808409
0.706421 -0.098555 -0.956091
-0.570764 -0.175021 -0.82624
0.610427 0.111277 0.0161528
-0.757078 -0.507276 -0.0915553
-0.494 0.12559 -0.549522
0.684221 -0.0268359 0.00767542
0.80314 -0.23833 -0.320138
-0.497808 -0.247253 -0.984165
-0.0670452 0.249216 0.821292
-0.0615471 0.387012 -0.777094
-0.608574 0.159974 0.659932
0.498922 0.155007 0.0656485
-0.248935 -0.501709 -0.00625618
-0.28891 0.0250039 -0.950811
-0.249182 -0.587737 -0.333509
-0.369332 -0.218479 0.307181
-0.779365 0.140569 -0.204617
0.273876 -0.421456 -0.935779
-0.945703 -0.274043 -0.2195
-0.733372 -0.646039 0.430247
-0.883685 -0.0237314 -0.0963194
-0.189909 -0.531225 -0.0477902
-0.214646 0.198028 -0.762677
-0.751201 0.0694436 0.0213241
0.769237 -0.343523 -0.519234
-0.643945 0.298374 0.499823
-0.626935 0.0637875 -0.879237
-0.533357 -0.508658 0.503713
-0.139107 0.233913 0.00612895
0.543001 -0.0245256 0.149009
0.820809 -0.0677203 -0.511945
0.156952 -0.736776 -0.241627
-0.836029 -0.577732 0.452077
0.176463 0.274778 -0.989472
0.0817003 0.189783 -0.929843
0.2088 -0.70641 -0.755889
-0.620417 -0.149994 0.60552
-0.91183 -0.50982 0.0418023
0.318251 0.360035 -0.197486
0.892885 -0.083751 -0.512374
-0.577009 -0.620912 -0.268897
-0.138008 0.207795 0.821919
0.0248832 0.104023 0.148105
-0.339631 0.0208366 0.79126
0.386285 -0.0995523 0.248333
-0.46781 -0.359215 -0.727371
-0.447867 -0.510085 0.0149622
0.581739 -0.240046 0.136081
0.699496 -0.100998 -0.00167522
0.231643 -0.749737 -0.412896
-0.118669 0.348552 -0.816238
-0.755262 0.533494 0.886708
0.277435 -0.557152 -0.0835248
0.458773 -0.678567 -0.407596
0.27683 0.378638 -0.784484
-0.272256 -0.380162 0.160782
-0.561544 -0.354087 -0.846549
-0.834488 -0.405853 -0.399024
-0.888492 -0.00727869 -0.317292
-0.243609 -0.52619 -0.803408
0.28047 -0.664887 -0.17419
-0.349448 0.256319 -0.132445
0.768108 -0.00120249 -0.167539
-0.794378 -0.541925 0.510916
0.238107 -0.334757 0.243574
-0.342347 0.212618 -0.81714
-0.217929 0.180612 0.0762505
-0.633143 0.741191 0.807345
0.55881 -0.48184 -0.0289342
-0.272615 0.203239 0.0505921
-0.451635 -0.483727 -0.9767
-0.0486969 0.276333 -0.0319554
0.561173 0.251073 -0.766313
-0.227708 0.376196 -0.365594
0.69055 -0.461171 -0.206078
0.117384 -0.63315 -0.974665
0.525143 -0.581784 -0.587205
-0.664934 0.20478 -0.298018
-0.425322 -0.32822 0.366488
0.174666 -0.322138 0.246609
-0.866792 -0.67749 0.19788
-0.417778 -0.535614 -0.507103
-0.258304 0.213768 -0.511309
0.33899 -0.62949 -0.167478
0.268116 0.446942 -0.429941
-0.602093 -0.604762 -0.340485
-0.405689 -0.603781 -0.179181
-0.736549 -0.25288 -0.579519
-0.154779 0.0330981 0.87567
0.539084 -0.438731 0.0472602
-0.761981 -0.598166 0.477548
0.0725706 0.383976 -0.827118
0.0429019 0.337199 -0.92335
0.0921869 -0.757951 -0.39183
0.446887 0.207075 -0.922631
-0.780072 0.441398 0.824267
0.254042 0.26097 -0.0239948
0.781593 -0.248843 -0.193313
0.046682 -0.496347 -0.93143
-0.532889 -0.141363 -0.675303
-0.610359 -0.0418451 -0.629769
-0.286378 0.158357 0.105716
-0.138642 -0.463566 -0.93
-0.075592 0.269854 -0.988275
-0.438222 -0.0966421 0.686473
-0.0230952 -0.397169 0.156245
-0.646078 -0.469234 -0.896289
0.00914085 0.424662 -0.734654
0.803373 -0.0325476 -0.397936
-0.198122 0.093341 0.587747
0.606979 0.0601868 0.0590578
-0.412656 0.0124128 -0.9851
-0.439001 -0.491189 0.160238
0.00189164 -0.544436 -0.00409793
-0.296235 0.0666473 0.819133
-0.410256 0.253217 -0.332715
-0.616125 -0.703587 0.127189
0.874802 -0.105724 -0.861918
-0.615348 0.0807619 0.15499
-0.663303 -0.157859 -0.630857
0.428337 0.0602624 -0.986938
0.2626 0.0921 -0.9364
0.370008 -0.672495 -0.717914
0.579375 -0.560083 -0.204068
-0.735797 0.172709 -0.330591
-0.740015 -0.607131 0.00929431
-0.0467911 -0.711269 -0.272072
-0.95508 -0.550902 0.0906463
0.282813 -0.708934 -0.229798
-0.57864 0.160359 0.59488
0.799281 -0.133328 -0.231005
-0.76997 -0.190778 -0.545641
-0.928941 -0.0698354 0.151426
-0.61605 -0.566916 -0.960169
0.958135 -0.249255 -0.747164
-0.628141 -0.568815 -0.403947
-0.537105 0.0471958 0.34163
0.599109 -0.482942 -0.0970334
-0.631642 0.207612 0.71662
-0.619352 0.177467 0.475727
-0.517363 -0.505236 -0.9767
-0.275568 0.151065 -0.927221
-0.0138527 0.179018 0.675641
-0.669371 -0.702146 0.0694164
-0.654664 -0.355837 0.610926
-0.300148 0.100679 -0.932644
0.796529 -0.0124787 -0.547166
-0.534093 -0.627036 -0.89802
-0.136536 0.117118 0.616454
0.656264 0.0458648 0.0112216
0.136591 -0.746613 -0.314227
-0.375726 0.065805 0.691786
-0.297191 0.232406 -0.00447695
6.74127e-06 0.491638 -0.418451
-0.952732 -0.287582 0.456885
0.712448 0.0690294 -0.876107
-0.471268 0.027481 0.307941
-0.0993517 -0.316946 -0.937645
-0.429055 0.147828 0.136411
-0.40242 0.25128 -0.0829303
0.482116 0.0828387 -0.939596
0.487902 0.343188 -0.701818
-0.863351 -0.64168 0.0571
-0.265545 -0.585 -0.262524
-0.500925 -0.600846 -0.842305
-0.645703 0.39985 0.796792
-0.0448613 0.0856231 0.162398
0.176948 0.327966 -0.87052
0.873591 0.0561019 -0.763959
-0.602771 0.09768 0.612915
0.948059 -0.255227 -0.552404
0.340101 -0.192261 -0.990865
0.697663 0.0844127 -0.0952458
0.619908 -0.380864 -0.863367
-0.60126 -0.586432 0.303925
-0.405296 -0.0629974 -0.987856
-0.547913 -0.297014 -0.981372
-0.62261 -0.482905 -0.526563
0.310627 -0.144506 0.268898
-0.681016 0.153911 -0.0673748
-0.598029 0.112344 0.463849
-0.668603 -0.00911257 -0.595301
0.193733 0.42811 -0.669561
-0.214394 0.186773 -0.696292
0.307413 -0.474237 -0.98929
-0.832291 -0.476707 0.535737
-0.653154 -0.406487 -0.953176
-0.126639 -0.0293682 0.639774
0.687825 -0.39154 -0.755065
-0.641499 0.206917 -0.222438
-0.20292 0.266643 -0.982234
-0.00773017 -0.6183 -0.794346
-0.701948 0.346191 0.507338
0.457843 -0.616132 -0.214753
0.265843 0.340615 -0.843955
0.0293781 0.49483 -0.308868
0.200144 -0.145346 -0.987457
-0.202047 0.148919 -0.924192
-0.381565 -0.492014 0.0345844
-0.996746 -0.314232 0.177576
-0.39014 -0.611514 -0.286768
0.436503 -0.505566 0.0010566
0.111125 0.353302 0.828299
0.806058 -0.155276 -0.309262
-0.486813 -0.179335 -0.704569
-0.577699 -0.454977 -0.567629
-0.60848 -0.638953 0.258109
-0.224203 0.254397 -0.568899
0.524498 -0.60441 -0.221996
0.702834 0.105627 -0.811197
-0.00579651 -0.0245619 0.213937
-0.00925201 0.287631 0.948362
-0.271469 0.0795394 0.572087
0.522156 0.274858 -0.166013
-0.15642 0.169354 0.876168
-0.524013 -0.337351 0.596284
-0.250874 -0.0229703 0.688119
-0.83782 -0.0553665 0.431575
-0.932261 -0.327415 -0.169111
0.607727 -0.555511 -0.333952
0.812944 -0.168561 -0.444805
0.36606 -0.43816 -0.993755
-0.519292 0.249796 -0.16935
-0.690668 -0.605661 0.473926
0.655301 -0.149135 -0.978235
0.679691 0.149651 -0.667045
-0.12081 -0.522676 -0.0182598
0.273958 -0.387018 0.211463
-0.685578 0.54246 0.870028
-0.92279 -0.0871225 0.280336
-0.402982 0.17876 0.0791132
-0.0107134 -0.510763 -0.930291
-0.197397 0.375248 -0.967955
0.117908 0.333572 -0.922302
0.281482 0.430449 -0.289015
-0.592649 -0.515562 0.538816
-0.55648 -0.570715 0.24469
0.283401 -0.003844 0.24889
-0.657257 -0.692633 0.260149
0.205108 0.443289 -0.264623
-0.581525 0.75156 0.78021
-0.207069 0.0218671 0.736361
0.384117 0.357021 -0.233459
-0.719044 0.18828 0.483597
-0.287704 -0.558308 -0.127599
-0.580219 0.181572 0.00155741
0.040058 0.304096 -0.984504
-0.266445 -0.529912 -0.0684133
0.0819033 -0.649035 -0.892623
0.962566 -0.0229009 -0.677754
-0.636615 0.0299618 0.619956
-0.593048 -0.185618 -0.658735
0.24025 0.243505 0.0583646
0.527508 0.325113 -0.366354
-0.866919 -0.677864 0.124975
0.51069 -0.386476 -0.962854
0.677282 -0.497519 -0.447673
0.662662 0.049311 -0.921117
-0.149343 -0.492905 -0.658233
-0.859346 -0.110133 0.471707
0.0404422 0.274537 0.761947
0.497293 0.191344 0.00239441
0.879127 0.0699438 -0.674391
-0.469171 -0.562719 -0.978011
-0.582741 0.691393 0.830619
0.350896 -0.577348 -0.917945
0.3661 0.413034 -0.530078
0.823941 -0.352443 -0.619594
-0.1411 -0.314641 0.160675
0.232544 0.114985 0.175363
0.687124 -0.47651 -0.516095
-0.576637 0.235555 0.577411
0.712472 0.124953 -0.611952
-0.628797 0.337688 0.763165
-0.615692 0.136574 0.0544726
-0.793044 -0.514356 -0.286076
-0.0584313 -0.638763 -0.98439
0.781457 0.0239787 -0.369795
0.444148 0.290908 -0.827674
-0.687005 0.696144 0.892463
-0.528399 -0.42126 -0.600925
-0.670423 0.132097 0.452428
-0.131668 -0.703847 -0.889529
0.511664 0.317158 -0.591137
-0.137391 0.264458 -0.983679
0.0170943 0.481547 -0.541371
-0.712944 0.0765354 0.245291
-0.912071 -0.0408546 0.23394
-0.683217 -0.645686 0.0301306
-0.781282 0.00121936 0.499998
0.41161 0.385379 -0.590941
-0.3102 0.128242 -0.678606
0.116827 -0.111692 0.254867
-0.582195 0.0472068 0.429387
-0.401298 -0.17728 0.516106
-0.159158 0.0614057 0.795109
0.790917 -0.278335 -0.259565
-0.450873 -0.409012 0.355761
0.225092 -0.580649 -0.123451
-0.0172018 0.331559 -0.96972
0.295421 -0.72498 -0.28973
0.541871 -0.0120416 -0.982479
-0.729536 0.476081 0.857148
0.7458 -0.170032 -0.0797442
-0.0786008 -0.209732 0.210311
-0.842255 -0.455364 -0.292585
-0.649486 -0.230095 -0.636787
-0.821062 -0.28491 -0.481272
-0.691143 -0.733046 0.128886
-0.211791 -0.541937 -0.556163
-0.9357 -0.280633 -0.11582
-0.491698 -0.530919 0.120298
0.693881 -0.419483 -0.147581
0.0572324 -0.714747 -0.524972
-0.584036 0.171407 0.528219
-0.628583 0.0768664 -0.545338
0.810064 -0.0891658 -0.438925
-0.606908 -0.0750532 -0.982329
0.677484 -0.30093 -0.933149
0.688553 -0.334139 -0.0192954
0.607907 0.262855 -0.499135
-0.668147 -0.210794 0.614805
-0.488029 0.0135963 -0.984389
-0.462748 -0.0214083 0.449776
-0.4878 0.0666095 -0.737892
-0.57253 0.301887 0.629691
-0.433637 -0.241603 0.478224
-0.289548 0.119659 0.16696
-0.0319587 0.352482 -0.905508
0.679211 -0.443721 -0.697655
-0.590575 -0.420108 -0.97622
-0.156044 0.197287 0.750357
-0.638632 0.273566 0.749764
-0.119508 -0.392385 -0.934683
-0.850819 -0.413063 0.560304
-0.424423 0.226541 -0.396688
0.413557 -0.672751 -0.59662
-0.175872 0.267833 -0.0461512
-0.920076 -0.0883593 -0.140111
0.740483 0.0943164 -0.559416
-0.673873 -0.0840961 -0.611563
-0.0655 0.0752 0.6109
-0.251041 0.110378 0.834226
-0.158974 -0.657596 -0.838661
-0.715183 -0.443679 0.584335
0.0676859 0.00912438 0.22336
0.788527 -0.0756979 -0.185152
-0.064751 0.0139547 0.190561
-0.573752 0.0753752 0.221388
0.48649 0.108466 0.114844
0.338797 0.0395317 0.222755
-0.890231 -0.398183 -0.147468
-0.728654 0.11251 0.471994
0.46184 0.222986 -0.0526827
-0.926192 -0.44433 0.324647
0.569732 0.274851 -0.574206
-0.279716 -0.576574 -0.399288
0.914829 -0.304949 -0.572535
-0.45416 -0.39996 -0.978
-0.574787 -0.532995 0.331976
0.644962 0.225808 -0.548261
-0.715419 0.51573 0.708947
0.99518 -0.169007 -0.650534
-0.729063 0.470903 0.541965
0.0865724 -0.528881 0.0511987
0.766061 -0.319277 -0.198963
0.808648 0.0869854 -0.7852
-0.180907 -0.555595 -0.371783
-0.934599 -0.347431 0.422142
-0.938945 -0.136541 -0.257595
-0.628634 -0.597812 0.445372
-0.77207 0.152001 -0.272581
-0.272523 0.273493 -0.344014
-0.711335 -0.724527 0.239314
-0.184184 0.00219332 0.672675
-0.208693 0.0355322 0.554272
-0.515606 0.10307 -0.982664
-0.444001 -0.501414 -0.555099
-0.893339 -0.0656212 0.337986
-0.673779 0.681886 0.826969
-0.728065 -0.369594 0.605608
-0.400775 -0.124602 -0.965469
-0.315754 -0.14979 -0.965378
0.284141 -0.598191 -0.139102
-0.99055 -0.245896 0.195167
-0.691569 0.177034 -0.187253
0.175672 0.359167 -0.158629
0.112565 -0.509724 -0.956885
-0.855259 -0.693811 0.258215
0.630383 -0.261634 0.0888479
0.576141 0.26227 -0.65956
-0.175045 0.456543 -0.37311
-0.0337669 -0.683894 -0.553434
-0.557144 -0.585889 -0.389585
-0.207045 -0.501145 -0.76314
0.177898 -0.458163 0.162412
-0.58552 -0.255833 -0.651857
-0.664026 0.076101 0.294625
-0.695652 -0.443118 -0.516783
-0.394873 -0.507962 -0.592617
0.321671 0.324676 -0.885098
0.692927 -0.485542 -0.26926
0.016813 0.342362 -0.85993
-0.362114 -0.0537696 0.256395
-0.423769 -0.0266605 0.718831
-0.460981 -0.297486 -0.764877
0.178993 -0.254731 -0.942314
0.610792 -0.277285 -0.96201
0.412247 -0.206939 -0.984109
-0.7633 0.147529 0.532158
0.306849 -0.722356 -0.408614
-0.234004 -0.0389457 0.548784
-0.359622 -0.0525893 0.470634
0.372108 -0.513069 -0.00944506
0.23278 -0.736726 -0.52723
0.0812371 0.43043 -0.198024
-0.647395 -0.557101 0.514908
0.478737 0.150012 -0.892903
-0.0413467 0.402792 -0.189965
0.330888 0.270599 -0.0985305
0.438766 0.280489 -0.890815
-0.970598 -0.517791 0.155277
0.595245 -0.572718 -0.410465
-0.0756442 0.106334 0.942818
0.304745 -0.0237608 -0.994439
-0.246098 0.247814 -0.051011
0.27608 0.0392806 -0.98604
0.208827 -0.541196 0.0485163
0.220479 0.0309316 -0.938031
0.0855684 0.230242 0.779215
0.76964 0.0749919 -0.842558
0.978464 -0.241988 -0.677274
-0.480664 -0.349945 -0.65291
-0.168842 0.317706 -0.212494
0.552921 0.314176 -0.516923
0.150393 -0.526337 0.065008
0.554077 -0.32775 -0.956937
0.501003 -0.423636 0.111718
0.259608 0.28163 -0.085784
-0.52298 0.0526954 0.26753
-0.419581 -0.615682 -0.955802
-0.275321 0.019782 0.524106
0.353686 -0.267431 -0.993076
-0.525383 -0.223651 -0.676751
0.1787 0.325258 -0.95143
-0.3473 -0.528414 -0.713052
-0.307547 -0.366977 -0.983291
0.720046 -0.443945 -0.327444
-0.27672 -0.556228 -0.601867
-0.529983 -0.293815 -0.660488
-0.199031 -0.477281 -0.960993
-0.425134 -0.584908 -0.84893
-0.0997283 0.169524 0.935764
0.157328 0.228343 0.049532
-0.156945 -0.033145 -0.931302
-0.404319 0.262012 -0.263949
0.641394 -0.0723551 -0.975847
-0.0846933 -0.667906 -0.817161
0.333093 -0.230164 0.262886
0.588151 -0.527363 -0.147995
0.698281 -0.469566 -0.391591
-0.665829 -0.581495 0.0171492
0.73291 0.011473 -0.91137
0.351758 -0.371392 0.214848
-0.408509 0.218746 -0.982089
-0.866093 -0.609939 0.388863
0.0862312 0.0348854 -0.929982
0.0965104 -0.450054 -0.9313
-0.741774 -0.67754 0.0482365
-0.40143 -0.131015 0.448977
0.720311 0.166133 -0.387762
-0.980453 -0.200689 0.129595
0.0815698 0.356161 0.93869
0.920195 -0.066821 -0.814046
-0.7469 -0.00519415 -0.510998
-0.212744 -0.50671 -0.693042
0.370959 0.205297 0.0765539
-0.129911 -0.616446 -0.791177
-0.689201 -0.0593181 -0.843305
-0.642955 -0.178951 -0.977822
-0.439062 -0.224369 0.548698
-0.730959 -0.116724 -0.893519
-0.401487 -0.54539 -0.978002
-0.50275 -0.497677 0.0535027
-0.139543 0.366317 -0.96209
0.551997 -0.489081 -0.798908
0.432017 -0.488452 -0.991274
-0.321581 0.28257 -0.829104
-0.56687 -0.0511572 -0.79058
0.440701 0.132223 -0.960606
-0.747685 -0.717215 0.107729
-0.956082 -0.50867 0.230291
-0.333094 -0.109072 0.611024
0.843422 -0.375822 -0.669351
0.477652 -0.56505 -0.0945943
-0.804805 -0.711959 0.306297
0.704901 0.165413 -0.538071
-0.49976 -0.447695 0.406532
-0.913303 -0.582806 0.0524134
0.111785 0.309251 -0.977387
0.100872 0.487866 -0.32777
-0.555528 -0.557675 0.100677
-0.082949 0.181094 0.0780397
-0.545527 -0.565214 -0.976026
0.706584 -0.448264 -0.57788
0.437545 -0.0844243 -0.982749
-0.575925 -0.625853 0.199868
-0.273777 -0.523252 -0.733
0.438886 0.20628 0.0269029
-0.71888 -0.56455 -0.28345
-0.146596 -0.170318 0.204015
-0.509514 0.201581 0.0169119
0.484559 -0.0503055 -0.9974
-0.759798 0.0727631 0.638191
0.466398 0.349584 -0.327006
0.213088 -0.215794 -0.986724
0.203011 0.219903 -0.986732
-0.135566 -0.198962 -0.940981
-0.683333 0.189417 -0.37086
-0.742527 -0.725227 0.293437
-0.659915 0.698954 0.687113
0.388996 0.377403 -0.65989
-0.824426 -0.0472785 0.496262
0.377936 -0.383862 -0.991872
0.32374 -0.397194 -0.948886
0.228002 0.447766 -0.336627
-0.285362 0.173756 -0.789512
0.303374 0.207129 0.0952011
-0.232331 0.0450321 0.858199
-0.922287 -0.628277 0.101317
-0.0962408 0.223064 0.766706
0.146831 0.18028 -0.929427
-0.108727 0.487181 -0.356285
-0.981723 -0.37624 0.22649
0.0508626 0.324556 0.823087
0.193758 0.258783 0.00620521
-0.59077 -0.321821 0.61035
-0.22959 -0.459759 0.0505268
-0.242995 0.32684 -0.986984
-0.837594 -0.410015 0.0113556
-0.0855803 -0.357605 0.155992
0.297626 0.309039 -0.956566
-0.814636 -0.484507 -0.222959
0.584577 0.278241 -0.37781
0.530737 -0.495275 -0.876129
0.0408084 0.261148 0.932833
-0.0746226 -0.624254 -0.5513
-0.981446 -0.378298 0.156694
-0.0254623 -0.293003 -0.9377
-0.867059 -0.0164444 0.296868
-0.656729 0.478046 0.823572
-0.0143134 -0.668714 -0.835582
-0.365371 -0.336659 0.251338
0.683462 0.0968797 -0.722364
0.683738 -0.0191713 -0.951702
0.0332737 0.222524 0.7084
0.795836 0.00456874 -0.882599
-0.581177 -0.209333 0.610799
-0.154123 -0.269674 -0.944369
-0.750923 -0.687415 0.370117
-0.431881 0.137705 -0.908309
0.0674897 -0.557767 -0.00968864
-0.0807645 -0.502135 -0.929597
0.8625 -0.0224527 -0.540829
-0.856834 -0.0361934 -0.407645
0.991834 -0.154751 -0.579648
-0.754382 0.392569 0.702014
-0.394106 0.129031 -0.834239
-0.168289 0.100586 -0.927371
-0.312811 -0.530992 -0.788363
0.479487 -0.234111 -0.991466
0.612302 0.012832 -0.958428
0.235029 0.309036 -0.975176
0.733693 -0.411974 -0.518729
-0.000327833 -0.717326 -0.508289
0.272128 -0.523014 0.0671213
0.677685 -0.505711 -0.336924
-0.387566 -0.139839 0.646423
-0.945072 -0.407921 0.100737
0.29556 0.437123 -0.484069
-0.317862 -0.574335 -0.297505
0.470398 -0.600815 -0.150736
-0.278475 -0.00281962 0.817285
0.195731 -0.576502 -0.0570016
-0.817419 0.0943759 -0.253324
-0.906264 -0.380713 -0.212092
-0.694636 -0.578585 -0.209788
-0.510271 0.134997 -0.944996
-0.702873 -0.180139 -0.957089
-0.109231 -0.595757 -0.981876
0.475596 -0.159915 -0.979278
0.754407 -0.356309 -0.646026
-0.578225 0.115197 0.108921
-0.91478 -0.549833 0.35616
-0.560037 0.089839 -0.5586
-0.148799 -0.589792 -0.26336
0.657942 0.0992578 -0.036363
-0.439847 0.262789 -0.147758
-0.460715 -0.552247 -0.0486496
0.292058 -0.585216 -0.97441
-0.588152 -0.145766 -0.981679
0.00744343 -0.669771 -0.973696
0.235235 -0.490773 -0.978343
-0.88527 -0.0898491 0.403465
-0.59965 0.522746 0.766708
-0.206253 0.333233 -0.570695
-0.23695 0.314619 -0.322619
0.0562447 -0.0607018 0.238062
0.352739 0.30707 -0.168319
-0.604087 -0.2869 -0.965512
-0.341477 0.00846629 0.499406
0.010873 0.0435001 0.19081
0.838449 0.0363616 -0.830111
-0.346244 -0.547655 -0.558514
-0.0092931 -0.753124 -0.333362
-0.547072 -0.352216 -0.627229
0.388245 0.321015 -0.853263
0.802885 -0.266561 -0.533
0.137318 0.0367948 0.227568
-0.745919 0.572397 0.827324
-0.273427 0.130178 0.766063
0.0760285 0.419118 -0.757089
-0.348214 -0.113215 0.264456
-0.628048 -0.268009 0.615107
0.539871 -0.514124 -0.0895643
-0.288308 -0.0630914 0.648689
-0.0995902 0.110886 0.761143
0.52723 -0.553124 -0.737451
0.342518 0.399421 -0.258948
-0.591062 0.305539 0.550309
0.649677 -0.532135 -0.388375
-0.0484831 0.315165 -0.159337
-0.468382 -0.128853 -0.982823
-0.962008 -0.586985 0.149882
-0.329684 0.0151111 0.234136
0.695892 0.0288942 -0.0441453
-0.163574 -0.440474 0.0800302
-0.00818645 0.202422 0.921055
0.36551 -0.0525104 -0.98627
-0.734248 -0.471257 -0.463686
-0.48142 -0.322805 -0.983268
0.658671 0.199222 -0.48337
0.293357 -0.72297 -0.646585
-0.212261 -0.137574 0.22533
-0.353467 -0.590399 -0.956625
0.921429 -0.144344 -0.824919
-0.310616 -0.234165 -0.965243
0.203432 -0.00628013 0.248036
-0.651496 0.721032 0.941426
0.281811 -0.64253 -0.831692
0.194962 0.461701 -0.404634
-0.176847 0.360315 -0.633583
-0.351024 -0.297288 -0.971733
-0.529373 0.255852 -0.246296
-0.801787 -0.66964 0.0900018
-0.494863 -0.623005 -0.958022
0.333568 -0.116835 -0.990205
-0.607394 0.0635708 0.357601
-0.904054 -0.63307 0.251552
-0.227223 -0.560604 -0.41737
-0.759967 -0.524413 -0.337649
-0.253014 -0.0916755 0.615994
-0.158627 0.0999027 0.142371
-0.897297 -0.090458 -0.0601645
-0.219916 0.220112 -0.635315
-0.775136 -0.486371 -0.0231796
-0.781986 -0.431916 0.57764
0.238025 0.181907 0.117127
-0.566689 -0.512627 0.0468274
0.72177 0.112906 -0.209738
0.673414 0.169634 -0.211763
-0.607933 -0.453704 -0.832268
-0.809432 -0.0194741 -0.469157
0.399607 -0.483208 0.0571823
0.0684915 -0.6634 -0.775904
-0.0864485 -0.129664 0.211812
-0.0613172 -0.154963 -0.936448
-0.790626 0.12063 -0.327379
-0.69768 0.574494 0.665818
0.94706 -0.0434292 -0.74775
-0.473676 -0.596748 -0.184287
0.570148 -0.38303 0.0839081
-0.0539609 0.226322 0.95221
0.326101 0.258398 -0.0348945
-0.119011 0.159187 -0.925993
-0.887201 -0.156042 0.448037
-0.14532 -0.609734 -0.334753
-0.334597 0.266621 -0.984393
-0.427871 0.0220201 0.675017
-0.915052 -0.200062 -0.314014
-0.0545804 -0.562193 -0.963549
-0.323062 0.245434 -0.0694237
-0.986445 -0.307441 0.253124
0.460242 0.353103 -0.641413
0.189376 0.108161 -0.926447
-0.745349 0.124232 -0.0816769
-0.0623142 0.145086 0.8842
-0.513086 -0.469172 0.547775
0.077487 0.313333 -0.135536
0.837902 -0.226889 -0.883739
-0.596437 0.220393 -0.273466
-0.575649 0.151217 -0.516667
-0.195871 -0.0059269 0.828501
0.400959 -0.599508 -0.796084
0.13617 -0.694316 -0.180835
0.0998821 0.371129 -0.160475
-0.893248 -0.014377 0.165937
-0.269552 -0.318461 0.19692
-0.26612 0.255471 -0.982662
0.740726 -0.328246 -0.892983
-0.360195 0.319334 -0.899764
-0.163455 -0.0927983 -0.935575
-0.420809 -0.265107 -0.974558
-0.342891 -0.0995328 -0.987048
-0.238884 0.0722955 -0.926067
-0.541208 0.0148895 -0.787147
0.65648 -0.389899 -0.809112
-0.472804 -0.141276 0.637661
0.903811 0.000402368 -0.793691
-0.564349 -0.614692 -0.953195
0.437547 -0.547893 -0.82862
0.464566 0.266335 -0.102619
-0.852346 0.0454381 -0.28844
-0.642186 0.607183 0.875009
0.202701 0.0593284 0.217714
-0.385674 0.0594405 0.223726
-0.451844 -0.378788 0.416184
0.0910829 -0.691191 -0.708276
0.952976 -0.187601 -0.782651
-0.0706741 0.482454 -0.298053
-0.86979 0.0423384 -0.218683
0.575603 0.28499 -0.309985
-0.895656 -0.431397 0.51337
-0.600012 0.615667 0.685885
-0.711382 0.509533 0.6322
-0.619444 -0.587892 -0.187345
0.341426 -0.619352 -0.83359
-0.258698 0.308436 -0.811489
-0.621918 -0.653209 0.064348
0.702105 0.155743 -0.453543
0.624681 -0.519771 -0.520077
-0.378374 -0.592039 -0.895092
0.288637 0.29707 -0.148711
-0.487154 -0.611942 -0.366957
-0.42306 -0.43486 0.287587
-0.657822 -0.727116 0.185705
-0.773919 -0.299312 0.608324
-0.760959 0.077501 0.531701
-0.64399 0.621252 0.607573
-0.73966 -0.0613753 -0.962045
0.865835 -0.279198 -0.841337
-0.018912 0.047985 0.657157
-0.0289518 -0.7196 -0.446942
-0.37723 -0.3901 0.14786
-0.0918871 0.444007 -0.230968
-0.376022 -0.597572 -0.34802
-0.144943 0.115209 0.914099
-0.750084 0.458246 0.740705
0.615595 0.248059 -0.607783
-0.401494 -0.53633 -0.0265357
0.587676 -0.572824 -0.267881
0.599464 -0.538558 -0.6094
-0.611067 -0.228037 -0.8853
0.473647 -0.620285 -0.274115
-0.576523 -0.546124 -0.0339705
0.459385 0.297698 -0.153901
-0.273345 0.269341 -0.126829
-0.00623236 0.212414 0.996255
-0.247869 -0.250769 -0.984883
-0.862283 -0.433753 -0.219893
-0.0132229 0.474019 -0.602244
0.763447 -0.208894 -0.132739
0.639149 -0.52167 -0.218716
0.377012 -0.701528 -0.287224
-0.192096 0.287546 -0.155227
0.573525 -0.446487 -0.864933
-0.129068 0.451491 -0.541389
0.788354 -0.312281 -0.324572
0.109871 -0.243938 -0.938993
-0.571589 -0.282114 -0.902539
0.126941 0.229693 -0.983981
-0.240929 0.124484 -0.70537
-0.186985 0.428682 -0.319779
0.413575 -0.553793 -0.971583
-0.771107 0.0584076 0.217645
-0.351018 -0.579851 -0.154273
0.0160169 -0.587119 -0.146495
0.472963 -0.199427 0.212663
0.348484 -0.673913 -0.221993
0.978377 -0.0868746 -0.576312
0.0551612 0.488565 -0.383689
0.334408 -0.507386 0.0613767
0.666602 -0.228594 -0.959591
-0.200265 0.268454 -0.775304
-0.730169 -0.0544526 -0.562761
-0.343762 -0.0136723 -0.986063
-0.787591 -0.434142 -0.428159
-0.713705 0.112828 -0.0200384
-0.0527774 -0.585245 -0.109365
-0.720388 0.0606017 0.0868968
-0.975367 -0.17041 0.204247
-0.278847 -0.545922 -0.852555
-0.785189 0.20493 0.635756
-0.350913 0.158299 0.126966
-0.625927 0.199294 -0.41632
-0.602778 -0.590132 0.0572411
-0.647725 -0.238783 -0.957965
0.155645 -0.186478 -0.943262
0.79658 -0.0154902 -0.468864
-0.857707 -0.228049 -0.428961
-0.0628165 0.414362 -0.715699
-0.405107 -0.00386921 0.256671
0.764592 -0.350995 -0.262996
-0.485722 0.248275 -0.101501
-0.669579 0.67018 0.761882
-0.550997 -0.0760552 -0.664472
-0.149335 0.168577 0.676168
0.0280723 -0.701022 -0.596176
-0.0918904 -0.676102 -0.433883
-0.911074 -0.169603 0.388186
0.0824436 0.467214 -0.528086
-0.473136 -0.477452 -0.783324
-0.200086 -0.146474 -0.972468
0.744619 -0.412671 -0.391894
-0.362587 0.222827 -0.426136
0.296222 -0.585747 -0.877536
-0.698402 0.0617583 0.422359
0.578124 0.0221092 0.104118
0.403005 0.179805 -0.985137
-0.745385 -0.129952 -0.950378
-0.398077 -0.434136 0.108237
-0.647376 0.0896882 0.664025
-0.865916 0.00675424 0.233289
-0.266413 -0.115658 -0.988618
0.979782 -0.179431 -0.716823
0.328409 0.158124 -0.990402
-0.249658 -0.423838 -0.980924
0.0603026 0.239076 -0.984031
-0.0038373 0.110116 0.63705
-0.770261 0.0314387 0.568945
-0.200645 0.103103 0.879619
-0.107171 0.274101 -0.0382133
-0.403358 0.275642 -0.969213
0.953486 -0.116912 -0.52657
-0.456298 0.0700979 -0.984744
-0.266256 -0.492166 -0.983136
-0.753086 -0.496195 -0.400155
-0.723608 0.672626 0.936052
0.594949 0.0734319 -0.903156
-0.696861 -0.29544 0.616592
-0.930196 -0.417516 0.434942
-0.475978 -0.413187 -0.772717
0.267988 -0.728852 -0.585937
-0.368405 -0.290419 0.294619
0.77112 -0.126439 -0.133446
-0.106254 0.376096 -0.196814
0.115578 -0.355129 0.224864
0.841833 -0.378907 -0.743423
0.112951 -0.0362266 -0.9332
-0.454255 0.0352568 0.238052
-0.860149 -0.34074 -0.387592
0.26882 0.0590329 0.218205
-0.594338 0.395733 0.731439
0.138852 -0.674221 -0.779618
-0.575613 -0.222304 -0.981947
-0.280298 -0.56092 -0.530741
0.585357 0.17512 -0.787378
-0.434634 0.137938 -0.602669
-0.373157 0.118201 0.177527
-0.62075 -0.345969 -0.970412
-0.553608 -0.565017 -0.459416
-0.807332 -0.442857 -0.0159142
-0.195852 -0.0635067 0.635001
0.651224 -0.396863 -0.032071
0.0169393 -0.353599 -0.935831
-0.418614 0.20988 -0.92446
0.185891 -0.53161 -0.988677
0.356964 -0.68146 -0.652434
-0.786412 -0.068317 -0.504823
-0.903038 -0.477862 0.460173
0.272509 -0.350606 -0.938435
0.480361 -0.536273 -0.877182
-0.32356 -0.526036 -0.0107498
0.476503 -0.632484 -0.5739
-0.94411 -0.249734 0.52221
-0.564565 -0.0216916 0.541938
-0.344895 0.275006 -0.236585
-0.771445 0.628257 0.914219
0.892928 -0.151073 -0.501575
0.058578 -0.490549 0.107818
0.0184244 -0.563642 -0.0725709
-0.760889 0.3109 0.776723
-0.773845 -0.336378 -0.511072
-0.297716 -0.561546 -0.907256
-0.590353 -0.545611 0.477596
0.58768 -0.13367 -0.994713
0.117914 0.452581 -0.575955
-0.55584 0.227207 -0.386545
0.872048 -0.265507 -0.528548
0.235838 -0.705662 -0.6936
-0.487885 -0.614339 -0.255004
-0.306626 0.27733 -0.189905
-0.486129 -0.00734735 0.525401
-0.251912 0.301545 -0.3922
-0.554176 0.0399471 -0.98443
-0.117881 -0.666642 -0.365882
-0.72417 -0.315533 -0.560106
-0.681025 -0.283983 -0.609749
-0.841534 -0.455003 -0.152289
0.00632676 -0.59055 -0.985618
-0.028648 0.145398 0.113779
0.180386 -0.613022 -0.976461
-0.169046 0.318779 -0.792055
-0.0127947 -0.254993 0.221625
-0.588199 0.326821 0.702434
0.520555 0.0470076 0.135147
-0.859777 -0.0260546 -0.0274268
0.133771 -0.635925 -0.142898
-0.515901 -0.177533 -0.985699
-0.534266 -0.00396439 0.466244
-0.742244 0.000429007 0.619423
-0.516406 -0.530009 -0.00775674
0.51428 -0.644243 -0.389462
-0.162029 -0.546894 -0.444
-0.917704 -0.0966866 0.0835435
0.110776 -0.294216 0.244684
-0.746595 0.518175 0.781044
0.241959 0.316933 -0.900123
-0.208593 -0.657367 -0.966116
0.811186 -0.133247 -0.383382
-0.964289 -0.443554 0.175559
-0.2027 0.139632 0.64033
-0.896597 -0.608172 0.325345
-0.613159 -0.312707 -0.625713
-0.0813619 0.192116 0.705
0.201873 -0.747373 -0.337815
-0.710075 0.406101 0.82612
0.598416 -0.423994 0.021388
-0.351608 0.0605392 -0.977846
0.721017 -0.381923 -0.700411
-0.376424 -0.522819 -0.783417
-0.460222 0.141718 -0.977898
0.619657 -0.120955 0.102712
-0.592358 0.261954 0.692056
-0.275771 -0.312895 -0.972618
-0.0533557 -0.600317 -0.18214
0.0788324 0.0786185 0.195592
-0.854518 -0.29214 -0.422155
-0.148664 0.0646388 0.730249
-0.107117 -0.565147 -0.559039
-0.0605722 0.0852622 0.700967
-0.139751 -0.664112 -0.981782
-0.397781 -0.262626 0.350831
0.744476 0.112605 -0.762709
-0.956295 -0.440425 0.254574
0.346871 -0.59098 -0.107024
0.71498 0.0782837 -0.682443
0.778972 -0.342349 -0.392516
-0.00243816 -0.643869 -0.178649
-0.684587 0.628777 0.711496
-0.733115 0.15528 -0.144885
-0.288621 -0.0485963 -0.978195
0.0122449 -0.676602 -0.89703
-0.94558 -0.210321 -0.241745
0.768009 0.0409279 -0.512506
-0.558686 0.199472 -0.452449
-0.340116 -0.510339 -0.979987
-0.749088 0.324071 0.659032
0.446668 -0.661443 -0.520471
-0.716922 0.533693 0.565962
-0.547156 -0.616844 -0.210544
-0.647752 -0.52069 -0.953419
-0.31573 0.344979 -0.983272
0.486059 -0.319101 -0.988958
-0.614623 0.218058 -0.349028
-0.151605 -0.0931487 0.201364
0.0252653 0.326184 0.892437
-0.281295 0.290271 -0.267414
-0.530965 0.210287 -0.0519929
-0.0734934 0.144076 0.645558
0.479272 0.0168596 -0.982815
0.521524 -0.618252 -0.5219
0.15692 -0.577624 -0.116538
-0.276077 -0.436962 0.0964423
-0.0197698 -0.331139 0.188471
0.33578 -0.539473 -0.061287
-0.199528 0.370576 -0.286235
-0.157109 0.155437 0.102405
-0.175886 -0.559584 -0.77917
-0.299519 -0.482506 0.0385183
-0.375858 -0.0822482 0.726812
-0.213649 -0.536853 -0.981718
-0.213566 0.273062 -0.0967802
-0.028516 0.503059 -0.354454
-0.544447 -0.0543547 -0.728161
-0.796216 0.582658 0.882294
0.102885 -0.456571 0.154452
-0.37291 0.205566 -0.499019
0.912424 0.0279314 -0.636972
-0.455052 0.25568 -0.212105
0.0480832 -0.217879 -0.939059
-0.815143 -0.355171 -0.451417
0.528488 -0.291016 0.171147
-0.900149 -0.209747 0.563331
-0.151353 0.322332 -0.988619
0.189146 0.284953 -0.064238
0.542288 -0.26041 -0.985943
0.303383 -0.542032 -0.000924884
-0.41764 -0.488016 -0.742544
0.115376 0.274217 0.00505635
0.129336 -0.0355882 0.247237
0.135132 0.467472 -0.469289
-0.626368 0.43531 0.561258
-0.808723 -0.460872 -0.089556
-0.371683 0.12595 -0.720785
-0.204139 -0.211686 0.220022
-0.0223785 0.471038 -0.251366
-0.665385 -0.352691 -0.584601
0.579525 -0.0606636 -0.989439
0.537928 -0.616618 -0.300245
-0.826194 0.0223568 0.177457
-0.621156 0.677969 0.657526
-0.622574 0.167592 -0.472678
-0.430015 0.169714 -0.979769
0.0445793 -0.129244 0.242228
0.790348 -0.0163041 -0.236925
0.104384 0.268994 0.735587
-0.547462 -0.0310455 -0.984206
-0.0391126 0.152803 0.974003
0.271321 -0.085759 -0.992144
-0.752643 -0.497204 0.553282
0.030986 -0.196422 0.240936
-0.372683 -0.204677 -0.965513
-0.604276 0.241097 0.508562
-0.702148 -0.55013 -0.367809
-0.261443 0.388776 -0.958653
0.167981 0.477154 -0.334548
0.778971 0.04749 -0.438913
-0.56577 0.0586351 -0.841656
-0.467338 -0.291727 -0.691704
-0.521519 0.0267364 0.404704
-0.33793 0.091691 0.628303
0.714502 -0.421318 -0.640414
0.21313 0.457451 -0.477404
0.48456 -0.660708 -0.469234
0.212835 0.301682 -0.139049
-0.799257 0.339963 0.721342
-0.00865989 -0.45682 0.119645
0.18099 0.195451 0.0942876
0.711056 -0.17864 -0.0164612
-0.557417 -0.515884 -0.517657
0.06672 -0.247076 0.244298
-0.223933 -0.0676794 -0.95446
-0.511545 -0.524837 0.278967
