-4.34982 -4.02832 4.44459
-8.09779 -6.14373 -0.520038
10.1319 2.83656 -10.0082
-6.49794 -5.13993 -3.08302
-4.21286 -10.0123 8.0023
5.07802 -6.18794 15.3019
-6.09941 -10.013 2.92901
7.07346 -4.63193 -17.1655
11.63 9.86742 1.72006
-3.2553 -0.485352 -19.0043
-6.21688 10.0067 0.570432
9.277 3.18988 5.0773
-6.27813 -10.0081 -0.912108
8.2473 -9.90018 -9.78771
8.31582 1.95935 18.9138
9.84583 -10.0097 -6.22736
-8.21041 -1.86193 7.94034
-1.78318 -6.00759 -11.9792
-4.77347 -10.0147 -4.37825
-8.0421 1.38767 -9.91477
11.7404 2.99072 -9.79486
0.902143 6.94793 -14.905
11.7095 9.82468 -4.78901
7.59072 3.54358 18.8764
6.39161 8.34719 -3.84811
4.10905 6.39396 5.53754
11.6703 4.15422 -4.58897
5.27986 5.7841 -4.89935
8.13714 10.006 7.80995
-8.2082 -8.00134 0.973306
3.8698 -6.69909 17.1294
-4.16564 9.83438 -9.90015
-6.71272 -0.473337 10.0115
-4.47222 -3.14132 17.053
-2.89659 -9.80163 -3.94375
5.06795 -3.83213 19.005
7.7494 -8.04152 0.588908
7.62895 10.0034 -5.90576
-8.06462 1.19616 6.02751
-6.21685 0.516322 5.98551
-1.27813 -3.14547 5.22829
-6.66071 -9.90682 -9.87452
-1.50048 1.77285 -5.73216
7.72066 5.93268 1.62573
-6.05345 -5.59714 2.14082
-5.6873 -10.0078 6.44387
-8.20674 -5.8534 -8.06969
5.8842 -6.18935 -4.38547
11.7196 0.991134 6.10845
11.6281 -9.92749 2.11354
-8.14878 -5.55163 2.76364
11.6734 5.18121 -3.32494
10.0529 2.9934 10.0059
-8.21454 7.83411 3.44671
8.64957 0.477868 -18.8614
7.65135 -3.84997 -15.4877
-8.13136 3.6513 -5.07344
-1.65341 -9.86167 5.04674
-6.34169 4.31956 -4.16781
5.54071 -5.91412 11.8976
5.05864 -6.18952 -11.9018
7.17787 4.48729 -15.4345
-8.21573 7.95881 1.55104
11.7292 -5.91393 1.75909
-8.20671 -8.27989 -5.63664
-8.08543 4.81991 -3.90856
7.0475 7.99521 -10.0136
-8.20729 -7.8183 6.33046
-4.77248 -2.41533 -13.4678
-4.75313 -10.0106 4.38097
-8.2136 8.21512 5.5965
-5.13434 1.02242 -17.0798
-2.08944 2.71787 19.006
7.71307 -5.92238 -1.78242
11.7237 -7.76445 9.80866
-4.54614 3.95034 -4.51472
-1.12019 -6.49577 -10.109
-4.81408 -5.00831 -3.28423
-3.09771 -5.00684 -15.3994
11.8083 7.90127 -1.63405
3.98558 -10.0104 7.68458
-1.78665 -6.02649 17.0992
9.78155 -10.0104 1.1458
-2.42759 9.91389 4.48871
2.57043 -6.81142 18.9008
11.4145 9.87129 9.80322
8.04304 3.16872 -15.1503
-3.63589 -5.39118 2.93908
3.32682 6.84901 15.3762
4.53305 -6.4456 13.6227
7.6493 9.83989 9.82016
-2.43462 -7.59864 -4.25501
0.885003 3.61281 5.93935
-8.08067 9.86007 -1.35558
-1.34782 9.87021 9.85229
1.93321 -10.0135 8.05621
-8.2099 -6.57197 -4.25572
-8.12667 -4.38556 9.80879
-8.10553 2.30846 -5.74071
11.8094 2.07576 7.87395
-5.5933 -9.88651 9.87054
1.89267 6.99988 11.8226
-1.30716 0.551031 19.003
0.00739536 7.62706 5.71979
11.6686 9.84249 -6.59843
-4.99383 -1.72347 -15.2406
11.6715 9.83823 6.7464
0.49149 9.92707 -6.10312
2.16713 6.9991 -13.571
-1.8243 -10.0168 -8.57448
9.87358 4.13923 -4.32952
4.53255 6.44784 -15.4367
7.23554 4.6794 -10.1028
11.659 -5.17152 3.26564
-2.58381 -4.34706 4.2104
11.5832 4.70363 -9.93576
-8.20858 -7.66968 8.12517
9.55429 -5.48975 2.40491
-8.21144 -7.79989 2.79917
7.77106 3.64178 -11.8318
11.7159 9.82118 -2.99591
11.6475 9.90505 0.117557
-4.7695 -2.73317 -10.1172
-2.75543 4.51086 -4.06064
10.0064 10.0125 8.02258
3.56992 6.37555 -5.73647
5.80303 -9.81978 4.69138
0.111293 -6.7099 -18.8849
-8.20848 8.26547 -8.12956
11.7079 -3.8933 -4.84088
-2.5258 5.50478 15.0417
-3.16122 8.12648 -10.012
11.6233 -9.87142 -1.9457
4.41873 -6.71391 -5.41072
-6.31477 2.87174 -5.27908
7.73989 9.85066 -9.85519
-4.46572 2.74938 18.8939
8.21185 -2.79024 12.0308
-4.58899 2.89275 -17.3539
5.38737 1.24054 -5.89778
-3.56593 -10.0108 -5.94273
5.3036 9.90605 5.13489
-3.60723 4.26311 -18.7863
-1.84662 -10.0083 -6.88553
11.8066 7.72409 6.15957
-6.57352 -10.0116 -4.99547
-8.20535 5.52812 -5.97396
-0.486687 -4.1294 19.0048
-8.20624 -5.61034 5.82465
1.70636 4.78281 -19.0032
-4.84968 -2.19449 15.3258
-8.20664 4.58004 6.38457
0.925164 6.96115 -12.1845
2.5465 0.82727 5.97511
9.61733 9.89891 -9.86495
-8.07087 9.83635 0.377564
-6.32406 9.84402 -9.90179
-6.45834 -1.5241 5.79485
-3.58805 -10.0064 6.01013
-8.05973 4.84927 9.89127
9.83448 -10.0074 -0.991584
10.0873 10.0191 -7.9354
-0.375017 -6.65324 11.8917
5.87431 9.89105 9.82533
-2.59704 -5.69716 -10.0957
11.6199 6.44354 9.91262
7.15058 -4.26301 -18.936
-8.20696 7.80618 -2.33475
11.8117 -7.95411 -8.21659
4.6855 -6.21201 -18.9062
-8.20353 6.63436 -4.28988
-6.19662 -5.9906 0.408611
7.6882 -3.77333 -11.9638
-5.13958 0.944144 13.707
-0.579659 4.20969 19.0054
7.24308 7.97186 10.0116
11.8045 -6.86849 3.78075
8.01626 -6.22606 10.0038
-8.08119 -3.35203 -9.84491
3.96559 9.8504 9.87947
-8.07912 3.2276 -9.79433
-1.57439 -1.18349 5.88208
7.07636 2.86352 5.2724
-8.06111 -8.11291 9.8333
11.7208 -2.28599 -5.78114
5.89175 -8.09434 -4.37017
-3.90543 -10.0106 -7.97454
5.97488 -10.0119 8.26906
-2.86007 4.58062 4.02498
-8.2169 8.03109 7.89879
-3.51021 9.85037 -3.08416
10.1743 1.94194 5.67446
9.92215 -9.77712 -9.92698
8.21841 -10.0076 -7.53797
4.3007 1.0327 5.92182
3.43781 4.48593 19.0052
-8.06566 -9.87205 6.02002
0.977374 7.03221 10.1488
-8.21066 -8.39143 -3.6019
6.12486 5.79031 10.097
11.8062 -7.82249 -6.38389
5.81786 5.73256 -13.7435
4.62147 10.0088 -7.93816
11.5966 1.13547 9.93993
9.55285 -4.60854 3.83041
10.058 6.47271 -10.0104
-4.35256 3.341 -13.9577
-3.10488 5.02514 -16.8603
11.8083 7.96805 -5.78247
-1.76837 -10.0107 6.81984
5.33144 3.56573 19.0062
11.7548 -9.78105 -3.71595
-2.44539 9.81821 -4.42337
-2.92872 7.55538 -3.69888
-8.0557 9.90346 2.17428
8.7107 -1.1225 -13.618
-6.17654 -10.0077 1.08627
11.7356 2.89875 9.80078
-4.67158 2.66188 -11.9864
-8.20641 -3.77977 7.49615
-0.14186 -4.44725 -5.67025
8.41049 -10.0038 -4.85819
-8.21789 0.23398 8.00338
-7.99699 8.22463 -9.97245
-8.12984 5.84949 2.15829
11.8079 4.43768 -8.28478
-0.195732 0.626124 -5.9862
-6.16847 3.96768 10.0064
-4.54301 2.95532 13.6591
-8.20906 7.98182 -0.422799
-1.80285 6.01379 16.8491
9.12321 0.146501 -10.0744
-1.66156 -9.82156 -5.01707
1.69467 -6.78136 -18.8791
-8.15716 -2.29455 -5.82954
11.8045 -3.96974 -7.37275
3.47175 -6.19717 5.77757
-6.12623 7.76197 10.0135
7.12156 -4.29083 18.9407
-1.00222 -9.88392 9.86265
11.8078 -8.23672 2.94961
8.00878 -10.0067 7.69109
10.2224 -10.0095 -4.17295
11.8102 0.144792 8.06253
-8.21374 -8.29936 -0.79816
-4.98897 4.73507 3.68317
0.12459 2.2336 19.003
-2.99278 0.812355 -5.95819
7.79843 -3.61683 15.564
9.94449 -10.012 -8.20651
-3.0725 2.85825 -5.27873
2.64268 -8.12649 -5.93911
11.6772 5.83234 -1.91542
7.28111 -5.31705 2.97929
-6.33694 10.0109 -5.65846
11.6364 5.2627 3.09736
-4.82599 -2.22367 11.9256
6.32492 -5.34333 -15.4827
7.39318 9.87364 -2.56431
3.94629 9.84216 -9.7923
0.814236 10.0073 -8.06079
-8.21496 3.97998 8.10973
9.43021 4.74075 -10.0017
10.0572 4.4482 4.01325
1.81471 5.38883 -6.01718
11.8023 -5.93451 -7.81838
-3.77947 -3.91105 -4.53903
11.7239 -9.83048 -5.56528
-2.50637 5.25799 18.806
-4.07913 3.80732 -16.0216
7.35829 4.24917 11.8867
4.33926 -8.45024 -5.42199
-0.113738 -9.88374 -5.83958
4.71125 -6.53958 10.1296
-4.81004 -9.84302 -9.8916
-3.7954 -9.8931 -2.55955
-8.20765 -7.35867 4.51655
-6.80585 10.0173 -7.86647
3.73346 4.42882 -5.68837
-4.76846 9.88822 9.84002
8.19148 -2.89077 -17.1893
8.09095 -8.25189 -10.0087
1.95941 6.84124 18.8933
11.646 9.90871 -1.36481
-7.88929 -9.79697 9.87371
9.4582 9.79689 9.88978
-6.20181 -3.8477 10.0051
0.145236 -10.0166 -7.88644
-8.06213 9.88708 -9.63721
1.98776 -4.60055 -6.02326
-6.48349 -2.54221 -5.42554
2.86745 10.012 7.95668
3.93769 6.68371 11.8833
9.88943 -6.51997 10.0065
7.10704 -4.56885 -13.7317
-1.45826 3.57917 -5.04217
-0.872793 6.48534 -11.9595
5.88633 5.69847 17.0287
0.621432 2.95532 -19.0037
11.6977 -0.721644 6.11847
7.4057 0.958705 -5.92912
5.0576 8.16633 10.0101
3.20615 -6.69093 -18.9492
-0.991662 9.89383 5.48485
8.50201 -2.05907 -15.4731
-4.79433 -1.87845 -18.8734
11.5883 -0.681546 9.89475
5.85358 -2.78699 5.30572
-8.04799 -9.89149 -8.30733
-4.51547 -6.25375 -10.0051
3.74509 4.64813 -19.0078
6.78787 4.91369 15.323
-5.04691 -0.151205 -18.8411
-3.77541 -3.99156 18.8723
3.09882 7.04996 10.1021
-4.89026 1.39974 -18.9113
1.55659 -6.1581 6.00075
-3.35737 4.73075 13.463
-8.2131 -7.43547 -2.22317
2.53959 -6.96262 -15.2774
10.1515 10.0076 -3.93976
-5.98464 -4.00713 -4.47148
-8.11149 -6.30644 9.8505
4.70898 10.0136 7.90006
9.91687 0.212232 5.99875
8.48206 -2.10707 -11.8836
-4.08407 6.70944 -10.0019
-3.28808 4.80631 -14.623
2.77718 10.0165 -7.94574
8.9296 -1.42426 -10.0747
4.40305 -6.2549 18.8732
-5.19611 -0.0885903 15.3907
-8.21244 2.17948 -7.90158
9.17113 -10.0048 -2.82788
-4.25116 6.09647 -1.13374
5.77161 6.1119 4.49248
-8.21131 5.94612 8.19726
-3.8283 7.84154 -2.06017
6.02194 -2.31972 -19.0072
-7.97092 -1.78655 -9.93109
9.76216 -3.22837 5.04513
-3.32618 -4.78988 17.0677
-1.5327 7.93407 -4.99326
6.52174 -5.15805 -11.9071
-5.09495 10.0205 -8.48618
2.52132 -6.33339 -5.9616
-0.305406 8.29882 10.005
-8.16554 4.94615 -9.76984
8.46855 -2.15754 14.5964
4.50585 -0.15641 19.0036
6.58462 -2.40296 -5.49556
-6.07337 -5.81583 -1.45209
3.88621 9.91904 5.85207
-2.20671 -5.73612 11.9319
-8.20942 -5.69896 7.83527
-2.21124 -10.0139 8.46914
7.86747 -3.9465 4.52859
-1.51763 -8.23606 -10.0098
7.01715 -10.0047 -6.02911
0.631526 -6.75909 18.8744
-5.84586 10.005 4.35225
-3.02708 -9.85444 3.79692
11.5581 -0.364426 -9.88045
0.00877952 4.54266 -5.71841
-0.161154 -6.72997 -11.9187
8.0863 3.10692 -17.0205
-8.06403 -0.493938 6.15915
11.7205 -0.652629 -6.13725
0.494799 -6.88032 13.5691
-1.36174 6.01309 5.09959
-6.465 4.01713 4.46576
-4.40841 -3.23718 13.557
-0.503201 6.61801 -13.9327
7.76422 -9.90439 9.83783
-1.12189 10.0118 7.92824
11.6519 -6.56798 -9.85412
-4.08289 3.78871 11.8781
-3.52027 5.51502 -2.88736
4.55921 6.24269 -18.9315
11.8078 0.237397 -8.03224
4.04603 6.63498 -13.6292
6.17831 -7.78027 10.0117
5.92567 -0.598815 -5.98897
3.16017 -4.43994 19.006
3.90649 9.93697 -5.8416
5.83123 5.7103 11.8288
-0.315801 9.91146 -9.81772
7.97428 -2.87286 18.9048
-6.33654 -7.92079 10.0144
9.59306 10.0076 -2.06007
6.57709 9.8433 3.90309
1.07216 6.7642 -18.857
8.82134 1.52539 10.0959
-1.84382 5.89723 -4.76962
9.80682 -1.59838 5.78591
4.62542 -0.778322 -19.0038
-6.45849 9.79689 9.91019
1.82688 9.92089 -9.81603
6.09535 1.62959 19.0031
3.0197 8.41114 -9.99791
-5.19784 0.199799 -15.2772
8.27679 -2.67846 17.0729
10.1295 -2.91419 -5.2385
-5.49536 -10.0033 -6.44246
0.450285 5.55349 5.85437
-8.06689 6.58472 -9.83664
-8.07633 -4.72752 3.97506
-8.13276 0.836549 -6.13731
11.8115 7.80677 2.48172
-4.18305 8.02256 -0.0206129
5.15246 -10.0054 -6.74512
6.69377 2.69087 -5.3688
-6.09891 -10.0196 -8.08133
6.64557 -5.05107 15.4337
11.8028 -4.46319 6.52894
-3.9124 -4.04926 15.2926
11.8082 -1.79287 7.81284
-5.0949 -1.20204 13.6591
-8.20421 6.52792 6.48782
-3.10807 -2.52443 5.44662
8.85102 1.59426 -10.0978
11.6987 9.79689 -8.35922
11.8092 6.36171 4.39236
-6.51322 -5.81232 10.0091
-8.20803 4.06948 -7.52
8.48484 10.0052 -4.13037
3.03094 6.90662 -11.8534
7.38925 7.88088 -2.15924
11.8053 7.72978 7.97396
-3.33487 4.77655 16.9568
-8.10237 6.14461 0.661676
6.70744 -0.330433 -19.0037
7.0929 -4.56385 11.8785
-8.20545 7.74349 -6.18145
7.92506 -6.19955 -0.163338
6.15313 5.28657 -18.9122
-0.106755 6.42248 -5.68942
11.8097 -5.85156 8.14772
-8.10975 -3.54882 5.14372
1.97222 3.38128 -6.01018
11.6268 -9.89189 4.10279
8.38412 2.38309 12.0011
0.26023 8.29856 -5.80399
6.34446 -10.0102 -8.1298
4.17363 -9.84028 5.71271
0.785433 8.473 -10.0025
-3.82711 -4.16558 -13.5037
8.15035 -2.94881 -13.7436
11.5969 -4.10126 9.90159
-6.34621 -10.0143 8.16648
6.0343 5.57693 -15.6147
-3.11138 -5.30078 -3.50765
8.09056 4.32374 4.15213
-8.07193 -9.86985 2.08524
4.05872 -10.0106 -8.15469
11.8091 -8.04035 -0.917265
-8.20415 -4.67616 -6.25692
-4.21651 1.42793 5.82674
9.79614 10.0098 0.0598294
-4.749 2.81236 10.1235
0.381458 6.65548 18.8524
-2.43384 -8.17459 4.2541
-5.07689 -1.3237 -11.7558
-0.535792 -9.79629 -9.86024
-4.16097 -5.97777 1.48797
7.57271 7.93286 1.59212
-8.06618 -5.04328 -9.83766
11.6504 4.06203 4.68022
-2.32144 -6.38726 4.35753
4.23108 -9.91389 9.73658
-8.03038 9.91298 5.65901
4.48313 -4.27422 5.37132
2.91873 2.82396 5.89074
-2.7247 1.38485 -19.0047
-8.07117 -9.88628 -2.08601
7.52284 -4.38162 10.1235
-6.05224 5.77478 10.0077
-5.14896 -0.871125 -17.0333
-2.75674 -1.12896 19.0034
5.99641 4.18221 4.39234
-8.20442 -6.49766 -6.17963
7.78083 8.00162 -0.33481
-5.20083 -0.140387 12.0094
8.79593 0.609663 17.2912
-0.392282 4.65127 -19.0045
5.13062 8.06711 -10.0018
-4.47848 3.35889 4.97058
11.8071 -8.21016 5.29027
4.80303 -0.77056 5.95757
-6.58157 1.94519 10.0027
0.00389021 -6.78818 17.0743
-8.20782 6.27525 4.64878
11.6495 -9.86618 -9.59358
3.64991 8.16449 5.70129
3.34903 1.031 -19.0019
6.75472 -9.88409 -3.70339
-0.0329001 6.77215 16.9163
-4.84331 -6.14161 10.0027
6.14237 -4.40305 4.23402
2.82903 6.78422 -18.8758
8.68196 1.28956 15.5972
-8.20455 6.17577 -7.88124
11.8063 -5.73384 5.1129
-0.943906 6.58106 10.1421
-8.07153 -3.59756 -4.96886
-8.05517 9.83601 9.59328
9.61911 10.0049 2.15961
11.8053 -7.95238 1.07832
-8.20748 8.37423 -4.22755
5.18729 6.13086 15.3185
9.82143 5.94346 0.854082
-5.91897 10.0077 -3.53037
-4.10591 -3.4962 -18.8252
-3.70287 -4.36242 -17.0877
9.70033 10.0039 -5.93302
8.00293 6.38613 -10.0018
-1.04109 9.88977 -5.48092
1.34884 4.84004 19.0058
7.92777 -6.40801 -10.0014
6.9631 4.7578 -17.2619
5.37214 -9.87245 -4.99598
5.79712 9.87904 -9.88821
-0.470403 -6.65079 -17.1246
3.68176 -2.28029 19.0028
-1.37115 -0.583817 -19.0035
-8.07036 -5.69011 -2.37255
8.26793 -3.04063 10.1235
-3.20418 0.873456 19.0047
-2.24873 5.71592 -13.4278
7.99486 -10.0035 5.32755
-8.1226 4.18378 4.5719
3.98836 2.10881 19.0029
5.03028 7.76252 -5.0437
6.24394 -5.60805 10.1235
11.8054 6.22256 -7.38188
-0.427638 -1.6718 19.0048
11.6158 1.25489 -9.91038
6.54335 4.95256 18.7542
-3.98405 3.9469 15.2891
0.737063 -4.7207 -19.0036
1.97862 2.95177 19.0021
-8.10003 1.05978 9.85578
-2.41742 5.29419 -18.8339
9.87113 -4.28463 -4.18729
0.71443 -9.79697 9.92617
5.80809 5.95216 -10.1108
-4.33926 -6.14981 -0.19188
7.69553 -3.77603 13.6616
-8.11555 5.75594 -2.44989
1.38595 -2.90069 19.0028
4.31045 -1.50072 -5.80928
3.7432 0.248453 -5.99934
-8.05077 9.87075 3.90852
6.82036 7.59341 3.26996
6.57868 9.89077 -3.93039
8.00466 -9.9056 -0.175069
11.8076 7.95977 -7.89351
11.7736 -3.41922 -9.77913
4.36313 4.53707 5.43181
2.76612 6.93381 -15.4162
2.50454 -6.96491 13.6041
-3.32479 -9.83367 9.89503
-2.51679 -5.50978 -13.6864
0.592469 0.147574 19.0023
-8.06271 9.89161 7.51972
-8.00596 5.00697 3.39205
-2.58442 5.45096 11.7388
-4.26949 -3.4992 -15.2388
2.99732 -8.05138 5.86952
11.6871 -2.43812 5.70798
-8.05816 6.64827 9.91549
-6.43962 1.00257 -5.91455
11.6859 -9.84928 -7.53253
-8.21417 -1.78088 -7.9498
8.73407 1.15826 -17.0868
-2.49242 5.52281 -11.6833
5.90858 -5.49072 18.8402
11.6187 -5.87148 9.87817
9.36878 5.25203 -2.90465
8.35861 10.0095 -7.79269
11.8031 3.91049 7.50168
4.08971 6.62958 17.1167
8.18329 3.19597 10.1235
-4.01743 -5.86453 -1.87135
-4.979 1.26523 18.882
-1.41069 -6.02116 -18.8712
-8.07945 6.047 -0.920005
8.43721 2.25434 13.9994
-2.39335 7.89324 10.0099
0.439443 -0.993561 -5.93762
-1.79888 6.01079 -15.3911
-6.22708 -5.64619 -10.0066
3.56619 6.80044 -17.1887
-4.35171 6.1029 0.791662
5.96381 -9.83043 9.93007
2.88769 2.86847 -19.003
7.7458 -5.96227 1.50724
1.88323 -2.60872 6.00639
-4.34588 -9.85562 0.515982
-3.7607 -4.24729 11.9068
4.55372 -6.43912 -15.4553
7.71122 -9.87008 1.70588
-5.0367 5.22356 -2.95621
9.77457 5.88842 -1.11233
2.54479 -0.814467 -19.0027
-2.85508 -5.43635 10.1289
-5.41469 -1.27608 -10.011
5.96622 -4.21627 -4.44797
-4.38389 -3.26797 -11.8147
11.6799 -9.85222 0.0814422
2.75387 6.93341 13.6018
-1.58567 6.13105 13.2286
11.5969 -8.31472 -9.90308
-4.51723 3.03761 17.0931
-1.56436 -8.36288 10.0056
1.61903 -7.28522 10.0371
-8.04448 -9.89609 0.094068
1.6842 8.31509 6.01403
-5.1852 -0.503693 -13.5263
3.40264 -9.91398 -5.98662
-1.63677 8.02441 4.92144
7.28767 -7.83002 2.40833
9.2245 10.0051 4.09414
7.56384 -9.8635 -2.05493
11.6459 5.96812 1.54231
-4.7598 0.453531 -5.99887
-2.26044 -5.72647 -17.1523
5.08653 5.94013 18.8574
-8.07061 -9.00526 -9.85949
8.63685 0.362173 18.9408
-0.828309 -6.48943 -13.7598
7.89288 -2.34351 5.53419
7.32519 4.6441 10.1235
-1.44787 -6.20506 13.6048
6.21967 -10.0051 6.5148
-6.1108 2.33541 5.52437
0.430929 -6.8704 -15.4801
-4.42866 10.008 -4.85638
-3.00281 8.28676 3.57714
5.47354 -5.97429 -17.1143
-8.11406 8.28521 9.85443
-2.21053 9.86964 -9.80875
4.10683 -6.61526 -13.6669
2.2085 -1.04178 19.0034
-0.731864 -6.53102 15.3276
-2.7787 6.53077 3.87368
-8.20716 2.2071 7.75602
-1.82993 6.18261 -10.0925
-8.20673 0.1996 -8.04136
5.38503 6.03051 -17.2593
7.33892 4.30512 17.0884
1.19886 -6.97604 15.2926
3.94054 -2.51129 5.6367
3.66038 -2.56001 -19.0029
-3.50614 -7.65657 2.79675
4.72769 6.4934 10.1235
7.20138 -4.49133 17.241
0.482644 -6.19965 -5.8662
5.6581 -5.85549 17.0732
2.1394 9.92846 9.79381
9.40254 5.40732 2.62025
9.56531 -9.96313 9.78372
7.95901 6.1316 -0.0502681
-0.618588 1.28294 -19.0047
4.93956 -9.87435 -9.85673
4.9183 2.74128 5.36762
-0.88922 -8.12392 5.38099
7.57108 10.0024 5.62944
-8.09082 -4.72061 -3.99258
0.882195 10.0096 7.94601
-8.06765 -7.02752 -9.87084
10.1879 2.57881 -5.4193
6.33418 -5.33403 13.6114
1.12741 -2.83801 -5.96663
7.89533 9.89099 -0.908162
8.33755 2.55529 17.1907
-3.17909 -7.33224 10.0025
11.6599 0.987888 -6.0574
11.7476 2.60049 -5.61553
-0.178828 6.73152 -16.4845
6.78559 -0.229724 19.0081
8.56983 1.80602 -11.7696
-2.55536 -5.27381 18.9092
-3.84411 4.40913 10.1052
11.6753 4.6338 9.84055
2.5093 -6.96522 -13.3838
8.74064 -1.0455 16.5655
-4.29721 2.87868 -18.9364
11.7529 -5.20415 -3.45287
8.7926 -0.378974 14.7585
-4.88014 2.11161 -15.4783
9.56728 0.745268 -5.96566
9.404 -10.0031 3.25772
-5.87351 -4.80433 3.602
-4.92952 -2.51799 5.44918
-1.54889 -5.93613 -4.98644
-4.11021 9.88594 -1.86876
1.67317 -6.99347 11.8381
-1.2674 8.14511 -10.0079
7.41633 3.87443 -18.88
0.0222986 6.83598 -10.1579
5.9141 -2.00965 19.0075
11.8103 -8.0814 7.77664
2.1994 8.43646 10.0009
-4.14595 10.0046 5.47035
11.8039 -3.63835 8.04149
-0.388108 -2.50139 -19.0035
5.06476 1.18479 -19.0045
1.04419 -8.09985 5.9706
3.22793 -6.86272 15.3331
2.14989 -10.0135 -7.99891
3.45267 6.65243 18.8395
-5.18224 0.672704 -11.8678
0.143394 -7.07655 10.0599
-1.13633 10.0085 -7.73844
9.79186 -10.0099 7.44097
6.61171 10.0098 -8.22536
4.71358 6.36471 13.5676
11.8039 -5.67867 -5.73831
6.62723 -9.84229 -9.85544
6.32186 10.005 7.32932
-8.05422 9.89936 -5.01646
11.6701 8.17351 9.87216
8.61449 1.62737 -15.2903
1.73624 1.00415 -6.00338
11.5568 -9.77743 9.83487
-4.66688 2.19151 -5.58868
0.0393978 -2.07841 5.76131
-3.82998 -1.06598 -5.90522
11.7776 9.79689 8.33412
11.5571 9.79689 -9.88494
2.21797 9.9242 6.13437
7.89116 -3.92753 -4.54126
-3.71638 4.31204 -12.3118
4.86985 -3.0925 -5.26737
11.8055 -7.46705 -4.53861
7.66323 -8.00762 -1.26649
5.20693 3.24312 -19.0041
-1.04928 -6.21436 18.8906
-3.27637 4.945 -10.1463
0.900967 -6.94777 -13.7193
0.590197 -0.752455 -19.0034
8.76201 0.810421 -13.504
6.40895 -6.55001 3.8533
0.872459 -8.04018 -5.92626
-5.0413 -0.529037 18.8846
-5.04282 1.50319 -13.6374
-2.78321 10.0058 -6.30281
-1.77674 3.1434 -19.0037
6.28534 -8.30334 3.95221
11.754 6.35591 -9.75942
2.87849 -9.84365 -9.8849
-8.21078 -7.94815 -7.81279
-8.20932 -3.71663 -7.87839
0.446066 9.88766 9.87629
-4.25769 6.40038 9.99997
-3.8888 5.66804 2.50351
-5.97439 -7.88167 -10.0163
-4.61402 -2.36944 18.8986
8.67749 -5.14625 -3.07078
-3.68055 4.13975 18.8786
9.68424 5.17465 10.005
-2.62754 2.9044 5.24296
-6.54702 4.53131 -10.0135
-3.5829 -7.87473 -10.0095
6.06265 -7.88429 -10.0072
-8.13085 -2.14605 5.87081
8.5171 2.51022 -5.4516
11.8032 5.54955 6.19414
-6.41695 -3.49841 4.8723
3.92185 6.74348 -10.1463
11.807 6.09549 -5.21223
11.7088 2.77359 5.60715
-8.10573 -9.79697 7.84419
-5.44412 0.306339 -10.0082
-2.94279 -9.81531 -9.86352
6.13498 -5.30651 -18.7937
-1.42442 -6.42319 10.1579
11.6741 -6.17579 -0.0263498
7.89635 9.86207 0.894237
-2.18324 1.10649 5.90259
1.607 -2.7667 -19.0031
-4.08322 -7.99868 -1.04537
9.68136 -4.56296 10.0053
-1.13691 4.11346 5.23475
6.52018 5.16283 -11.8698
9.93737 -8.32995 10.0157
-4.90364 2.02559 15.4103
2.78364 -4.64731 -19.0032
-5.2352 -0.542474 10.1748
-6.09992 5.48173 2.44323
3.59605 -6.78863 -17.1126
-3.13762 -4.96683 13.5879
9.8323 -5.95932 0.744232
5.35161 9.80548 -4.97733
-1.70232 -0.679408 -5.97841
11.8082 7.96477 0.477716
-0.652153 2.36112 5.58143
7.25055 4.39172 -13.5849
1.94415 -7.01656 17.0978
7.277 -4.57194 -10.1093
2.58129 -4.37908 5.95112
11.6954 -4.9159 -9.8321
8.52382 -1.3063 18.8436
11.6717 -9.85738 6.2864
-6.56246 -10.0092 4.85176
-3.81941 7.7393 1.99665
-4.25856 8.23517 10.0141
6.28983 1.00828 5.92081
-8.0584 -9.9079 -4.21815
9.89955 -1.07693 -5.90454
4.14517 -4.86862 -5.52158
-8.03003 9.89472 -3.08122
11.8067 2.34214 -7.78077
-1.18486 -4.11209 -19.0071
-5.43411 8.27853 -10.0139
7.68006 5.88035 -1.8244
8.48224 -2.47256 -5.46871
6.38918 5.28841 13.5459
3.90243 -8.36033 -10.0048
-3.90877 -4.43653 10.0934
11.6133 8.10586 -9.91119
8.6972 -1.19911 12.714
11.8066 7.61111 -3.64964
8.01091 4.07909 -4.39875
-6.17681 10.0217 8.16904
-7.99699 -2.5938 9.96058
-0.459453 0.344489 5.99914
11.6032 9.90121 5.09107
-0.324504 6.67241 11.8544
2.95277 -0.933096 5.95806
-2.13787 -2.9913 19.0072
2.30076 -1.04827 -5.99951
2.04588 7.02374 17.1204
9.90799 -10.0101 5.32405
-2.5229 -2.44125 -19.0038
0.460729 9.85917 6.02329
-8.01106 -0.229323 -9.94489
-8.12849 -9.79697 4.01181
7.0859 5.3229 3.10197
-3.66403 9.8994 3.03588
9.62594 10.0052 6.04767
0.533209 -4.26182 5.87403
11.5969 9.8934 3.37285
11.6559 -3.96857 4.66636
-4.34065 -9.92334 -1.11566
8.50475 -1.40398 -18.945
11.8067 -1.95202 -7.92685
11.8078 8.17886 4.33053
-1.95107 -3.97186 -4.74266
7.97342 3.31661 15.5207
9.27282 8.15193 -10.0234
9.82694 -7.39853 -10.0086
9.6458 7.71016 10.0145
8.1185 -0.400739 5.99759
-4.02724 -4.29406 -10.1029
-0.305019 -6.47015 5.62257
8.2382 -3.20714 -10.1202
2.4517 -9.80144 9.90738
-4.36761 9.90453 -0.225889
1.17448 -9.78088 -9.91168
5.90457 4.13878 -4.44831
7.6679 3.81854 13.6436
-3.21968 -4.87754 -11.7582
6.9564 5.08586 -3.30076
-6.01302 10.007 6.32649
2.43723 0.918695 19.0017
1.5326 -7.00116 -11.7517
8.7835 -0.212614 -11.8386
5.45939 8.06385 4.75121
5.71388 -5.80532 -13.7566
-6.16492 10.0135 -1.53422
1.43412 1.0926 -19.0029
11.6557 -9.89235 8.1491
-6.07718 -10.0083 -2.87057
-5.14022 0.939415 17.0955
-6.46338 2.52753 -10.0115
1.78078 7.42862 -6.01441
1.04867 1.64195 5.96052
-2.96031 9.90316 9.76548
3.04421 -6.99668 10.1343
-4.67944 -2.66072 -5.38516
-8.10485 -0.908569 9.75265
4.83168 -7.90588 5.17442
-1.64876 6.1182 -17.3495
4.32648 -6.68268 -10.1175
-6.64057 5.39186 -2.61792
11.8028 -6.72645 6.50098
1.59429 -9.89638 -6.1636
-6.31664 5.96376 0.677174
-8.05091 -6.0365 1.24373
0.649347 6.90889 13.5017
9.69591 -5.8992 -1.08179
-1.14486 -5.04251 5.23902
2.46725 4.80338 5.96992
11.7329 -2.37061 9.806
-0.734078 6.53055 14.9551
-2.48273 -5.54288 15.341
7.06637 -9.94301 3.30786
-4.53112 -8.30214 10.0129
8.79949 -0.180396 -15.3289
-3.15184 -0.45434 5.99604
4.83627 -4.04732 -19.0068
8.30026 2.29024 -18.8077
11.6984 6.13918 -0.181143
4.05269 -8.36803 10.0075
-3.47975 -7.66029 -2.84108
-5.19993 1.0386 10.1684
8.26944 1.50232 5.80604
-8.12322 9.839 -6.92826
-3.97132 -9.8811 2.23088
8.75376 -1.48903 10.232
-3.13202 10.0136 -8.1528
0.209505 -9.88851 5.92043
8.19146 6.37097 10.0024
7.00946 -7.64923 -2.96857
-2.43337 5.76574 10.101
-2.65456 -2.41326 -5.49121
6.56813 6.68465 -3.65466
3.38528 2.07324 -5.76803
5.95568 -5.8186 -10.1074
-8.08133 2.77906 5.53672
-5.9997 10.0065 2.53293
-6.29278 -3.53561 -10.0102
6.96514 -5.26195 -3.24963
10.1384 -2.41874 10.0056
-0.0489799 -10.0098 7.95089
11.5969 -1.80515 -9.89171
-2.8708 -4.94543 -18.8381
2.18004 -9.86524 6.16809
10.2707 -5.35777 -2.66302
-4.14484 10.0069 7.82551
8.20672 3.21856 -10.1107
9.15616 -0.0417478 10.0272
11.8069 5.77995 8.10491
-6.29654 6.71294 -10.0128
9.61594 -5.16566 -10.0027
1.28314 6.97981 15.3156
8.77166 0.729799 13.308
0.57558 -7.15494 -10.0517
-5.07802 1.82163 -10.1827
-0.878157 -7.89388 -5.36711
1.61188 -7.01514 -17.0681
-5.06085 5.2239 -9.99862
3.06123 -2.99306 -5.86875
8.77817 0.330791 11.5905
7.91591 -0.74552 -5.96616
3.35211 8.29719 -5.78498
-4.11301 -7.98325 0.957309
10.0467 -3.09467 -10.0062
-4.18394 9.83689 1.45616
-2.57014 10.0045 6.82537
1.58732 7.00981 -17.0387
7.44875 9.93787 2.66542
-8.07481 2.97412 9.82628
-8.07999 -0.721306 -6.10706
-5.10308 -1.19255 17.0939
-6.00682 5.915 -1.02197
4.94354 6.24707 -11.91
0.278604 2.52576 -5.8025
4.80403 3.01092 -5.23949
8.26701 2.67199 -13.4375
1.10903 -0.585851 5.98984
5.91007 10.0046 -6.5814
11.8046 4.3244 -6.48493
3.70139 -6.74631 11.9393
-4.5649 -3.23969 10.1811
1.90539 7.08358 -10.1486
-4.66553 -2.71052 -17.0189
-4.76762 10.0064 -6.75651
-6.00015 -0.929925 -5.93066
-4.94151 1.91321 11.9529
-0.74416 -2.53169 -5.51649
1.32339 -5.01691 19.0043
6.7378 1.73572 -19.0115
2.31016 -7.18621 -10.0496
-0.543918 6.47886 -18.795
-1.16263 6.20876 18.8515
2.11488 9.88031 -6.07013
11.8055 -7.73993 -2.78437
-5.23116 -1.94008 10.0665
-1.51899 -6.16943 -15.4397
7.96365 -2.96298 -18.8799
-7.99699 -9.91026 -6.47231
2.12652 6.62826 6.01409
11.7116 -5.92537 -1.78163
3.37491 -6.83516 -11.7304
6.47767 -0.997501 5.93001
-4.76409 -0.689288 5.98007
5.13838 -5.97082 4.98832
-4.42701 3.47107 -10.1011
8.76851 -0.871652 -17.1441
8.06626 -8.10142 10.0081
