0.435912 0.370543 -0.448494
-0.805721 0.407811 0.759358
-0.773535 0.0516465 -0.468313
-0.00406174 0.45332 -0.669625
-0.900064 -0.27987 0.571092
-0.928401 -0.502365 0.301656
0.629546 -0.193019 0.0929358
-0.58937 0.430858 0.62364
0.800317 -0.389453 -0.792513
-0.209258 0.3111 -0.264352
-0.283399 -0.539385 -0.672214
-0.663489 0.649064 0.925536
-0.080874 -0.0560251 0.204433
0.737186 0.0156614 -0.101432
-0.170697 0.371686 -0.88091
0.704448 -0.260713 -0.0157808
-0.738962 -0.727594 0.17887
-0.753257 0.0399171 0.376909
-0.543064 -0.417976 -0.807988
-0.474345 -0.0575433 -0.985704
0.566082 -0.55463 -0.543083
-0.0563836 0.154046 0.806268
0.0476664 0.237918 0.0200269
-0.397884 -0.185244 0.37924
0.724181 -0.0403492 -0.0493461
0.618658 -0.34034 -0.920981
-0.765708 0.203427 0.713387
-0.206292 0.373594 -0.499834
-0.697048 0.076167 0.167572
0.509441 0.339022 -0.437544
0.882992 -0.189469 -0.857762
-0.723155 0.43813 0.600778
0.348655 -0.706144 -0.590265
0.0134369 -0.510079 0.0548386
-0.212576 -0.0655819 0.219606
0.103266 0.111982 -0.927429
-0.363911 -0.587235 -0.2335
0.0550134 0.487119 -0.466593
-0.395332 -0.077157 0.310047
0.671012 0.186102 -0.601433
0.0498481 -0.628576 -0.823826
-0.396529 -0.44709 -0.977983
-0.843358 0.021492 -0.0583257
-0.759018 0.234357 0.542005
-0.452817 0.108519 -0.834278
0.116987 0.180791 0.111545
-0.603874 0.74326 0.910987
-0.214743 -0.523287 -0.631316
-0.821201 0.065514 -0.105989
-0.52627 -0.434897 -0.976848
-0.328962 -0.106762 0.680515
-0.465499 -0.352238 0.565321
-0.892309 -0.434117 0.0506113
0.634848 0.206494 -0.665447
-0.0691849 0.297631 -0.102471
0.717617 0.161423 -0.27382
0.503163 -0.479663 0.00462134
-0.346508 0.245388 -0.358939
0.20965 -0.65709 -0.809978
-0.352659 0.135166 -0.79572
0.249295 -0.0638454 0.264144
-0.484769 -0.542149 0.197818
0.317732 -0.0736733 0.261838
-0.694129 0.323328 0.797638
0.178763 -0.0366477 -0.939103
-0.901295 -0.185284 -0.378308
0.347392 -0.722945 -0.339929
-0.13794 -0.246098 0.19354
0.542561 0.228099 -0.819844
-0.707567 -0.149504 0.610417
-0.0184307 -0.0946056 0.225366
0.0279015 0.0992143 0.677504
0.313459 0.104288 0.185838
-0.298882 -0.0991695 0.554806
-0.0053439 0.282951 0.822127
-0.226981 -0.360747 -0.980893
-0.587826 0.664137 0.742091
0.346843 0.385219 -0.733892
-0.859116 -0.56702 0.0210919
-0.145912 -0.0170087 0.18768
0.693555 0.135729 -0.147228
0.248962 0.358542 -0.173359
-0.049912 -0.371088 -0.935076
-0.143327 0.455467 -0.287472
0.209985 -0.702939 -0.192917
-0.297527 -0.0542551 0.508049
0.320796 0.393168 -0.658879
-0.66261 -0.584903 -0.329521
0.233622 0.432304 -0.544016
-0.115003 0.0519582 0.167823
-0.94744 -0.159907 0.0689106
0.564463 0.271778 -0.229538
-0.226632 -0.412921 0.122523
0.414818 -0.678566 -0.326224
-0.97502 -0.230152 0.270425
-0.68739 -0.527069 -0.430411
-0.689071 0.0217239 -0.548785
0.475498 -0.581609 -0.77352
-0.746926 0.190709 0.582737
-0.0626544 -0.60204 -0.620181
-0.804388 0.00544357 0.419967
0.365861 0.400175 -0.458768
-0.315124 0.183026 -0.538117
-0.845202 -0.490965 0.0173232
0.273218 -0.526279 -0.995739
0.370303 -0.295061 0.242383
-0.44391 0.163034 -0.520628
-0.942194 -0.278921 0.391173
-0.30256 -0.571323 -0.21128
-0.144212 -0.510669 -0.58702
-0.0697841 -0.66504 -0.489833
-0.430334 -0.0513439 0.37885
-0.0534642 0.485125 -0.537768
-0.0701024 0.00707744 0.642256
-0.918187 -0.268678 -0.297451
0.0252709 -0.68836 -0.655545
-0.544702 -0.589151 -0.150066
0.381909 -0.69807 -0.394069
-0.889394 -0.126596 0.0148187
-0.0135472 0.193474 0.852561
-0.0144717 -0.221 -0.9377
-0.816245 -0.668893 0.364267
-0.201955 -0.282429 0.198652
-0.241204 0.202869 -0.933343
-0.491372 0.214723 -0.429769
-0.470925 -0.404159 -0.626354
0.136899 0.42303 -0.70676
0.216868 -0.496798 0.117265
-0.0916428 -0.424051 0.112234
-0.322937 0.367819 -0.9377
-0.883248 -0.0667412 -0.346651
0.0948816 0.133124 0.154203
0.143626 0.302728 -0.131118
0.00226025 0.253676 -0.00910202
-0.665972 0.172651 -0.11831
-0.526388 -0.412477 0.583281
0.401277 -0.628337 -0.183818
0.278957 -0.233229 -0.99725
-0.241865 0.380512 -0.896302
0.228901 -0.596018 -0.865808
-0.406493 -0.11308 0.377016
0.162248 -0.749744 -0.395838
-0.960929 -0.372008 0.294037
0.0135019 0.201998 -0.930031
-0.864673 -0.662134 0.315274
-0.671179 -0.650637 0.398378
0.207354 0.413202 -0.199886
0.00800739 -0.697869 -0.20955
-0.741169 0.396765 0.534081
0.42897 0.167569 0.0958913
0.278759 -0.686753 -0.769427
-0.291008 -0.567687 -0.470906
-0.89737 -0.189765 0.00873959
-0.227626 0.0037788 -0.932366
0.00281866 0.391061 -0.801394
0.219875 -0.431785 -0.932208
0.064391 -0.656568 -0.164755
-0.506418 0.108566 -0.875768
-0.389909 0.261113 -0.184097
-0.84411 -0.161033 0.581007
-0.638205 0.0678104 0.417999
0.918603 -0.236942 -0.81506
-0.0381148 0.068272 -0.929588
-0.742426 -0.230283 0.613557
0.567967 0.302017 -0.442241
0.80988 -0.240542 -0.454633
-0.613388 0.00926079 -0.983069
0.550702 0.0956067 0.0776581
-0.86709 -0.0727772 0.0300443
0.646487 0.0957331 -0.855059
-0.892145 -0.358229 0.559129
0.725387 -0.313523 -0.0735478
-0.440059 -0.193544 -0.973036
-0.68503 0.0442448 -0.973034
-0.0652753 -0.704508 -0.879966
0.26327 -0.200853 0.270253
-0.227131 0.116485 0.132963
-0.681781 -0.0271716 0.623815
-0.356491 -0.568043 -0.494742
0.400611 0.290884 -0.114937
-0.615952 -0.534434 -0.470726
-0.0993738 0.489965 -0.480635
0.127705 -0.315315 -0.9377
-0.897113 -0.0210048 -0.172644
0.550007 0.149376 0.0187079
-0.605567 -0.116355 -0.645455
-0.697027 -0.535255 -0.0828622
0.805751 -0.338848 -0.845731
0.650793 0.10768 -0.763652
-0.263615 -0.25009 0.223577
-0.627654 0.553586 0.825843
-0.249392 0.148106 -0.642342
-0.444585 0.113027 -0.679621
0.789349 -0.307304 -0.460868
-0.940202 -0.374935 0.491559
0.0452086 0.322783 0.972659
-0.66777 0.00837032 -0.860732
0.986489 -0.221238 -0.600522
0.309556 -0.332661 0.241404
-0.452412 -0.229763 -0.711753
0.502976 -0.518252 -0.805232
-0.476732 -0.413153 0.547003
0.266555 0.423746 -0.60261
0.215702 -0.729834 -0.646253
0.100965 -0.183585 0.255097
-0.882072 -0.394968 -0.279321
0.468279 0.333121 -0.766185
-0.573438 0.0971993 -0.908582
0.576076 -0.507372 -0.745304
-0.4137 -0.00409265 0.487755
-0.0839052 0.458203 -0.590585
0.274334 0.201678 -0.988632
-0.176102 0.219749 -0.927872
0.0261077 0.0548814 -0.9289
0.52482 0.28961 -0.719514
-0.957534 -0.226302 0.0604573
0.137297 0.378031 -0.831924
0.427991 -0.56447 -0.900712
-0.570432 0.100946 -0.973418
-0.484364 -0.472181 0.326829
0.958809 -0.288102 -0.626717
-0.765395 0.37169 0.802531
0.693056 -0.37673 -0.0846337
-0.608558 0.000942758 -0.825751
-0.0750108 0.496136 -0.409883
-0.470646 -0.255175 -0.826914
-0.512218 -0.0850395 0.640568
-0.210177 0.415442 -0.42853
-0.172635 -0.338344 -0.941582
-0.316947 0.197271 -0.979182
0.481893 -0.00230577 0.1842
0.824009 -0.130855 -0.498663
-0.159052 0.392591 -0.241049
-0.449699 -0.428624 -0.696357
-0.303741 0.211346 -0.464676
-0.655277 -0.46365 -0.959201
0.75644 0.102746 -0.274728
-0.492575 -0.342383 -0.809428
-0.172977 -0.490547 0.0153371
-0.699765 0.245369 0.766617
-0.733864 0.345497 0.593205
0.144148 -0.736738 -0.538874
-0.747883 0.0400826 0.458411
-0.0778985 0.34788 -0.967832
-0.881991 -0.144119 0.528266
0.458592 0.359921 -0.38504
0.0500134 -0.290425 -0.937702
-0.645016 -0.601139 -0.264805
-0.803438 -0.688268 0.161676
-0.194249 -0.408491 -0.94035
-0.43227 0.189962 -0.461778
-0.807716 0.469006 0.790779
0.670043 -0.148927 0.0444703
0.839205 0.0904485 -0.718909
-0.792691 -0.729413 0.228085
0.162152 -0.462964 -0.935647
-0.517119 0.175055 -0.494186
-0.910929 -0.156436 -0.047399
-0.146574 0.196801 0.0498196
-0.709702 0.270857 0.496002
-0.157636 -0.384591 0.128041
-0.839493 -0.0915943 0.548065
-0.90919 -0.134169 -0.327483
0.144755 0.404199 -0.773126
-0.677942 0.103885 0.0420902
-0.726415 0.631104 0.863398
0.135025 0.458346 -0.249876
-0.0131861 -0.0837181 -0.93465
-0.108688 0.104609 0.841392
0.335505 0.35567 -0.814356
0.453228 0.0616283 0.165827
-0.578294 -0.630873 0.12509
-0.658408 0.119042 -0.494789
-0.662636 -0.571909 -0.138199
-0.384841 0.264077 -0.880352
-0.318759 -0.406411 0.12599
0.061771 -0.56812 -0.984255
0.30171 0.413268 -0.549852
-0.825741 0.0701543 -0.344349
0.41119 -0.238503 0.239183
0.41094 -0.642811 -0.669269
0.2052 -0.085409 -0.986463
-0.586915 0.365319 0.58687
-0.721565 -0.0364965 -0.889382
-0.122081 0.363198 -0.745705
-0.211264 0.220573 0.0094643
0.667057 -0.296644 0.0360194
0.150609 0.0401079 -0.929127
0.346171 -0.567522 -0.98361
-0.662556 -0.495445 0.561396
-0.60221 0.72203 0.708757
-0.524976 -0.130486 -0.73331
0.648585 0.251361 -0.353993
-0.594718 0.0391244 0.566917
-0.213102 -0.597887 -0.238209
-0.604157 0.456602 0.759837
0.279633 -0.743962 -0.350637
-0.54378 0.162852 0.0685592
0.428115 -0.16378 0.235081
-0.858287 -0.154693 -0.441063
0.859872 -0.336885 -0.794312
0.197789 -0.736415 -0.581799
0.0410524 0.173866 0.109825
0.808734 -0.206388 -0.382504
-0.783482 0.112714 -0.129249
-0.673886 -0.49675 -0.485968
0.801442 -0.275613 -0.389443
0.428157 -0.446561 0.116619
-0.775335 0.0238062 0.0683416
-0.217879 -0.596131 -0.834226
-0.111254 0.223661 -0.933665
-0.500785 0.129218 0.13253
-0.171194 0.439299 -0.488045
0.397966 -0.41089 0.173824
-0.924308 -0.0810367 -0.283319
0.469995 0.366053 -0.567833
-0.575083 0.377501 0.660716
-0.585691 -0.547657 0.397522
-0.64966 0.084306 0.104564
-0.815866 -0.13928 -0.499515
0.445805 0.33783 -0.260858
-0.127599 -0.137962 -0.937058
-0.901573 -0.261376 -0.370016
0.409653 -0.60545 -0.116975
-0.784644 -0.505091 -0.157175
0.480516 -0.522394 -0.94207
0.0390249 -0.0216506 -0.932672
0.156541 -0.700037 -0.705079
-0.913055 -0.401249 0.369117
0.435693 -0.270608 -0.9948
-0.934591 -0.155058 -0.113966
-0.827875 -0.208329 -0.494977
-0.369333 -0.378595 -0.984504
-0.139019 -0.531311 -0.957338
0.169016 -0.608055 -0.850892
0.533802 0.169429 -0.850213
-0.780437 0.0879321 -0.399359
-0.887821 -0.332326 -0.327165
0.53301 0.201303 -0.0459858
-0.650107 0.554586 0.572793
-0.540298 -0.577289 0.171378
-0.699575 0.592666 0.594032
-0.106547 -0.656493 -0.284816
-0.855936 -0.411035 -0.0740913
0.420324 0.121125 0.14296
-0.542985 -0.268238 0.607296
-0.50508 -0.180745 -0.791362
-0.739919 0.263979 0.61099
-0.749589 0.0560268 0.30421
-0.384382 0.171148 -0.565803
0.528364 -0.366536 0.138044
-0.472536 -0.280063 0.581733
0.120818 -0.750673 -0.470821
0.0572382 -0.750101 -0.337366
-0.669493 -0.521793 -0.0120916
-0.598455 -0.580797 -0.897318
-0.237447 0.344154 -0.44073
-0.494544 0.0992203 -0.602827
-0.107258 -0.600182 -0.218935
0.131208 0.480378 -0.386387
0.411538 -0.548045 -0.0595554
0.915469 -0.298887 -0.771017
-0.174567 -0.0176091 0.582083
-0.458299 -0.356566 0.491953
0.17497 0.144018 0.146028
-0.768839 0.053344 0.142357
0.635682 -0.458149 -0.749928
0.809 -0.0860158 -0.340903
0.61151 0.109365 -0.800052
0.623215 -0.50344 -0.689705
-0.204048 -0.665988 -0.891644
-0.807221 -0.365724 0.590248
-0.196798 0.291734 -0.636342
0.411122 -0.330374 -0.994519
-0.56975 -0.0823029 0.593675
-0.32126 0.151715 -0.606313
0.652329 -0.438377 -0.0951666
0.716883 -0.182624 -0.948185
0.220564 0.173498 -0.93644
-0.434904 0.208414 0.0255913
0.309218 0.247742 0.0350472
0.626192 0.255951 -0.428807
-0.447688 -0.484218 0.243218
0.0679085 -0.0900416 -0.935113
0.35865 0.0357782 -0.996461
-0.208247 -0.348875 0.167641
-0.630233 0.367995 0.528511
0.133677 -0.493517 0.117836
-0.0863614 -0.0703887 -0.933899
0.346988 0.282805 -0.976699
-0.803498 -0.626048 0.0270341
-0.959395 -0.162582 0.284913
-0.825368 0.0896801 -0.183414
0.757157 -0.376887 -0.455977
-0.752986 0.310861 0.53776
-0.952195 -0.581969 0.215863
-0.859686 -0.515705 0.488608
0.493375 0.352759 -0.504873
0.673689 -0.221104 0.0371989
-0.0255095 0.234073 0.74924
-0.690695 -0.688952 0.332735
0.417345 0.311893 -0.195987
-0.354447 -0.564418 -0.846555
0.505154 -0.069921 0.18795
-0.112832 -0.527136 -0.699749
0.0146958 0.191616 0.788677
0.0823679 0.299986 0.89079
0.630165 0.161754 -0.726143
-0.027469 -0.168662 0.227541
-0.617986 -0.520538 -0.863775
0.341057 0.406923 -0.333785
0.903274 -0.344051 -0.639745
0.547529 0.0489782 -0.945347
0.0910345 -0.719518 -0.653615
0.730416 -0.259525 -0.927155
0.150266 -0.624919 -0.909274
0.656458 -0.0750648 0.0571735
-0.444898 -0.455081 -0.60793
0.637355 -0.371129 0.0273886
-0.497038 -0.548185 -0.804008
-0.898733 -0.0165373 -0.245765
-0.476619 -0.00276387 0.37071
0.752531 -0.286213 -0.133291
-0.616805 0.196437 -0.146699
-0.576128 0.0366759 0.496145
-0.775917 0.139382 0.604175
-0.17401 -0.592375 -0.98164
-0.442881 -0.304369 0.436461
-0.379913 0.224267 -0.0157342
-0.474196 -0.0360526 0.668351
0.759826 -0.0538627 -0.113233
-0.120676 0.0633869 0.905173
0.409922 0.0217305 0.208642
0.425686 0.387323 -0.514271
0.532662 0.23733 -0.10583
-0.309083 0.115523 0.697323
-0.501056 0.0691683 -0.804158
0.704279 -0.102214 -0.957174
-0.576387 -0.172401 -0.827086
0.609378 0.110655 0.0175708
-0.754556 -0.508173 -0.0897924
-0.499049 0.127823 -0.546221
0.683552 -0.0270507 0.00870127
0.803431 -0.232289 -0.320198
-0.496464 -0.245713 -0.983858
-0.066506 0.249294 0.819739
-0.0625955 0.385829 -0.778659
-0.606851 0.164756 0.660165
0.497876 0.153305 0.0684913
-0.248065 -0.50142 -0.00578623
-0.292957 0.0266445 -0.952562
-0.249125 -0.587085 -0.341768
-0.369135 -0.215899 0.306753
-0.773762 0.142501 -0.195241
0.274632 -0.421399 -0.935956
-0.945246 -0.279194 -0.215555
-0.732515 -0.64658 0.429389
-0.883764 -0.0237115 -0.0972477
-0.191006 -0.531974 -0.0495031
-0.214863 0.199206 -0.76345
-0.748847 0.0697277 0.0236805
0.769983 -0.341904 -0.519094
-0.643993 0.30002 0.500363
-0.628193 0.0642896 -0.880784
-0.534708 -0.510996 0.497379
-0.139032 0.233858 0.00619824
0.544226 -0.0252837 0.148259
0.820143 -0.0675093 -0.511079
0.149906 -0.735539 -0.238615
-0.836865 -0.577014 0.452191
0.177882 0.275595 -0.989271
0.0820725 0.189598 -0.929766
0.207979 -0.705091 -0.759042
-0.617213 -0.148467 0.605167
-0.914434 -0.507013 0.0438643
0.31611 0.359233 -0.195983
0.891475 -0.0834319 -0.512477
-0.577257 -0.620832 -0.267961
-0.138068 0.20778 0.821419
0.0257802 0.1031 0.148909
-0.339804 0.0220982 0.791004
0.387324 -0.0983606 0.247956
-0.467804 -0.357258 -0.727195
-0.449413 -0.510763 0.013878
0.583335 -0.240938 0.134647
0.700143 -0.101554 -0.00241182
0.235958 -0.747031 -0.406305
-0.120491 0.348715 -0.818026
-0.753197 0.527948 0.883717
0.27581 -0.556958 -0.0814114
0.453375 -0.679068 -0.402685
0.273504 0.379225 -0.783614
-0.274471 -0.376469 0.163282
-0.561272 -0.351511 -0.847899
-0.835188 -0.406177 -0.397933
-0.893302 -0.0161386 -0.311203
-0.245575 -0.527398 -0.806412
0.269095 -0.662174 -0.168847
-0.347951 0.256684 -0.134019
0.76769 -0.000232216 -0.16645
-0.793644 -0.541412 0.511634
0.238586 -0.333941 0.243763
-0.342837 0.211768 -0.817234
-0.218239 0.177771 0.0790202
-0.634213 0.739876 0.806098
0.556648 -0.482639 -0.0288398
-0.272607 0.20383 0.0495627
-0.455501 -0.473197 -0.9767
-0.0478184 0.277192 -0.0338447
0.559761 0.255316 -0.760738
-0.228452 0.375745 -0.367235
0.69168 -0.459972 -0.207342
0.11542 -0.633651 -0.974764
0.526773 -0.580196 -0.589406
-0.670933 0.2022 -0.298199
-0.422462 -0.324736 0.363843
0.175028 -0.317534 0.24787
-0.864516 -0.678702 0.197307
-0.417588 -0.534618 -0.508733
-0.257447 0.214189 -0.512766
0.336175 -0.627967 -0.165044
0.262439 0.446594 -0.424957
-0.600984 -0.604939 -0.338608
-0.406693 -0.602481 -0.173788
-0.732938 -0.252216 -0.583805
-0.160812 0.0280492 0.869618
0.538101 -0.439992 0.046311
-0.764686 -0.596 0.478407
0.069065 0.384038 -0.826064
0.0391752 0.337682 -0.922446
0.0979693 -0.75853 -0.396024
0.446682 0.207366 -0.92288
-0.777681 0.445875 0.827858
0.25316 0.261145 -0.0187508
0.781265 -0.25155 -0.193357
0.0500174 -0.496687 -0.932404
-0.534123 -0.14161 -0.674525
-0.611547 -0.0438962 -0.629878
-0.287191 0.159539 0.104488
-0.139716 -0.46148 -0.930003
-0.0748944 0.270872 -0.988576
-0.440564 -0.0962303 0.685553
-0.025068 -0.399361 0.154276
-0.645039 -0.46431 -0.895978
0.0102065 0.424368 -0.735803
0.804001 -0.0382231 -0.394695
-0.200187 0.0933694 0.587593
0.606209 0.0588929 0.0606075
-0.413902 0.0068742 -0.984348
-0.439266 -0.491589 0.160268
0.000833401 -0.545064 -0.00584549
-0.296362 0.0653257 0.819541
-0.415187 0.253797 -0.331749
-0.613922 -0.701744 0.128441
0.873812 -0.107421 -0.863042
-0.614428 0.0805831 0.158933
-0.661665 -0.158326 -0.631468
0.43022 0.0602826 -0.986148
0.260171 0.0921 -0.935685
0.369907 -0.672063 -0.72017
0.578944 -0.56 -0.203069
-0.740982 0.170086 -0.324494
-0.738246 -0.602634 0.00804476
-0.0464793 -0.710749 -0.27103
-0.955741 -0.550098 0.0918867
0.280322 -0.706965 -0.223869
-0.578423 0.16 0.593035
0.798732 -0.131606 -0.226793
-0.768655 -0.18853 -0.547319
-0.92913 -0.0701503 0.151395
-0.614257 -0.568283 -0.960674
0.958897 -0.248894 -0.745336
-0.626853 -0.569265 -0.403824
-0.535429 0.046579 0.341153
0.597999 -0.483409 -0.0960385
-0.635884 0.205544 0.718489
-0.625487 0.177061 0.471785
-0.51421 -0.501402 -0.9767
-0.27851 0.150073 -0.928368
-0.014841 0.179242 0.675749
-0.672707 -0.700116 0.0660885
-0.664424 -0.34583 0.612369
-0.302963 0.0963279 -0.935888
0.796733 -0.0126553 -0.547037
-0.533435 -0.628578 -0.901344
-0.135848 0.114694 0.614695
0.655469 0.045819 0.0123761
0.13937 -0.746474 -0.31448
-0.373354 0.0676354 0.69151
-0.300436 0.231711 -0.00448907
0.00131874 0.493349 -0.4075
-0.951795 -0.288216 0.461474
0.706827 0.0699018 -0.878209
-0.467133 0.0262004 0.306059
-0.0989163 -0.315755 -0.937636
-0.428625 0.148572 0.13557
-0.403913 0.252102 -0.0859495
0.482409 0.082499 -0.939638
0.482046 0.347676 -0.699406
-0.864022 -0.640737 0.0564255
-0.260274 -0.584852 -0.268257
-0.500731 -0.602379 -0.84432
-0.644048 0.399841 0.795376
-0.0443798 0.0846507 0.162966
0.17408 0.328642 -0.86959
0.870302 0.0569346 -0.767193
-0.604443 0.0981477 0.617233
0.948826 -0.254998 -0.552975
0.337023 -0.1922 -0.991084
0.696605 0.0847256 -0.0934586
0.619921 -0.380642 -0.863615
-0.600021 -0.580985 0.309758
-0.404272 -0.0665153 -0.988151
-0.547902 -0.294941 -0.981502
-0.62099 -0.483985 -0.526259
0.312598 -0.142137 0.268708
-0.680553 0.152672 -0.0640207
-0.597612 0.112778 0.464516
-0.668941 -0.0115269 -0.595508
0.194403 0.428743 -0.667797
-0.214888 0.185155 -0.697087
0.30769 -0.472086 -0.988023
-0.827747 -0.478427 0.536867
-0.651938 -0.403567 -0.953229
-0.129339 -0.0309063 0.639162
0.685166 -0.392026 -0.756938
-0.6434 0.206195 -0.225412
-0.204211 0.265182 -0.981415
-0.00832971 -0.618268 -0.793444
-0.6994 0.348064 0.507051
0.458648 -0.616356 -0.217069
0.26162 0.342079 -0.843685
0.0303186 0.495721 -0.315731
0.197329 -0.147183 -0.985359
-0.206184 0.150785 -0.923925
-0.382542 -0.492121 0.0344777
-0.996594 -0.315055 0.177427
-0.387607 -0.610416 -0.286852
0.436392 -0.503768 0.00414161
0.109353 0.354862 0.827916
0.806064 -0.15359 -0.303346
-0.485343 -0.180543 -0.706222
-0.57632 -0.454907 -0.56808
-0.605585 -0.632552 0.259557
-0.224334 0.2529 -0.569861
0.524624 -0.604265 -0.221591
0.710103 0.10485 -0.812384
-0.00413943 -0.0256925 0.214637
-0.0109864 0.286034 0.947227
-0.271926 0.0783029 0.570775
0.523508 0.273842 -0.165179
-0.155778 0.170085 0.876227
-0.525546 -0.337677 0.596595
-0.250026 -0.0223778 0.688246
-0.839016 -0.0561253 0.429802
-0.927416 -0.337936 -0.169738
0.60499 -0.557638 -0.333232
0.812991 -0.16795 -0.443717
0.365896 -0.438446 -0.993745
-0.521637 0.249548 -0.170276
-0.692414 -0.605957 0.474088
0.655114 -0.153298 -0.977496
0.679307 0.149563 -0.667852
-0.120598 -0.523603 -0.019307
0.275474 -0.388079 0.210559
-0.685428 0.537099 0.867103
-0.924711 -0.0909632 0.277717
-0.40052 0.179224 0.0784304
-0.00972733 -0.511273 -0.930572
-0.196108 0.375197 -0.967332
0.113972 0.333618 -0.926531
0.279654 0.430982 -0.288586
-0.590215 -0.51681 0.536794
-0.55602 -0.568608 0.247236
0.281635 -0.00290924 0.248697
-0.657461 -0.690873 0.263114
0.207414 0.442525 -0.264794
-0.582983 0.748904 0.771534
-0.206743 0.022136 0.736921
0.382129 0.35631 -0.230924
-0.720064 0.188264 0.484393
-0.288088 -0.557971 -0.126405
-0.578952 0.182141 0.00125537
0.0441963 0.305777 -0.98274
-0.266703 -0.528923 -0.0662386
0.0797242 -0.649799 -0.89281
0.962227 -0.024149 -0.683243
-0.638805 0.0275865 0.621525
-0.593895 -0.186971 -0.658552
0.237848 0.241033 0.0621751
0.527705 0.324788 -0.365491
-0.867439 -0.677477 0.124702
0.511094 -0.388214 -0.962096
0.67565 -0.49896 -0.449116
0.663972 0.0456034 -0.923893
-0.150024 -0.492653 -0.658392
-0.859405 -0.109815 0.470308
0.0403355 0.274881 0.762511
0.495104 0.190089 0.00861364
0.877852 0.069974 -0.671163
-0.469456 -0.559282 -0.977917
-0.581473 0.694287 0.815579
0.351339 -0.576881 -0.920808
0.363522 0.413599 -0.52862
0.832132 -0.349288 -0.61399
-0.14134 -0.314899 0.160549
0.231968 0.11366 0.176733
0.688012 -0.475291 -0.515572
-0.577794 0.234953 0.572767
0.712582 0.124556 -0.612238
-0.628631 0.33799 0.763066
-0.613942 0.137276 0.054873
-0.790964 -0.516341 -0.287064
-0.0608122 -0.641114 -0.984361
0.782017 0.0227599 -0.37589
0.445547 0.290345 -0.827423
-0.690688 0.690723 0.890621
-0.530506 -0.413455 -0.604364
-0.671711 0.129821 0.451686
-0.129221 -0.703743 -0.887673
0.512108 0.317746 -0.586597
-0.137339 0.263423 -0.982671
0.0237657 0.480001 -0.539622
-0.711515 0.0768594 0.246277
-0.913742 -0.0438414 0.231805
-0.674902 -0.640824 0.0301667
-0.78127 0.00118669 0.500206
0.409895 0.386088 -0.588799
-0.313366 0.128709 -0.675738
0.116574 -0.114649 0.254876
-0.581674 0.0469266 0.4295
-0.401437 -0.177327 0.515027
-0.159107 0.0594469 0.797931
0.791441 -0.277376 -0.261014
-0.448248 -0.406276 0.35423
0.223363 -0.581076 -0.123332
-0.0175592 0.330884 -0.970447
0.283687 -0.726634 -0.288004
0.544141 -0.00951651 -0.980936
-0.720276 0.469193 0.851611
0.747824 -0.170509 -0.0835864
-0.0762255 -0.213108 0.210382
-0.839741 -0.458336 -0.29245
-0.65404 -0.23305 -0.634449
-0.823404 -0.279158 -0.480566
-0.681397 -0.730753 0.122232
-0.210334 -0.539443 -0.563251
-0.936905 -0.28054 -0.12572
-0.490556 -0.530289 0.120716
0.693964 -0.419472 -0.147762
0.0609545 -0.715787 -0.526207
-0.585117 0.170754 0.523404
-0.633869 0.0750179 -0.543422
0.810814 -0.0921802 -0.436157
-0.607343 -0.0746294 -0.982289
0.676577 -0.305063 -0.931103
0.687461 -0.335574 -0.0188382
0.606573 0.263919 -0.500419
-0.664692 -0.207577 0.614789
-0.48579 0.00715332 -0.984392
-0.465615 -0.0203574 0.44749
-0.491624 0.0638707 -0.734122
-0.57254 0.301398 0.628249
-0.433728 -0.242056 0.478466
-0.289857 0.119895 0.166749
-0.0342993 0.353029 -0.905477
0.677941 -0.446317 -0.69719
-0.594084 -0.419759 -0.976032
-0.155989 0.197198 0.749836
-0.638193 0.273443 0.749446
-0.119901 -0.391271 -0.934762
-0.85263 -0.414764 0.558885
-0.424575 0.227082 -0.395839
0.414497 -0.671977 -0.596867
-0.177505 0.265071 -0.0430446
-0.920384 -0.0885206 -0.14102
0.740478 0.0941871 -0.559547
-0.672688 -0.0849362 -0.612305
-0.0662415 0.0738496 0.610632
-0.250979 0.109865 0.834703
-0.159313 -0.655881 -0.836685
-0.71286 -0.444117 0.584575
0.0678046 0.00689372 0.224013
0.788003 -0.0714861 -0.185269
-0.0628174 0.0132858 0.191295
-0.572201 0.0745393 0.224333
0.485715 0.107306 0.116232
0.338166 0.0397626 0.222781
-0.886149 -0.403529 -0.146605
-0.730862 0.113327 0.475207
0.455683 0.222967 -0.0421822
-0.928926 -0.439624 0.320958
0.570456 0.274753 -0.57362
-0.286293 -0.577318 -0.400289
0.914525 -0.308892 -0.577957
-0.462894 -0.396037 -0.978
-0.569811 -0.529859 0.328945
0.645164 0.22561 -0.548218
-0.716218 0.513274 0.708733
0.995251 -0.16345 -0.652262
-0.727636 0.470322 0.5405
0.0864739 -0.528409 0.0519387
0.765596 -0.32028 -0.199208
0.803706 0.0872409 -0.79066
-0.180341 -0.555387 -0.374724
-0.935342 -0.347146 0.423964
-0.939437 -0.144526 -0.258116
-0.629653 -0.598927 0.444824
-0.778743 0.14546 -0.260413
-0.275257 0.273105 -0.340346
-0.711431 -0.724623 0.238401
-0.183476 0.00206548 0.672349
-0.208716 0.0335397 0.553908
-0.513303 0.10607 -0.982493
-0.450274 -0.502039 -0.552967
-0.896116 -0.0673427 0.335412
-0.675473 0.678834 0.827578
-0.730384 -0.372462 0.604611
-0.3976 -0.126769 -0.965218
-0.315296 -0.152325 -0.965108
0.283152 -0.596397 -0.138074
-0.990942 -0.247067 0.193969
-0.691105 0.177035 -0.18479
0.173563 0.358407 -0.158268
0.114609 -0.509227 -0.957005
-0.852298 -0.696153 0.258037
0.631211 -0.264266 0.0877842
0.574675 0.264008 -0.658004
-0.175987 0.455458 -0.370647
-0.0337176 -0.687561 -0.543755
-0.55541 -0.586686 -0.387061
-0.207632 -0.501471 -0.76351
0.175438 -0.454745 0.164908
-0.586606 -0.254948 -0.65167
-0.664171 0.0756104 0.297216
-0.696698 -0.441811 -0.516867
-0.396072 -0.507951 -0.59002
0.317787 0.325685 -0.88233
0.693355 -0.48477 -0.268918
0.0156189 0.342775 -0.859387
-0.354639 -0.0530287 0.254309
-0.422052 -0.0292592 0.720016
-0.460576 -0.29558 -0.766187
0.179321 -0.257573 -0.941993
0.608848 -0.279707 -0.96144
0.410507 -0.20666 -0.984251
-0.760294 0.139492 0.544702
0.312127 -0.721064 -0.409399
-0.236264 -0.0411429 0.548738
-0.360624 -0.0548795 0.469778
0.372463 -0.512304 -0.00660121
0.232001 -0.73659 -0.528656
0.0781441 0.429969 -0.197252
-0.646829 -0.557398 0.514349
0.478536 0.151273 -0.892398
-0.0432313 0.408634 -0.192731
0.331067 0.271094 -0.099807
0.438766 0.280489 -0.890815
-0.970472 -0.517986 0.157237
0.592935 -0.574386 -0.406561
-0.080295 0.102571 0.939129
0.307882 -0.0170309 -0.996081
-0.247576 0.246937 -0.0479942
0.274087 0.0387076 -0.985211
0.208608 -0.541029 0.0487701
0.218866 0.0301587 -0.937603
0.0822524 0.228003 0.779593
0.767001 0.0685828 -0.850478
0.979615 -0.238744 -0.675016
-0.480896 -0.350003 -0.652487
-0.168103 0.317314 -0.21138
0.55196 0.315119 -0.514976
0.150769 -0.525585 0.0660185
0.554128 -0.329568 -0.956347
0.501427 -0.423831 0.11114
0.262021 0.280674 -0.0838129
-0.521088 0.0517148 0.270066
-0.415662 -0.612309 -0.957835
-0.276639 0.0194364 0.52354
0.358121 -0.266125 -0.99276
-0.524908 -0.223908 -0.676928
0.177221 0.325557 -0.950712
-0.352132 -0.526418 -0.714966
-0.304655 -0.368692 -0.983842
0.721303 -0.442053 -0.327963
-0.277607 -0.555999 -0.605428
-0.529027 -0.292981 -0.661014
-0.200022 -0.476347 -0.961164
-0.426598 -0.583218 -0.846207
-0.0997632 0.16951 0.935737
0.15535 0.22646 0.0514267
-0.161512 -0.0315962 -0.931303
-0.4075 0.262013 -0.262234
0.63962 -0.0750435 -0.97685
-0.0858695 -0.666573 -0.816042
0.336081 -0.226248 0.262831
0.590797 -0.526104 -0.147841
0.698592 -0.469263 -0.393263
-0.666964 -0.577929 0.0156489
0.733562 0.0110823 -0.911157
0.355487 -0.37089 0.214362
-0.405656 0.22646 -0.981916
-0.865311 -0.611993 0.387812
0.0871973 0.0386009 -0.929997
0.0958623 -0.446294 -0.9313
-0.741664 -0.671817 0.0446031
-0.402466 -0.128094 0.445491
0.720774 0.16367 -0.390984
-0.980862 -0.202447 0.12911
0.079556 0.352987 0.942501
0.91816 -0.0684271 -0.816985
-0.746642 -0.00348641 -0.510257
-0.215261 -0.507241 -0.695991
0.368221 0.205681 0.0769963
-0.131971 -0.614286 -0.791024
-0.674052 -0.0554224 -0.834208
-0.63887 -0.177642 -0.97798
-0.439835 -0.226162 0.549054
-0.731952 -0.115795 -0.895483
-0.406051 -0.537437 -0.977999
-0.502684 -0.497876 0.0543267
-0.138177 0.366213 -0.961138
0.559312 -0.481711 -0.806717
0.432739 -0.483566 -0.991537
-0.324538 0.281252 -0.830267
-0.569501 -0.0492575 -0.793948
0.441125 0.133967 -0.959193
-0.745621 -0.716385 0.104057
-0.956245 -0.51096 0.230216
-0.332922 -0.11001 0.609342
0.841179 -0.375482 -0.667045
0.476603 -0.566205 -0.0953119
-0.803521 -0.712036 0.306896
0.705255 0.164895 -0.538043
-0.495137 -0.443999 0.404231
-0.913701 -0.581516 0.0522012
0.114066 0.304541 -0.980139
0.0976343 0.486405 -0.323972
-0.554837 -0.557425 0.101031
-0.0829378 0.181092 0.0780446
-0.541938 -0.560642 -0.976651
0.70731 -0.447204 -0.579524
0.434331 -0.0802087 -0.982624
-0.576092 -0.627574 0.196603
-0.277096 -0.523123 -0.737742
0.437607 0.203066 0.0333059
-0.720005 -0.563738 -0.285857
-0.144395 -0.171393 0.203918
-0.508083 0.202013 0.0164216
0.486941 -0.0509151 -0.9974
-0.763812 0.0743105 0.628836
0.467506 0.348235 -0.325067
0.212472 -0.212352 -0.987518
0.203628 0.218521 -0.985851
-0.135853 -0.197421 -0.940883
-0.68564 0.188565 -0.369743
-0.741231 -0.724083 0.295477
-0.659102 0.699895 0.687302
0.39177 0.376437 -0.661305
-0.825029 -0.0472634 0.494348
0.378059 -0.384002 -0.991903
0.323905 -0.395094 -0.948917
0.223242 0.450124 -0.340794
-0.286871 0.173735 -0.790017
0.301944 0.20563 0.0972526
-0.235268 0.041366 0.855485
-0.922222 -0.628047 0.100772
-0.0959035 0.223119 0.76664
0.149299 0.179752 -0.929508
-0.111026 0.485592 -0.350349
-0.981568 -0.378019 0.223229
0.0514966 0.32546 0.824051
0.191896 0.259436 0.00575402
-0.595958 -0.32489 0.611227
-0.227112 -0.460324 0.0495741
-0.239887 0.32527 -0.987017
-0.841466 -0.404368 0.0108972
-0.0872547 -0.360353 0.154165
0.295751 0.309497 -0.956279
-0.812573 -0.486573 -0.223091
0.585628 0.277282 -0.374999
0.530731 -0.495219 -0.87643
0.0394704 0.259296 0.931774
-0.0716557 -0.629081 -0.551161
-0.981413 -0.375271 0.151311
-0.0267479 -0.294524 -0.9377
-0.868713 -0.0176127 0.295849
-0.652151 0.47489 0.819462
-0.016063 -0.669088 -0.835137
-0.36483 -0.334956 0.251215
0.682841 0.0970819 -0.72263
0.684631 -0.0237636 -0.952555
0.0324055 0.222175 0.708336
0.797523 -0.00105931 -0.88504
-0.578421 -0.207555 0.610447
-0.153284 -0.267827 -0.944503
-0.748454 -0.688119 0.369178
-0.433553 0.137899 -0.910322
0.0673179 -0.557105 -0.00811068
-0.0811408 -0.501625 -0.929465
0.863271 -0.0212953 -0.542085
-0.856904 -0.0371622 -0.408251
0.991967 -0.151453 -0.580822
-0.754837 0.395875 0.704348
-0.396486 0.129234 -0.836838
-0.171501 0.102753 -0.927374
-0.315252 -0.531976 -0.791029
0.481208 -0.229895 -0.989721
0.614309 0.00857211 -0.959518
0.23421 0.309221 -0.975034
0.733775 -0.411854 -0.518512
0.00665159 -0.719585 -0.508753
0.270802 -0.522854 0.0675843
0.681097 -0.500975 -0.335678
-0.388143 -0.140094 0.646212
-0.94326 -0.407559 0.0982406
0.295421 0.43753 -0.483044
-0.316949 -0.573571 -0.295212
0.472475 -0.600906 -0.15389
-0.279543 -0.00815721 0.813813
0.194111 -0.57665 -0.0574882
-0.821844 0.0875497 -0.259052
-0.905184 -0.382281 -0.213231
-0.695549 -0.578231 -0.212618
-0.509907 0.13337 -0.939812
-0.699402 -0.182899 -0.957834
-0.108865 -0.594725 -0.981722
0.468281 -0.152831 -0.980044
0.754989 -0.355721 -0.644604
-0.577114 0.114404 0.1104
-0.915341 -0.549134 0.354758
-0.561458 0.0842615 -0.562738
-0.148548 -0.59005 -0.264399
0.656646 0.100466 -0.0352992
-0.447774 0.261933 -0.144282
-0.46102 -0.552474 -0.0490619
0.291888 -0.585175 -0.974566
-0.585426 -0.143849 -0.981906
0.00567746 -0.66941 -0.974311
0.232458 -0.483917 -0.971372
-0.887946 -0.0935203 0.400892
-0.603148 0.520137 0.77331
-0.206261 0.332955 -0.570834
-0.237535 0.314415 -0.323922
0.0568716 -0.0634157 0.238485
0.354832 0.306896 -0.1686
-0.604166 -0.284577 -0.965735
-0.343779 0.00849638 0.49937
0.0110281 0.0430971 0.191059
0.837578 0.0352961 -0.832047
-0.346897 -0.547298 -0.558825
-0.00912309 -0.753807 -0.335761
-0.549141 -0.347514 -0.62865
0.387973 0.321293 -0.851728
0.802967 -0.266108 -0.532659
0.137714 0.0337802 0.228648
-0.745443 0.573292 0.827676
-0.27322 0.129679 0.767751
0.0779828 0.418077 -0.75784
-0.346057 -0.112629 0.263118
-0.622515 -0.265597 0.614723
0.539404 -0.515099 -0.0898219
-0.286806 -0.0619235 0.650285
-0.102068 0.110487 0.764087
0.528375 -0.555112 -0.732029
0.341545 0.399527 -0.258726
-0.591509 0.304301 0.549036
0.649668 -0.531815 -0.385576
-0.0486693 0.317203 -0.16074
-0.465665 -0.127653 -0.982518
-0.961598 -0.588222 0.150082
-0.328905 0.017335 0.233524
0.695402 0.0289795 -0.0433775
-0.164865 -0.439975 0.0808405
-0.00817633 0.202383 0.921789
0.363105 -0.0524995 -0.986477
-0.735228 -0.468115 -0.465976
-0.482151 -0.320432 -0.983563
0.657631 0.200794 -0.484811
0.293625 -0.722446 -0.64812
-0.210268 -0.136918 0.224497
-0.351868 -0.588682 -0.95742
0.921487 -0.146842 -0.82499
-0.310108 -0.235103 -0.965335
0.202172 -0.0110374 0.249497
-0.657637 0.718556 0.942488
0.27769 -0.644602 -0.829635
0.192907 0.462182 -0.405145
-0.176295 0.360811 -0.634388
-0.35223 -0.297565 -0.97185
-0.529121 0.255948 -0.246528
-0.801982 -0.669535 0.0899739
-0.491821 -0.621896 -0.959533
0.332239 -0.119158 -0.990227
-0.60497 0.0630423 0.359018
-0.902206 -0.636253 0.25008
-0.231532 -0.561515 -0.419829
-0.75945 -0.523126 -0.341826
-0.257324 -0.0936222 0.614435
-0.156978 0.101261 0.141648
-0.898442 -0.0913415 -0.0645742
-0.220215 0.219578 -0.634999
-0.775148 -0.486415 -0.0231367
-0.78175 -0.432012 0.577634
0.236796 0.179014 0.119455
-0.566059 -0.512352 0.0460684
0.721455 0.113506 -0.210004
0.67387 0.169928 -0.213281
-0.607462 -0.453569 -0.831913
-0.810885 -0.0147828 -0.467189
0.397893 -0.481425 0.0610233
0.0654762 -0.661917 -0.776955
-0.0857309 -0.131372 0.212066
-0.0585498 -0.154737 -0.936454
-0.791017 0.121294 -0.325137
-0.698194 0.571887 0.665507
0.945577 -0.0423166 -0.750678
-0.479153 -0.596587 -0.181787
0.569665 -0.385379 0.0821444
-0.0545434 0.225077 0.95265
0.324681 0.258659 -0.0344351
-0.125041 0.157673 -0.925473
-0.888927 -0.15846 0.446981
-0.145323 -0.610087 -0.339168
-0.337746 0.267452 -0.984392
-0.427246 0.0223869 0.675835
-0.915871 -0.203662 -0.312312
-0.0571697 -0.559813 -0.962101
-0.32608 0.245871 -0.0683632
-0.986579 -0.307929 0.252685
0.461504 0.353215 -0.637382
0.185833 0.106794 -0.926164
-0.744712 0.121144 -0.0750383
-0.0594566 0.146785 0.886682
-0.514403 -0.471992 0.545761
0.0772792 0.312358 -0.134205
0.83816 -0.227316 -0.883482
-0.596771 0.220347 -0.275249
-0.582359 0.139123 -0.522998
-0.197575 -0.00768348 0.824556
0.400091 -0.601171 -0.79487
0.135719 -0.691165 -0.17796
0.0941744 0.369781 -0.159305
-0.891371 -0.0128373 0.166587
-0.270045 -0.316378 0.197824
-0.269107 0.253942 -0.982411
0.742094 -0.330071 -0.891238
-0.359406 0.319802 -0.899244
-0.160538 -0.0922472 -0.934749
-0.421086 -0.267549 -0.974839
-0.340399 -0.0987768 -0.987162
-0.240203 0.0769922 -0.926035
-0.540506 0.013448 -0.783536
0.657579 -0.389393 -0.810232
-0.470535 -0.142652 0.637318
0.9022 -0.00023546 -0.796274
-0.564252 -0.614133 -0.953933
0.437446 -0.548169 -0.828244
0.468971 0.255429 -0.0944527
-0.859125 0.0370746 -0.289078
-0.644499 0.604031 0.874982
0.204762 0.0546205 0.21965
-0.387495 0.0601585 0.222932
-0.449076 -0.373115 0.414261
0.0892224 -0.687316 -0.7155
0.953922 -0.188191 -0.780811
-0.0743341 0.47742 -0.287349
-0.870408 0.0413534 -0.217301
0.571174 0.28798 -0.308951
-0.896404 -0.435247 0.509152
-0.598836 0.607899 0.690428
-0.711826 0.5077 0.629617
-0.618976 -0.588868 -0.189785
0.340533 -0.618724 -0.834775
-0.258577 0.307368 -0.810866
-0.619255 -0.656637 0.0697107
0.701817 0.155968 -0.454982
0.625185 -0.519655 -0.519418
-0.383189 -0.594089 -0.897478
0.288055 0.29741 -0.148968
-0.486852 -0.612053 -0.366708
-0.421401 -0.433588 0.286298
-0.659274 -0.727764 0.185445
-0.765753 -0.301231 0.609329
-0.761091 0.0774514 0.531432
-0.643997 0.621219 0.607546
-0.739842 -0.0663167 -0.96112
0.865225 -0.279411 -0.841755
-0.0194397 0.0474889 0.656738
-0.0268617 -0.717551 -0.454032
-0.376786 -0.389719 0.14755
-0.0960804 0.439675 -0.228707
-0.376353 -0.597051 -0.349274
-0.144182 0.117292 0.914166
-0.751284 0.461193 0.743976
0.617199 0.245997 -0.608693
-0.39971 -0.53713 -0.0269468
0.589876 -0.57109 -0.264707
0.602147 -0.53607 -0.604462
-0.614317 -0.227324 -0.88708
0.472651 -0.623112 -0.27952
-0.575564 -0.546166 -0.0338172
0.461591 0.295425 -0.147325
-0.272602 0.268506 -0.123002
-0.00650724 0.210079 0.995565
-0.24735 -0.250308 -0.985059
-0.860372 -0.435715 -0.220042
-0.0132275 0.474412 -0.601229
0.762785 -0.213961 -0.132725
0.639504 -0.521504 -0.21911
0.357876 -0.702198 -0.276598
-0.188989 0.287702 -0.152818
0.575205 -0.441775 -0.867033
-0.126092 0.455002 -0.539768
0.78991 -0.30873 -0.325972
0.110408 -0.243169 -0.938993
-0.571736 -0.281466 -0.902692
0.128569 0.22812 -0.98316
-0.242297 0.124465 -0.704099
-0.188812 0.424038 -0.318079
0.414065 -0.553265 -0.971832
-0.768723 0.0594556 0.218227
-0.348992 -0.579479 -0.154054
0.0135342 -0.587132 -0.146728
0.474864 -0.200358 0.211729
0.344466 -0.670759 -0.213453
0.977012 -0.0846871 -0.574768
0.0656027 0.487505 -0.393259
0.333988 -0.506745 0.062893
0.664533 -0.232296 -0.959615
-0.200525 0.267385 -0.774747
-0.729394 -0.0536218 -0.562951
-0.343999 -0.0170781 -0.986272
-0.786625 -0.432653 -0.431741
-0.711763 0.111733 -0.0161243
-0.0534098 -0.585613 -0.110629
-0.717618 0.0624103 0.0907619
-0.976627 -0.174979 0.204233
-0.277988 -0.547374 -0.853542
-0.785147 0.211776 0.63919
-0.350516 0.158063 0.127302
-0.626178 0.199515 -0.415129
-0.603629 -0.591154 0.056718
-0.649281 -0.237217 -0.957095
0.155224 -0.186866 -0.943014
0.797081 -0.0162118 -0.465263
-0.858574 -0.227475 -0.427977
-0.061734 0.414485 -0.716746
-0.402443 -0.00661903 0.257115
0.765346 -0.34941 -0.263105
-0.490273 0.245123 -0.0989142
-0.669529 0.67039 0.759964
-0.549887 -0.0755323 -0.665774
-0.152342 0.168527 0.676796
0.029685 -0.701699 -0.593107
-0.0914778 -0.67837 -0.432372
-0.912261 -0.171016 0.386215
0.0901766 0.4669 -0.523706
-0.484932 -0.47946 -0.787215
-0.197113 -0.144581 -0.970218
0.744866 -0.41211 -0.39177
-0.362669 0.223234 -0.42473
0.299029 -0.585093 -0.877446
-0.699618 0.0618126 0.422879
0.577761 0.020206 0.105109
0.403644 0.183362 -0.984228
-0.742147 -0.136275 -0.950881
-0.398203 -0.434578 0.107425
-0.653135 0.0817646 0.664589
-0.866659 0.00622324 0.233047
-0.266384 -0.115611 -0.988612
0.979598 -0.177554 -0.717588
0.332709 0.156327 -0.9914
-0.251454 -0.424666 -0.981216
0.0607019 0.238743 -0.983883
-0.00601484 0.112442 0.637057
-0.770712 0.0277217 0.566662
-0.200669 0.10325 0.879582
-0.10729 0.273683 -0.0375014
-0.403993 0.27824 -0.963734
0.951531 -0.117395 -0.525135
-0.455169 0.0659112 -0.985213
-0.267877 -0.492327 -0.983136
-0.751242 -0.495527 -0.40375
-0.720779 0.674116 0.93789
0.598726 0.0724616 -0.90398
-0.694603 -0.283439 0.616488
-0.930301 -0.416841 0.433522
-0.476122 -0.411948 -0.772698
0.271954 -0.728935 -0.587396
-0.367982 -0.288391 0.294834
0.77157 -0.124534 -0.135367
-0.104293 0.371285 -0.194427
0.116385 -0.352799 0.226437
0.842086 -0.379164 -0.739928
0.11262 -0.0326529 -0.932757
-0.451964 0.0344693 0.238444
-0.860929 -0.340457 -0.385884
0.269366 0.0595552 0.217948
-0.593427 0.393988 0.729442
0.138935 -0.674018 -0.780024
-0.573554 -0.220867 -0.982076
-0.28027 -0.560063 -0.537928
0.585377 0.176604 -0.786499
-0.43819 0.136765 -0.598213
-0.375908 0.117967 0.177762
-0.619673 -0.343605 -0.9706
-0.555686 -0.564992 -0.45859
-0.809271 -0.440587 -0.0133281
-0.198953 -0.0649983 0.633707
0.650862 -0.398029 -0.0330496
0.0158949 -0.354836 -0.935873
-0.417377 0.210685 -0.922483
0.186829 -0.531491 -0.988718
0.357005 -0.680873 -0.653434
-0.785826 -0.065457 -0.504564
-0.904331 -0.480438 0.453857
0.269266 -0.349578 -0.937887
0.482586 -0.533929 -0.871129
-0.324793 -0.52627 -0.0108151
0.478263 -0.631263 -0.573681
-0.943825 -0.249686 0.522943
-0.563792 -0.0210422 0.5404
-0.348234 0.274409 -0.233691
-0.769824 0.629844 0.914897
0.892125 -0.152094 -0.501507
0.0569697 -0.4902 0.107733
0.0188523 -0.563844 -0.0738279
-0.761211 0.311218 0.776597
-0.779948 -0.33006 -0.508231
-0.296999 -0.562569 -0.911874
-0.590601 -0.546841 0.471981
0.588765 -0.134043 -0.994574
0.115844 0.453062 -0.576429
-0.554004 0.2287 -0.384744
0.874379 -0.264372 -0.527983
0.235795 -0.705083 -0.695513
-0.488958 -0.614718 -0.253872
-0.305798 0.276632 -0.187922
-0.483785 -0.00650973 0.527373
-0.252412 0.299427 -0.39254
-0.545437 0.0419577 -0.984437
-0.115763 -0.670263 -0.366042
-0.728741 -0.317623 -0.553801
-0.68162 -0.289712 -0.607452
-0.8398 -0.456546 -0.151675
0.00235831 -0.591232 -0.985082
-0.0279007 0.145469 0.113923
0.179537 -0.612957 -0.976904
-0.169723 0.317645 -0.790333
-0.0131839 -0.25937 0.22032
-0.58824 0.322893 0.701294
0.520803 0.0465347 0.135278
-0.86395 -0.038172 -0.0260911
0.129109 -0.63451 -0.142578
-0.514102 -0.176036 -0.985692
-0.534383 -0.00446252 0.470346
-0.74384 -0.0026468 0.616506
-0.515423 -0.530829 -0.00898558
0.511034 -0.646098 -0.397096
-0.161829 -0.546654 -0.445532
-0.91956 -0.0980038 0.0845518
0.10895 -0.292209 0.244695
-0.747357 0.521073 0.784139
0.239891 0.317124 -0.899841
-0.211254 -0.655787 -0.964867
0.810363 -0.139883 -0.376539
-0.964285 -0.442531 0.17419
-0.201332 0.139159 0.639095
-0.896698 -0.608093 0.325159
-0.613562 -0.311913 -0.625804
-0.0836711 0.191766 0.705081
0.20995 -0.746965 -0.334784
-0.707435 0.39981 0.824223
0.59674 -0.425472 0.0206613
-0.355817 0.0552856 -0.979093
0.720406 -0.382502 -0.700251
-0.374726 -0.523969 -0.78515
-0.460929 0.141013 -0.978299
0.621003 -0.123197 0.101575
-0.593171 0.255245 0.689764
-0.277113 -0.312435 -0.972229
-0.0547718 -0.60004 -0.181856
0.0797656 0.076878 0.196905
-0.854587 -0.292599 -0.421966
-0.149143 0.064647 0.73076
-0.104616 -0.56726 -0.562486
-0.0612655 0.0859267 0.701765
-0.138812 -0.661666 -0.981778
-0.396824 -0.258993 0.350696
0.743103 0.112632 -0.763043
-0.956646 -0.441943 0.251834
0.348449 -0.589703 -0.105126
0.713735 0.0792065 -0.681661
0.778547 -0.343071 -0.393178
-0.00418024 -0.64265 -0.178683
-0.68447 0.629393 0.709183
-0.7286 0.153878 -0.134967
-0.285754 -0.0455232 -0.97631
0.0128484 -0.676366 -0.897755
-0.946214 -0.213434 -0.237088
0.767043 0.0403492 -0.516191
-0.55936 0.20378 -0.446248
-0.345284 -0.507851 -0.979459
-0.748477 0.326145 0.659196
0.446184 -0.661822 -0.521362
-0.716862 0.532941 0.565323
-0.547431 -0.616887 -0.210948
-0.647728 -0.521025 -0.95134
-0.313374 0.343618 -0.983775
0.485307 -0.323655 -0.988511
-0.616319 0.217842 -0.347003
-0.14925 -0.0932705 0.201281
0.0261217 0.327073 0.893319
-0.281497 0.290315 -0.265766
-0.533972 0.209989 -0.0514602
-0.0773213 0.144688 0.645902
0.4817 0.0169272 -0.982121
0.521667 -0.618469 -0.520465
0.155141 -0.577733 -0.11637
-0.275189 -0.441477 0.0895426
-0.0192815 -0.335422 0.186362
0.336828 -0.539377 -0.0607045
-0.201957 0.366998 -0.289133
-0.155811 0.155181 0.10273
-0.176549 -0.560067 -0.779747
-0.300244 -0.484032 0.0365148
-0.375984 -0.0858918 0.722858
-0.212263 -0.53836 -0.981724
-0.213285 0.272786 -0.0946327
-0.0334253 0.500831 -0.342483
-0.545725 -0.055349 -0.73185
-0.79622 0.582143 0.883362
0.100083 -0.451483 0.157874
-0.371773 0.206444 -0.497441
0.916487 0.0254638 -0.645738
-0.458001 0.256076 -0.211451
0.0503727 -0.215818 -0.93905
-0.816431 -0.355235 -0.449383
0.532661 -0.289611 0.168758
-0.899175 -0.208487 0.563509
-0.151168 0.320832 -0.98885
0.192485 0.284741 -0.0662709
0.538546 -0.26365 -0.986302
0.303412 -0.541966 -0.000629504
-0.424004 -0.483864 -0.750444
0.11561 0.273093 0.00666407
0.128841 -0.0383772 0.247677
0.13259 0.470933 -0.459131
-0.62501 0.435728 0.563333
-0.807347 -0.461829 -0.0886251
-0.374141 0.125521 -0.718852
-0.203018 -0.211049 0.219687
-0.0208871 0.472042 -0.253236
-0.663778 -0.353152 -0.585236
0.576781 -0.0615527 -0.989637
0.540547 -0.614526 -0.295571
-0.824059 0.0234155 0.18016
-0.620265 0.673969 0.65654
-0.609625 0.170628 -0.475911
-0.424296 0.177241 -0.979532
0.0439965 -0.132797 0.242206
0.790007 -0.0150585 -0.236826
0.104579 0.266881 0.7344
-0.547892 -0.0311007 -0.984245
-0.0400383 0.150567 0.97263
0.275857 -0.080025 -0.99064
-0.749261 -0.496572 0.554384
0.0264429 -0.199702 0.239161
-0.371712 -0.206527 -0.96537
-0.604387 0.240313 0.508172
-0.700956 -0.550576 -0.368553
-0.2595 0.387457 -0.961912
0.165354 0.475427 -0.323288
0.77841 0.0477458 -0.443737
-0.563413 0.0609244 -0.842773
-0.467035 -0.291077 -0.692382
-0.521803 0.026018 0.406464
-0.336706 0.0918682 0.62674
0.714576 -0.421082 -0.640669
0.213254 0.457379 -0.477749
0.483751 -0.661357 -0.468887
0.214999 0.301752 -0.139425
-0.799245 0.341177 0.721428
-0.0110104 -0.458233 0.116816
0.18188 0.194399 0.0953355
0.712212 -0.179393 -0.0182707
-0.552109 -0.514953 -0.520677
0.0648966 -0.247065 0.243951
-0.222784 -0.0685049 -0.954223
-0.50473 -0.521979 0.276196
-0.0637255 -0.591043 -0.774181
-0.67657 -0.177396 -0.897653
-0.58039 0.10281 0.539402
-0.930025 -0.22139 -0.0744255
0.850036 -0.312546 -0.564836
-0.10311 0.367559 -0.8928
-0.147317 -0.531398 -0.513907
-0.456616 0.224465 -0.0399935
-0.965502 -0.339464 0.0949208
0.905482 0.0105323 -0.583736
0.789479 -0.393664 -0.708475
0.147267 -0.238778 0.258297
-0.00917619 0.250398 -0.984283
-0.729969 -0.528262 -0.0164547
0.125669 0.290179 -0.0630425
0.202064 -0.341238 -0.935757
-0.725456 0.451099 0.67763
0.289324 -0.473981 0.123356
-0.764909 0.141843 0.680259
-0.293607 -0.559767 -0.973258
0.981855 -0.102771 -0.707382
0.740004 -0.391275 -0.837646
0.25257 0.406243 -0.662197
-0.428959 -0.597047 -0.389987
0.0798421 -0.372538 -0.935744
0.0147687 -0.750915 -0.402684
-0.6109 -0.684038 0.200367
0.153919 -0.729225 -0.633495
0.0533259 -0.742932 -0.457388
-0.55782 -0.117183 -0.792783
0.100259 -0.722832 -0.583189
0.229719 -0.283665 -0.963903
-0.501231 0.0620678 0.200767
0.058026 0.46858 -0.256093
0.479708 0.228643 -0.85838
0.795972 -0.280546 -0.889227
0.208156 0.384646 -0.813003
-0.665114 0.493615 0.546951
0.610825 -0.454467 -0.0380067
0.44786 -0.401755 -0.991494
-0.609009 0.0275913 -0.597349
0.333998 -0.337866 -0.988647
0.596592 -0.208616 -0.984601
-0.239772 0.127552 -0.759317
-0.920904 -0.479051 0.383684
-0.112689 0.311417 -0.1711
-0.399894 0.106385 -0.984395
0.164182 0.449177 -0.529435
-0.865225 -0.405409 -0.342121
0.739534 -0.108935 -0.0619635
0.531973 -0.569048 -0.148801
-0.269916 -0.177717 0.238941
-0.699148 0.618533 0.792559
-0.493429 -0.582845 -0.431636
0.234735 -0.589469 -0.983492
0.313026 0.0921941 -0.98776
-0.342968 0.138999 -0.979419
0.0541784 0.460865 -0.609589
0.150492 -0.107406 -0.939611
-0.460798 0.00743715 0.607255
-0.383304 0.141772 -0.643259
-0.586372 -0.494994 -0.975405
0.523978 -0.587103 -0.658154
0.343325 -0.724228 -0.465444
0.287455 -0.300021 -0.987416
0.786453 0.0373376 -0.289996
-0.679929 0.421683 0.522845
-0.959003 -0.134318 0.135862
-0.772494 -0.116242 -0.546139
0.770233 0.0773189 -0.34604
-0.209036 -0.294378 -0.982644
0.214465 -0.732357 -0.261942
-0.428902 0.100057 -0.760065
0.9606 -0.184218 -0.531584
-0.59161 0.0712265 0.291518
-0.728619 0.38911 0.641874
-0.037006 0.270383 0.887568
-0.7657 0.260096 0.744774
-0.303522 0.123335 -0.754574
-0.782583 -0.0412819 0.566506
0.234446 -0.0221015 -0.988274
0.759313 -0.377817 -0.32938
-0.139853 0.292512 -0.0989407
-0.340244 0.0549892 0.555392
-0.638811 0.148062 -0.0118823
0.529469 0.312492 -0.655024
0.371153 -0.170088 0.25698
-0.192118 -0.217102 -0.981771
-0.108271 -0.544173 -0.758198
-0.416569 -0.250188 0.410752
0.957004 -0.11571 -0.771507
0.385969 0.11025 -0.991586
0.861554 -0.0314844 -0.855035
-0.162156 -0.700861 -0.947881
-0.213806 0.35193 -0.834335
-0.474302 0.254886 -0.290116
0.78546 -0.177192 -0.181436
0.0930831 -0.157529 -0.937688
-0.157452 -0.486602 -0.739387
0.547849 -0.619036 -0.443555
-0.171866 0.32517 -0.707555
-0.418059 -0.342718 -0.981076
0.619836 0.258511 -0.280538
-0.131742 -0.610937 -0.416289
-0.674788 -0.112648 -0.97876
-0.929594 -0.569996 0.27807
0.517767 -0.108666 -0.998847
-0.618082 -0.605939 0.377467
-0.256475 0.258413 -0.455783
-0.0640593 -0.727914 -0.391995
0.280811 0.403283 -0.722101
0.266307 -0.733123 -0.467479
