4.67461 5.35224 -5.29617
4.02923 6.53188 -19
-4.59009 2.06334 -5.65834
-4.63293 -9.99964 4.35276
1.22745 9.88759 -5.9716
5.61138 5.87262 -13.5858
11.7995 5.62773 -5.69595
-2.42603 5.58523 17.2634
6.79985 -9.99947 9.85972
-8.19954 -1.09724 8.05504
-6.32841 6.2162 -9.9994
-5.76213 8.17303 9.99945
2.65413 5.07445 5.93473
-4.1972 7.98558 0.218371
7.83472 3.54078 -11.78
11.7994 1.95761 -7.8189
-8.06579 -9.99942 -5.30882
-2.44946 6.28122 -4.25979
-5.01121 -1.67347 17.178
2.41496 -5.06874 19
11.7995 -6.34751 -4.36968
-6.37056 1.03574 -5.91266
5.68243 6.40861 -4.58242
1.50563 -9.79604 -9.99953
6.44476 9.90123 -3.79556
-8.19929 -6.65801 9.89231
5.06899 -9.89579 -5.02694
11.7996 6.10985 -0.606523
-8.19947 -3.45806 5.07745
1.89699 -6.82811 -6.01966
-0.494743 6.62666 -17.1345
-8.1995 7.903 1.92249
7.66183 4.15307 -10.0003
8.35198 -9.99934 -9.89334
7.16996 2.56597 5.42147
11.7995 6.32087 4.81469
1.70178 1.13567 19
-4.47954 -8.40402 9.99951
10.1275 5.9889 9.99943
7.23845 4.40451 18.8869
-2.37505 9.99929 4.5783
-4.02082 -8.01529 1.48608
4.62977 -6.40858 15.4039
8.46494 2.18869 15.4316
4.80797 -3.12326 5.20814
11.7995 -0.0135936 6.14567
5.71544 5.67151 -18.9998
3.71232 -6.73351 -10.1322
3.34631 -6.26109 5.82132
-8.1995 3.23504 -9.82622
7.73823 -3.70291 -17.0303
-8.19954 -7.87271 -2.24532
9.73852 -9.99957 -1.07832
2.20596 6.88413 18.9992
7.88518 3.23276 -19
-1.27554 8.26194 5.15445
6.50943 -5.17608 -17.0563
-6.35929 -7.73423 9.99938
0.632109 2.89362 19.0001
-8.1992 9.86544 -6.34154
11.7994 7.62235 -6.11324
2.73745 0.731282 -5.98095
1.27314 -7.99476 5.97482
-8.19961 -1.05886 -6.07782
11.6421 -9.82139 -9.99887
-3.68816 -7.99801 -9.9995
4.21001 -6.57639 -15.4265
11.7996 -1.32875 9.85034
-3.2116 7.89452 -3.28892
-8.19951 5.92606 -7.80601
-0.532231 -6.61111 -14.6086
9.83739 -2.15759 -5.60819
7.72498 5.79296 -1.62889
7.68224 5.74489 1.73402
11.7995 -7.85512 3.74862
11.5023 9.99956 9.83845
-4.25913 -9.99963 -0.999727
2.96271 6.90374 -11.8196
7.44805 -4.14587 13.5378
-6.49713 9.99953 -4.70091
4.38379 9.81685 -9.99945
-8.19954 -8.07885 5.64653
6.98023 5.01621 -3.30592
-4.18103 3.6429 12.2295
-4.92157 -1.57466 18.9993
4.964 6.24098 17.0709
-4.291 -9.99948 0.717387
-8.19955 -9.90667 2.56182
-6.43326 4.39155 4.09498
-8.19951 -2.7021 -7.85897
11.7995 6.8927 2.84764
-8.19994 6.05391 1.05564
-8.19956 -8.51844 3.72914
-3.61461 2.47399 5.47033
-2.41541 -5.59393 -15.44
11.7994 -6.08058 -0.866566
1.0266 -9.99948 9.8613
-1.02792 -6.40376 -18.848
8.5655 -1.33381 -18.9998
4.16416 -2.88926 -19.0001
-4.7176 -2.59006 15.3846
-2.27006 3.72543 4.70135
0.183149 -9.99955 -7.94391
4.0662 6.52906 18.9999
4.16607 6.59976 11.9034
9.93586 -3.78493 -4.66351
-8.19949 -5.75125 8.32371
11.7998 0.811193 -9.89882
-4.69885 2.62708 17.0702
-4.41988 -3.21592 18.8807
-6.49694 6.41822 9.99946
-4.18708 3.6368 18.8599
-6.06853 -9.99963 -2.24902
11.6438 -4.55156 -3.93043
9.52901 -5.61866 2.15895
-6.00398 4.3981 -9.99955
11.7995 0.0332232 -7.90295
-4.97754 1.786 11.9276
-1.8806 9.87425 -4.7368
-3.29696 -4.78932 18.8838
4.34001 7.98166 -5.44124
-0.513393 9.9993 -5.74961
9.99202 9.99954 -4.79615
-4.35156 6.16255 -9.99955
-1.814 7.97281 -4.78371
-4.81917 0.901091 5.9441
10.119 -2.91328 9.99958
0.952649 6.96883 -11.9124
6.32643 8.34446 3.96903
-3.8603 -9.99923 2.43121
0.486631 4.72049 5.87833
6.36978 -8.21022 3.91023
6.35387 -6.34693 3.93833
-8.0342 9.99967 -9.79145
2.03251 -7.02804 18.8575
1.87459 7.01238 -13.6121
8.24989 -9.99969 -4.69404
-4.34895 9.99949 -5.47272
11.7994 -7.90017 -8.13898
-6.30599 2.8058 -5.31088
7.07949 4.59379 -18.8813
8.45711 1.76954 -18.9995
-4.5022 4.2355 4.24799
-8.19948 -3.55341 -9.82313
11.7995 -2.81818 7.63564
8.79366 -0.129467 15.526
-0.780949 5.98836 -5.43037
-5.00931 1.6801 15.4371
8.92091 -9.99953 -6.55299
-8.19949 8.04495 5.95026
-8.19954 8.07649 -0.057497
-8.19952 7.95592 3.75905
11.66 2.48802 -9.99945
0.0823505 -0.681521 -19.0001
4.9884 -6.71334 5.07751
8.31972 -2.53848 13.4612
1.8013 9.99951 8.01242
-8.19943 8.27071 8.05499
-5.05258 -1.45624 13.6254
4.85493 8.21873 5.16613
1.44451 -6.98794 -15.4385
9.80875 -5.71198 -1.90053
1.53131 -6.99206 12.0187
8.06881 -3.11553 -18.8899
-3.99285 -5.91151 1.62617
5.98436 -5.61787 -15.2648
11.7997 6.07703 1.11499
-4.17425 -3.6617 17.0901
-3.43457 -5.38421 2.97907
9.36311 9.99964 2.78676
-1.31433 -6.28196 13.692
9.94421 3.85737 -4.62035
-8.1997 5.58092 2.6711
-6.2063 9.9996 0.25702
3.99233 1.45792 5.82032
-2.68775 2.38778 -18.9998
11.7995 -0.869534 7.97533
-1.17508 -9.99944 9.86797
0.0663975 -8.47547 9.99956
-1.54865 -8.15032 -9.9995
-0.11469 9.99961 -7.90259
0.817198 -4.43686 19
11.7995 -1.73621 -8.13666
0.738053 -4.26478 5.93466
10.2629 -0.843063 9.99965
-1.77911 -6.01561 18.879
2.22282 6.8791 -18.9996
-8.08267 9.9993 -0.920402
2.58386 -1.15087 -5.95865
-0.938333 -4.88165 5.35062
-3.80376 -9.99938 -2.63104
-4.16743 3.67082 -15.3119
0.661266 -6.92319 13.6967
8.98904 4.91192 -3.44938
-2.8341 -5.25416 17.1069
9.89133 5.62489 -2.09521
1.84222 9.99965 -7.94609
-4.84528 1.82399 18.9999
8.5188 2.04801 -15.3362
-2.64808 -5.2552 -18.9997
-8.06977 -4.76834 9.99955
4.57406 -0.684456 -5.99201
0.885649 9.88066 -9.99945
9.04128 0.794696 -10.0001
6.77326 -9.99964 3.58054
11.6889 -9.99939 -8.23004
-8.19955 -8.07784 -0.263129
-5.97079 5.43629 2.53588
-0.574564 -6.59262 -16.5409
11.7998 -4.46748 4.20925
0.288651 6.72163 18.9996
-3.70197 4.35205 16.9061
8.4646 2.50762 -9.99986
-8.04187 1.36273 -9.9996
6.84767 -9.99966 -6.01571
9.84308 6.00597 -0.290933
-6.03152 -2.54435 5.42669
-5.87879 -5.29198 2.85617
-1.47977 0.49364 -18.9999
-8.19948 -5.27286 -8.1594
7.44264 -4.15895 -15.3253
1.51297 -6.025 5.98948
-1.92369 -5.92577 -13.6027
11.7994 -8.07518 9.88495
-3.57465 -9.99963 6.12711
6.31386 -5.35714 16.6527
8.03665 -3.21645 -13.7008
11.6882 8.29353 9.99926
-2.19285 -5.99166 -10.0001
11.5604 -0.911205 -9.99949
11.6698 -1.63104 5.77475
-5.19162 -0.180063 -18.8862
5.33074 -5.97504 -4.84426
2.1386 1.62467 6.01786
8.37031 -9.99964 4.10987
5.0651 9.86982 -5.0256
11.7997 4.38169 4.32853
8.70364 -1.16531 -13.6812
-6.02407 -9.9996 1.83356
1.44993 5.1803 -5.98532
7.69609 -9.99947 7.98854
3.90459 6.62855 5.61562
-5.99747 5.86351 -1.29362
-1.55734 6.14487 18.889
-0.31991 -9.99875 -5.81483
7.78436 9.99946 1.39256
2.11548 -9.99942 -8.01665
11.6328 0.583371 9.99951
-1.59542 -9.99972 5.10273
11.7996 9.84612 -6.22773
5.7485 -3.48648 -18.9999
-2.343 5.65382 15.4274
2.28885 -9.99992 6.12062
-6.72168 -1.11176 -9.99974
11.7995 7.98776 -0.110668
8.6016 -1.01381 18.9998
11.7996 6.43628 9.86913
-0.760278 -6.51246 -12.2299
-1.11412 9.88876 -9.99929
1.19327 9.99951 9.93792
-5.20269 -0.312919 11.866
5.765 5.76289 18.8768
9.8065 2.07984 -5.64476
7.80489 -8.04904 0.42619
11.6691 0.618641 -5.96717
11.7995 -7.77416 1.81773
3.6904 9.9996 -8.21264
11.6487 -8.19208 -9.99964
11.7995 8.19672 -9.88052
4.55378 -6.44525 13.4685
5.90494 9.99957 -8.2974
3.82126 -4.47593 -5.66129
11.7997 -9.85449 2.80109
-4.9614 5.08169 -3.20312
-8.19954 9.78368 -4.55133
-2.03411 6.60877 4.6096
-4.777 -2.39362 11.8452
1.81855 -9.99962 7.98146
8.97705 -0.98124 -10
3.43556 4.79914 18.9999
0.586828 -1.88419 -5.89977
-8.19957 5.62332 -5.76833
-2.8034 5.27807 -11.8883
10.0413 -9.85918 -9.99946
-5.67873 2.92776 5.25733
11.7998 2.2439 -5.71897
-8.19949 9.8626 4.79499
-8.09561 -0.163007 5.99903
-6.38733 4.19419 -4.28962
11.7995 -5.57688 -2.56532
-4.12205 3.73834 -11.8633
7.94074 -9.99942 0.157417
-6.26039 -2.75829 -5.32843
-0.108841 8.36423 -9.99958
-8.07527 -9.99945 -1.32945
11.7995 -6.72387 -6.2912
1.58448 -4.93228 -19
-2.03533 -5.86106 -17.2857
2.51689 -0.238564 5.99853
-3.61751 4.4463 -17.0908
-0.421504 -6.59052 5.59459
1.73194 -1.11323 -19
-1.65899 -3.29927 5.02743
-6.66751 0.319979 9.99964
5.47996 -3.81041 -4.73346
-3.11346 9.99949 -3.71222
-5.98396 -7.8517 -9.99943
-2.98728 9.88011 -9.99925
7.89871 9.99953 -7.86167
7.09392 -4.57579 -18.8617
7.12107 9.99941 9.89456
6.11895 7.98295 9.99945
11.7994 5.90085 -7.81555
-4.74094 -6.24592 9.99965
-5.33624 -0.262783 -9.99961
-3.24982 -6.66592 -3.23927
-5.19718 -0.527847 15.4439
9.80197 9.99946 -6.73746
-2.26739 -5.71133 11.9254
7.85725 -3.39373 -4.94302
4.99471 -6.22692 -13.6058
9.37848 9.99935 9.89383
5.80795 6.43652 4.46636
-8.19952 0.274278 9.83165
3.8924 -6.56655 18.9998
5.78696 -1.38471 5.83354
-3.92924 -4.02209 -11.9053
-8.19952 -6.55643 6.74551
6.11977 -5.52259 14.1655
-4.62757 2.78267 -17.0966
-8.19954 -6.59188 -4.24233
-3.11956 4.99111 13.7297
-4.51887 -3.00721 -17.1235
-2.96285 4.92302 18.9997
6.05567 4.13097 -4.37662
8.7991 -0.212594 17.3162
10.1066 -9.99956 -3.18242
-6.4342 -5.43177 -2.53872
-1.38099 8.25841 9.99948
-1.38956 -1.57278 -19
4.07865 -9.99951 5.75094
-6.25806 -0.638921 5.98324
-6.25508 -5.31328 9.99946
10.0039 3.22112 -9.9996
8.03605 -2.91893 19
-8.19938 6.71699 -9.85575
-6.4165 -3.40954 -9.9997
-5.13967 0.981036 10.1234
6.4419 2.03461 -18.9999
-5.04948 -1.94834 -9.99996
-1.03183 6.40439 -11.8356
6.08578 -7.87246 9.99939
6.92743 6.73682 -3.13984
2.91068 8.26312 5.89577
-5.20195 0.521208 17.1586
10.0768 9.99948 8.06541
-4.86269 -9.99951 -9.88085
5.96007 4.25908 4.32263
11.6076 5.26916 2.897
-4.61453 2.81272 -13.5456
6.1597 -5.49198 -11.8645
11.7996 -9.7745 9.83058
7.85463 6.31363 -9.99959
-8.19937 -8.4091 -9.86773
4.14111 -2.48743 -5.5262
-3.93484 -9.9995 -7.95537
2.49258 9.99976 6.12379
7.99718 3.28058 13.6989
7.08926 -4.58179 18.8559
5.99445 5.61207 11.8453
11.7996 9.88229 4.69105
9.77853 -0.120722 -5.99734
-0.131257 8.18585 -5.69033
-8.08882 -3.78481 -4.6839
6.72567 -4.77195 -3.67329
3.48025 -1.05292 -19.0001
-8.19949 1.59685 5.94575
-8.19946 -8.0041 7.8681
-5.15343 0.873219 -17.1327
6.76099 -1.7806 -18.9999
-1.23114 6.31443 13.7532
7.35238 -7.69962 2.31111
-8.19952 1.75036 -7.9961
7.55276 -5.60748 -2.14813
0.5335 -6.87499 10.1353
4.89435 6.27677 -11.8047
6.13388 9.99952 8.23781
-2.36224 5.63266 -10.1065
-5.19738 -0.184702 -11.8376
5.12708 3.98789 18.9998
7.47853 -9.87451 1.94009
9.45178 -7.83048 -9.99946
-8.19965 -6.12096 0.749288
8.59687 1.7121 -11.8405
11.7995 9.8242 8.12531
-8.19943 0.550725 -6.13915
10.0848 0.848624 5.95642
-4.10178 9.8844 1.09948
6.48489 2.40251 18.9999
-3.78507 9.99952 8.14745
8.1721 1.08786 -5.90297
6.69193 -5.00712 11.9486
7.53498 -9.99948 -8.02437
-4.17253 -4.00974 10
6.25508 5.40754 -10.1073
-3.66739 4.37913 -10.1098
-8.19963 -2.45796 -5.63688
8.48855 -2.13787 -17.2783
8.05333 8.38202 9.9995
-1.86577 4.00967 -4.75625
7.4877 9.89836 -1.90995
11.7995 -6.27458 4.94555
4.82541 -4.98002 5.21509
11.7995 -4.73246 8.29834
11.7994 8.32142 -4.21686
5.10017 -9.99946 9.83227
1.69102 -6.99958 15.4247
8.04178 3.9766 4.51854
8.18179 2.88827 -13.5565
-3.75935 -4.26643 11.8596
-2.89339 -5.19979 10.1173
2.9975 -6.90071 -14.1155
3.30563 4.35551 -5.82915
1.56079 4.83686 19
8.39911 -9.99972 -2.92197
4.18393 9.99927 5.64218
6.69937 -6.68128 -3.45418
6.4711 -9.90024 -3.76026
7.68622 8.03689 1.17499
-6.25343 -4.27744 -4.20897
-5.91345 9.99953 2.23558
6.78396 -4.92863 -13.579
-4.60372 2.82905 10.1333
9.7784 -9.99933 -8.07373
-1.95728 -3.36329 -18.9999
-8.19952 -0.497265 -8.02508
-3.44384 -4.63589 -17.1738
-4.47556 6.26304 9.99952
5.19761 -1.01848 -19.0001
7.93626 9.99931 -0.242807
1.95358 -5.04539 -6.02039
-8.07629 9.9993 1.03013
-3.98666 7.95469 -1.64786
-2.3103 7.8881 -9.99945
-3.82296 5.43936 2.56048
-8.19952 0.972955 7.88839
-1.70905 -9.86137 -4.87013
-3.51802 4.55592 -13.6174
4.86748 3.17147 -5.15827
11.7995 -8.13906 -4.23604
6.61194 9.99967 -6.2562
1.89264 3.15965 -6.02047
8.19452 2.63602 18.9998
11.7995 7.91038 -2.13231
11.6676 -9.99924 -0.652279
-8.19949 5.98419 9.84769
9.0654 -4.87187 -3.51027
2.25591 -7.23023 -10.0001
11.7994 -4.86497 -6.1293
2.07788 7.01505 11.9206
-8.06922 -9.99946 0.693636
-8.19952 -6.83475 3.58822
-4.19654 -7.9503 -0.383304
4.49456 -6.47102 -11.8745
8.52441 -2.00393 17.1461
5.07865 6.18625 13.6387
9.86967 7.94262 9.9994
-2.7036 -8.20309 -3.95979
-2.12598 -5.80594 15.4032
-4.95334 1.86733 -18.8897
11.7997 4.28959 9.89094
10.0581 -4.75285 3.6615
11.7995 3.0311 5.33546
-8.19951 3.23253 6.87706
8.04811 3.45596 -4.90176
-3.63737 9.99913 2.8252
3.09439 6.8838 17.1559
-6.23264 -9.99964 -0.225732
-8.06508 -9.99957 6.48831
-2.01441 9.99956 -8.16679
7.63641 -7.7165 -1.44059
2.76596 -6.93029 -12.1713
9.5142 -5.45872 -9.99943
3.17275 9.99948 -5.97973
-8.08903 -4.74494 -3.68808
-8.19954 6.42031 4.8439
0.142283 -6.65232 18.9997
3.80628 6.70531 -13.5598
9.51991 2.6268 5.39403
8.03767 9.89943 -9.99959
-5.14629 0.881205 -13.579
0.432694 0.6258 5.99475
-3.93051 -4.01957 -15.3854
-4.65442 -1.81634 -5.73527
11.7994 7.72363 8.11951
-2.97562 2.89899 -5.25597
11.6233 -9.99916 -6.45462
8.47022 -2.17566 -15.4037
-4.31882 -3.41726 13.5884
-2.86138 2.31711 18.9998
3.12505 -9.83675 -9.99947
-2.50115 -9.99951 8.21085
11.7995 -9.8961 8.18843
-3.14547 -1.34622 18.9998
3.55012 -1.96919 5.7581
7.83739 -6.75233 -9.99948
11.7997 -2.71708 -9.88039
-4.20543 7.99657 -9.99937
2.62724 9.78216 -9.99951
11.7995 -5.84619 -8.08802
0.777305 9.99964 6.10157
4.58395 6.43135 -15.3374
-4.19014 6.10116 -0.621912
-4.3208 9.99951 -0.584137
-0.528063 -8.45656 5.54756
11.7996 6.42019 -9.86911
11.7995 -8.04306 -0.240221
0.57068 -8.21997 -5.89786
-8.19933 -9.86919 8.21921
11.7994 6.64316 -4.00052
-0.721929 1.27432 19
5.12139 2.91335 5.24046
3.40958 6.83445 -17.1684
-0.401389 -2.45094 19.0001
-8.19957 7.35072 -3.99436
11.7995 -2.91166 -6.8344
-6.18885 8.09964 -9.99932
5.27029 -6.08937 11.8387
6.27561 0.485726 19
-4.60371 9.99956 4.3456
-6.0574 9.99957 5.99075
6.61338 5.08203 17.141
1.69548 3.47503 6.00528
0.580278 -0.522659 19.0001
-2.62991 -9.99964 -6.34429
6.27747 9.86519 -9.99939
11.7995 1.1695 8.02305
-2.871 4.83453 3.78955
7.16914 -5.46426 2.70142
-2.47652 5.55261 10.0742
-3.35412 -4.73339 -13.669
9.41305 -4.63387 9.99952
11.7992 -5.56691 2.68376
6.13953 5.70215 9.9999
-4.49226 -3.063 -13.6159
2.93942 9.99951 9.88882
4.78363 -6.3314 17.313
-1.98923 5.88835 -13.5733
10.2552 -9.99939 9.8336
6.69511 -1.3754 18.9999
-1.86483 -8.36401 9.99949
-8.19952 -4.225 -6.56327
2.29246 -3.06657 -19.0001
3.96998 4.64244 -18.9998
-2.2204 5.74552 -17.2044
8.37766 -2.39904 15.3098
8.61294 -9.9994 9.85548
7.95329 -8.1505 9.99949
2.30105 -3.06491 -5.99668
11.7995 -8.44747 -6.21676
-5.19563 0.605875 13.6847
-3.39401 0.502088 -18.9998
5.22638 6.11105 -17.1615
1.45422 6.99232 -17.1574
8.68812 1.2369 13.8065
-8.05907 9.99969 6.59375
11.7995 8.22878 3.99634
0.279622 2.29863 5.80954
11.7995 8.20005 6.06429
9.66595 -9.99945 7.64077
-8.02162 9.73204 9.99978
0.550209 -3.85672 -5.88783
-7.82637 -9.99957 9.85483
5.68005 -5.67362 -18.9996
2.74427 0.831064 -19
4.10265 -6.60923 -18.8629
11.6447 9.99918 2.76131
8.86497 -0.57412 10.0002
10.0999 2.65334 9.99956
-8.19963 2.16647 -5.78303
0.00356581 4.05286 -5.72155
-4.85785 -2.15469 -15.3364
5.94101 5.64704 15.3215
-8.19955 -5.8319 5.15888
-8.1995 -8.39629 9.87115
7.93151 -5.9871 -0.532722
6.65491 -8.16226 -9.99936
-2.86195 5.22804 -15.3712
7.82407 -5.8919 1.13849
-3.30821 -7.64315 3.13993
-4.67893 2.93673 -10
-1.47931 -9.99962 6.79606
-8.07565 -4.72045 3.72525
6.08238 -5.71472 9.99979
-8.00048 -1.39809 9.99941
10.1164 9.99951 4.46415
11.6781 9.99921 0.872648
-1.91339 -6.24716 -4.70809
3.19787 6.87893 10.1348
8.4478 2.23691 12.0058
8.16056 9.9995 8.13143
4.68088 -1.25105 19.0001
5.85403 -8.06351 -4.42296
-4.9542 1.85491 -15.339
3.11252 -9.99948 9.84907
-5.71286 -9.99939 9.88495
-1.03471 -2.72349 -5.33878
2.9918 -6.90342 -16.8813
4.88091 -8.36639 5.14772
-3.07894 5.03752 11.8704
0.998202 -6.96434 -13.4783
-8.19865 -9.87756 -7.60269
-8.06345 9.99962 -8.06158
-5.10538 -1.13749 -13.5707
2.67567 6.9411 -15.3896
8.78498 -0.760287 13.7501
2.84346 -6.91946 14.0672
-6.65032 5.27887 -2.85157
7.43779 4.16477 15.4645
9.72578 -9.99954 5.53373
9.83856 -5.99346 0.15135
8.08507 -1.3158 -5.84994
-5.08063 0.0625029 18.9997
-8.19905 8.37632 -9.87233
-8.19952 1.99728 9.89928
6.22819 -2.13445 -5.64042
8.65427 1.42265 -17.1145
-3.94016 9.99906 -2.1899
-8.04426 -9.99827 -9.67128
11.6396 9.99936 6.42419
-4.69118 2.64928 13.7481
-8.08217 9.9994 2.84126
-4.81575 -5.06023 -3.2366
0.357195 6.85538 -18.8881
-8.19947 4.60903 4.06918
1.0766 6.9708 17.1799
11.7995 -7.71947 -2.29539
6.60246 5.09024 -11.847
9.70846 5.35371 -9.99948
-8.1996 8.00097 -2.10482
-8.19946 4.93226 -9.84582
-8.19963 6.11288 -0.653426
-0.328938 9.99953 8.02899
7.64703 3.85525 -15.3376
3.44338 3.28469 5.80346
-1.40831 6.09448 -19
8.10447 9.99964 4.51114
-4.41989 -1.16468 5.88831
11.7996 9.91049 -4.43653
-6.26363 5.98528 0.618951
-0.160432 6.72765 -13.6215
0.418398 -9.99981 6.00114
-6.57637 1.4181 5.82656
11.7995 3.97187 -6.71278
-8.19955 -3.63638 8.46677
-3.43864 7.93541 9.99935
5.58277 9.99962 6.5982
7.21966 8.27584 -2.58002
-8.0331 9.99967 8.28476
0.869279 1.73857 -5.93919
2.63224 -0.880624 19.0001
-8.1995 6.58904 7.50465
11.7994 -8.11083 5.85766
9.79231 9.79199 -9.99966
-0.303807 -6.69119 15.4598
11.7997 -9.85941 1.09336
-6.56171 2.43156 -9.99961
11.7144 2.34871 9.99945
-8.06068 -1.82787 5.73575
-1.38601 3.94455 -19
-8.1995 -8.38572 -4.19941
-3.98274 -3.74627 -18.9996
-3.93007 -2.98276 5.22332
0.999515 6.87098 -5.95507
-1.47497 3.3244 18.9999
7.92415 -6.27679 9.99954
-5.31694 -1.00046 10.0005
11.7995 3.81879 -8.43753
7.93696 6.01092 0.173939
-4.18505 3.62614 -18.8803
-6.43309 -9.99958 -6.15552
-4.50704 -9.99945 7.99458
-3.01263 -9.9999 -3.96586
-3.80089 -8.10539 -2.14068
3.63821 -6.38671 -5.73341
11.7995 3.16394 7.85427
-2.97628 4.96983 -18.999
-1.14814 -7.94879 -5.22154
11.7991 -3.10065 5.32434
7.10786 4.56493 -13.6012
6.62106 -9.99939 -9.84739
-3.16585 -1.50823 -18.9999
7.10775 7.31952 2.81599
11.7991 -3.14406 -5.23011
11.7998 1.68753 5.94189
8.22988 0.958036 5.9333
-1.19709 5.04882 5.1965
-8.19946 -8.12737 -6.181
5.59537 7.99407 -9.99949
11.6486 -4.66362 -9.99933
8.59135 0.85114 18.9998
-5.90647 -9.99957 5.95971
4.94388 -6.25207 -17.1309
10.0624 -3.23677 5.0578
-0.821297 6.48975 17.1226
3.59701 2.2299 -5.74839
1.54415 -9.99969 -6.14316
-0.418708 -4.66032 -18.9999
-8.19963 -5.72804 -2.32268
4.00586 6.64068 15.334
-8.05176 -9.99944 4.70872
-4.95172 1.86968 -11.7713
9.72424 -1.0467 5.90895
11.7994 -8.03962 7.96203
2.57557 -8.4268 -5.94733
6.80705 4.90216 -17.0813
-0.930612 2.49277 -5.46809
-8.06349 -5.58948 2.21714
-4.40275 -3.59838 -10.0002
0.959977 -6.96728 -11.6252
-8.19966 4.92012 -3.76049
9.77231 9.99947 -8.50223
-8.09577 -2.9452 9.99953
6.24582 -4.32387 4.1609
-1.23426 6.31647 -15.3592
-0.225621 6.63459 5.65311
5.5531 -9.99957 -7.4854
3.86289 -9.99963 7.91051
4.365 -8.07461 -5.44751
7.52998 -9.99966 6.00061
8.05814 6.42148 9.99959
-0.464278 9.84653 9.99944
5.77235 -5.76376 18.8666
8.1753 2.92218 10.1196
7.33888 -4.28098 15.3319
-0.0453544 -9.81233 -9.99947
11.7995 6.43955 6.72304
3.14025 6.44874 -5.85794
11.6707 -1.17693 -5.88589
8.79568 0.00420098 -15.3164
-3.90573 9.9996 6.19594
0.109077 -6.2341 -5.75276
4.59445 4.92159 5.32929
5.93448 9.99955 4.57641
1.52873 -2.57306 19.0001
11.7997 -3.03103 9.82648
-4.24486 5.89592 1.08062
8.89071 1.13804 9.99996
8.28005 -4.3618 4.12186
8.30443 9.99963 -3.58418
-3.98659 -5.89652 -1.68388
0.920607 -1.12354 5.96884
-2.06011 9.99958 7.25835
11.5936 9.8369 -9.99792
-2.26834 -6.19767 4.40823
5.04953 9.99947 9.88083
-0.344818 -2.39687 5.62677
2.25961 8.26569 -6.00515
-8.19954 7.76285 -5.91531
0.61371 -6.77353 -18.9992
2.77032 2.89619 18.9999
-4.48258 3.83422 -4.6291
-6.00085 -9.99942 -7.97526
-4.36775 -3.67546 -4.73989
9.77324 -9.99953 1.11402
6.29183 5.3777 -15.3595
4.12093 -8.38748 9.99948
-8.02995 3.18801 5.08266
11.7997 -9.8456 -2.44218
0.30043 4.7857 -19
-1.08459 -6.37841 17.2045
-3.17487 -9.88129 -9.99946
-8.19951 4.8324 8.16341
-6.48831 2.57347 9.99973
-3.09194 -7.17107 9.99963
3.38615 -2.95924 19.0001
-2.31295 -3.05948 19
0.303717 -2.82689 -19
-2.25656 -3.95017 -4.5305
7.20199 4.44759 10.1058
11.7995 -4.6462 6.33007
-2.05978 -8.02386 4.59367
2.07809 -8.53853 9.99962
-0.907877 0.752596 -5.98522
3.06661 6.89154 13.6058
-8.1995 -6.04286 -6.09523
6.70051 -5.19866 -9.99981
-6.36489 -9.99961 3.71754
6.87434 5.21353 3.20091
-8.19963 5.76874 -2.24588
11.7995 8.24792 1.75006
11.7997 9.87126 -0.900439
8.60918 1.62962 17.1706
4.44331 -0.307028 5.99337
-2.83329 8.42776 3.81188
-8.19946 -7.4954 -8.00843
-8.1995 -1.89424 -9.84613
-2.66657 -4.31706 4.16282
-6.48559 -4.07521 4.41228
6.03089 8.21403 -4.25808
9.05045 5.09063 3.17348
3.54042 -9.99932 -5.94318
-3.41375 -9.9994 9.88769
5.07272 6.34295 -9.9998
-6.47413 9.99955 4.06458
9.4559 9.99958 6.25923
5.6183 -9.99932 4.89214
-8.19953 5.07713 6.14097
9.85046 -8.21575 9.99933
3.39211 -6.83244 11.9267
6.78063 4.93163 13.5735
6.09851 0.855685 5.95657
5.32873 3.40251 -18.9998
-3.71433 4.32873 10.116
7.54533 -4.00865 -11.8745
-4.71132 -4.30381 4.17811
8.80675 -0.482467 -17.0213
11.6237 4.81999 -3.56318
-3.05839 -4.98206 -3.51679
4.62555 2.20136 18.9999
11.7997 -9.88999 -4.40751
7.74801 7.87193 -0.798132
-4.83765 -2.21644 -11.8157
2.17646 4.89918 -19
-1.00106 3.06526 5.31347
0.877903 1.00019 -19
4.39818 -8.27738 -9.99954
-8.04433 -6.73608 -9.99957
8.79173 -0.285938 -11.8552
7.39994 9.99965 6.29906
-1.6064 -9.99949 -9.85981
-2.9048 -2.43228 -5.48349
0.851646 -0.141048 -5.99208
9.87731 9.99955 -2.79855
-0.883041 -4.78954 -5.38149
3.17806 -8.16874 5.84571
-8.19954 2.87405 8.48671
-1.75003 -9.99954 -7.95268
8.79145 0.335254 11.9297
-5.90634 4.55825 9.99961
-8.05349 9.9993 -2.85639
-0.570944 2.28049 -19
11.6202 -4.73735 9.99936
3.88606 0.639843 19
4.99615 -9.99942 -9.84787
-8.19953 3.62154 -5.01709
1.74693 6.61085 6.00769
-5.84612 9.99945 7.91155
-4.34149 -5.99695 0.0322975
2.5135 -6.96263 10.1229
9.33358 4.50041 9.99958
-4.44185 9.99943 9.8939
-4.89213 -2.05157 -18.8739
-8.03896 -9.99941 -3.26946
9.83286 -9.9995 3.10491
-8.19957 -4.5691 6.67057
11.6811 9.99904 -8.0748
11.7994 7.98284 -7.96877
-2.80072 -9.84895 3.84153
7.69747 -3.768 17.1019
8.75423 0.905646 -13.5907
-0.147566 -9.99955 8.13722
3.87782 8.45182 9.99955
11.7994 -6.38378 7.24559
0.35452 7.08826 9.9999
-4.07754 9.99952 -7.81273
4.75788 6.49937 9.99968
-8.19963 -2.69112 7.11887
7.61752 -0.826173 5.97055
-4.47238 -9.99959 -5.78713
11.6608 -9.99924 6.46733
1.96021 7.01431 15.3898
8.14158 9.99965 -5.51551
6.63858 2.23204 -5.58845
-1.10523 -0.492206 5.99539
11.665 -5.92639 0.933723
8.00034 3.27276 -17.1301
9.92524 -6.41799 9.9994
7.73197 8.10778 -9.99953
-6.0907 9.9995 -6.58299
-3.03054 -5.08374 13.6356
-6.08917 -5.9611 -0.864471
8.51045 -2.5748 5.41216
-0.936091 -4.48297 18.9999
-1.63326 6.10236 11.9568
0.905341 -6.95727 17.1913
11.692 9.99918 -2.65269
-2.91879 4.78838 -3.71228
-2.50415 -1.74293 5.74922
4.80847 9.99968 -6.82453
-0.832584 9.9991 5.5813
11.663 -9.99921 4.58739
-1.09496 6.52019 -10
-8.19948 7.85598 9.89397
-5.2848 9.99954 -3.50299
-3.03733 0.310553 5.99492
3.02598 -6.89198 16.8031
-6.39745 -0.869775 -5.95338
-8.19955 3.84216 -7.46434
-3.65515 -4.40729 15.3462
11.7996 -6.42575 9.80394
7.48714 -4.30034 10.0003
11.7996 5.7646 -2.15889
-8.07594 -5.95672 -0.752722
-2.54708 9.9997 -6.40331
-0.220414 6.70906 15.4072
-1.17841 -0.981155 -5.93279
-8.05706 -5.09543 -9.99948
-3.74393 5.74318 -2.30656
5.6864 -3.13586 19
10.1183 -9.99952 -5.1812
1.7875 7.30536 9.99983
-4.05555 3.83403 15.1114
10.0114 -3.16934 -9.99955
-5.98043 9.99943 -8.31755
11.7996 -3.93819 -8.22854
11.7996 5.31132 8.24519
7.06915 -8.46947 -2.8608
7.59881 -9.8351 -1.58563
-2.9707 -0.656622 -5.99669
-4.63876 0.201738 -5.99697
11.7997 4.61156 -9.90465
9.85195 5.77328 1.64408
1.8498 -2.68086 6.01353
-2.40142 9.9995 9.83327
3.68125 -4.80352 -19
11.6963 3.66357 -4.7672
0.691673 6.93176 -15.3633
-6.07464 -5.4804 -9.99962
-1.36046 -0.740082 19
-3.26012 6.77635 3.22162
-6.49995 -9.99947 -9.89158
3.88914 -9.99953 -8.05408
0.37225 6.8521 -10.1355
7.89571 3.44605 17.1885
4.72465 1.04758 -19
-4.42462 -6.28812 -9.99971
-8.19951 -0.0926742 -9.87507
-4.84458 -2.52426 10.0001
8.35478 -2.4586 10.0989
-8.19958 -7.96325 1.74924
9.79185 9.99953 0.973355
7.5104 4.06552 11.8494
1.04034 -6.96457 -17.3027
0.109699 6.7885 11.9086
8.79953 0.230481 -18.8673
-1.2325 6.46443 10.0004
7.88671 -3.45172 11.7188
3.32294 2.74376 -19
3.93046 9.99951 7.92447
7.77216 -4.032 -10
2.44353 -6.97878 -18.8806
-2.73377 1.1581 -5.88822
8.31202 -2.55948 -10.1336
-8.19944 7.97663 -7.8773
-6.39689 -9.99943 7.94893
3.53085 7.05059 -9.9999
8.46003 -2.20682 -11.9805
-0.380488 4.7265 18.9999
-0.467892 -6.63796 11.925
-1.69324 1.52717 5.79922
-3.31987 -4.77375 -10.1206
-5.1987 -0.145335 -15.3376
4.99454 1.10871 -5.90176
5.76578 -9.99961 7.42331
-4.73135 9.8839 -9.99936
0.743619 8.30373 5.92729
-6.36306 -3.1757 9.99962
5.36605 -6.23852 -10.0003
0.891116 6.95718 13.7102
-5.2804 1.1533 -9.99949
-1.29471 -6.27838 10.1166
6.55359 -0.0520902 -5.99511
-3.85636 7.98524 2.00277
-8.05068 4.08546 9.99959
-2.95935 0.549467 18.9998
8.62087 -1.58473 11.8015
9.8065 7.57796 -9.99946
4.337 -4.57909 19
-6.20258 9.9996 -1.8146
11.7995 4.59905 6.32573
4.41919 -6.61796 10.0003
2.97217 -4.26366 5.88277
-5.73346 -9.9996 -4.14922
-6.48105 9.99944 -9.90509
-5.1099 -1.10308 -17.068
-6.1709 -5.90081 1.07537
6.8174 0.20572 -18.9999
9.77228 9.99952 -0.983533
-6.34574 9.99949 9.86828
-0.718762 -6.53429 -10.158
7.06485 9.84776 2.87416
10.0968 4.14299 4.34266
1.33579 2.97366 -19.0001
0.659304 -7.22969 -9.99987
-2.51115 -5.51521 -11.8262
11.6282 -6.48432 -9.99931
1.9158 7.2434 -9.99993
6.80912 -2.89755 5.25195
