1.47341 5.70784 0.448857
-3.17956 5.89972 -1.05871
-2.76171 5.36973 -1.36249
0.712286 5.56633 -5.29868
0.663546 7.04356 -4.60358
2.38447 5.03317 -0.927978
-1.2788 6.85221 -2.94947
-2.21363 6.98256 -3.12664
-2.84039 6.29267 -0.916544
-2.56636 4.94162 -2.57134
0.491843 6.6815 -5.22424
-0.0389725 6.16785 -3.42272
-2.89029 5.38323 -2.14887
0.684595 5.01026 -0.238856
-0.536464 6.53058 -5.30363
-2.19015 6.5653 -0.283892
0.698028 6.45623 -2.8822
3.12501 6.42049 -1.78406
-2.98637 6.56479 -2.88431
-1.88703 4.8753 -4.30922
1.48917 5.24978 -1.90263
-2.26123 5.25548 -0.592023
1.16053 6.36445 -2.29375
-0.109022 5.53733 -5.33466
0.0502644 5.94589 -1.03685
1.32593 5.29034 -5.1541
-2.83547 6.69254 -2.48388
0.490315 7.02655 -0.652888
-2.92645 5.46093 -1.73788
-1.24396 7.12834 -0.273038
0.858574 5.95583 -2.93763
0.673007 5.76448 0.779944
1.38618 6.43022 -4.91679
2.09447 5.74451 0.00899032
0.301567 6.98255 -5.17807
1.59739 5.10016 -1.53826
1.76492 7.1906 -4.2062
-1.1137 5.14367 -3.34687
-1.54536 6.03477 -4.94181
1.33999 4.76599 -3.33539
-0.672589 5.29221 -3.08384
-1.28549 6.53069 -2.62757
-1.42784 6.55788 0.366952
-3.38336 6.14086 -2.18016
-2.7501 6.11503 -0.560373
-1.78465 4.69333 -1.38731
0.248957 6.45728 0.840162
2.40152 6.5434 0.0263848
-2.49253 5.04911 -3.41277
-1.1361 6.83648 0.433666
-0.800486 6.87189 -5.20655
0.0977637 6.42886 -1.05173
1.07493 6.5216 -2.74957
-1.43995 6.6682 -2.30869
0.552222 5.04919 0.714764
-0.158639 5.01421 -3.89898
2.19131 4.69769 -2.11534
1.63308 6.99121 -0.613902
0.872078 5.99806 -2.28367
-1.88062 5.07656 -0.575902
2.46618 5.17809 -3.27413
1.49893 7.06747 -3.7575
-0.0851709 5.78662 -3.42204
-0.402254 6.45449 -3.3898
-2.18152 6.17284 -4.53534
1.3348 5.05729 -4.26725
-1.06297 5.45338 -1.39519
-1.24518 7.01515 -3.94017
-2.22903 6.87262 -3.5825
-2.19308 5.07507 -0.962387
-0.153306 6.99371 -4.03902
-2.54564 6.6817 -0.967699
2.36526 5.51677 -4.56749
0.98408 5.05383 -4.46197
1.82419 7.27939 -1.65937
1.3621 6.95389 -0.260753
-0.11261 6.11828 0.855724
2.31607 6.89582 -1.15223
1.51889 5.25384 -2.31837
-1.46914 5.05423 -1.50078
2.6794 6.47263 -0.264079
-1.52329 5.06279 -3.27136
0.732761 5.11506 -0.857678
-1.34771 5.24013 0.398208
-2.05018 4.68255 -1.72401
2.23888 5.14446 -3.60369
0.270318 5.01983 0.357028
1.25554 7.08383 -0.728181
-1.49126 4.71792 -1.14148
-0.818654 5.47892 -2.78553
0.969101 6.64756 -5.0668
0.646443 6.98549 -4.1788
2.61252 5.34954 -1.01437
2.63483 5.58655 -4.29943
-0.497081 6.55541 -1.36249
1.81046 5.80987 -4.87218
-0.746899 5.12163 -3.4654
-2.53759 5.29756 -0.981324
1.01689 6.82698 0.725323
2.95618 6.53608 -1.42052
-1.94896 7.30175 -2.37935
-0.187717 5.17408 0.871613
-1.16746 5.26312 -2.97254
-0.325035 5.77514 -1.05685
-1.64635 5.86389 0.512294
-0.548639 5.24109 0.878431
-2.80178 5.73889 -0.364977
1.00379 6.70396 -3.14779
-0.189477 6.05277 -5.32904
2.01484 7.29592 -1.97963
2.63556 6.73936 -3.18985
3.12785 6.40097 -2.20468
-1.08077 6.13261 -2.4998
2.85987 5.46681 -3.32129
1.35699 7.10101 -4.12952
-3.14296 6.44694 -2.47574
-0.383723 5.14229 -3.3539
1.77125 7.12118 -3.43547
-0.255132 6.26467 -1.13071
-0.942588 5.1406 0.344501
-0.632301 6.87846 -0.706481
-0.843894 5.88864 -1.50009
1.1665 5.30768 -1.52494
-2.44339 6.59886 -4.38255
2.10289 4.69695 -2.49185
-2.73633 6.51858 -4.06278
-2.46809 6.16723 -0.267769
-1.342 5.13252 0.0341477
0.578108 6.90707 -3.7863
2.01647 5.14004 -3.91023
0.257681 6.98377 -4.25231
1.68397 5.08087 -4.07789
3.17536 6.27965 -1.0687
0.194877 4.9898 -4.06823
-1.39259 7.11402 -3.47832
-3.04134 6.49753 -2.0629
1.94063 7.2279 -3.89502
-0.152728 5.06149 0.427374
-1.33503 4.94153 -4.27909
2.21443 6.93282 -3.85021
2.37435 6.24044 -4.21676
1.74345 4.86849 -0.0953602
-0.215719 6.9719 -3.49214
2.91357 6.39155 -0.57377
1.83477 4.97595 -1.97532
1.65835 7.10314 -0.981753
2.82148 6.68588 -1.88274
2.91075 5.44582 -1.82214
1.39447 6.7815 -2.93802
0.566041 5.16011 -5.29619
0.676552 7.02283 -5.06521
0.510923 5.33106 -3.43797
-1.75951 7.27451 -2.72187
2.45099 7.04629 -2.95937
2.84787 5.63719 -4.0171
0.901622 5.11844 -4.91012
-2.0606 7.31381 -1.98566
-3.07646 6.37904 -1.66711
-1.85109 7.03291 -3.44516
1.45771 5.65877 -5.08311
-2.58837 5.01121 -2.16716
0.605334 6.12184 -3.17325
-0.884841 5.68788 -2.47994
0.95886 5.21007 -1.17503
1.6661 6.83108 0.0688388
1.43969 6.03958 -4.99657
1.82544 4.90497 -1.16147
-0.198331 6.75695 -1.13489
0.982093 5.02181 -0.488464
-2.50727 6.93276 -2.52865
2.4319 7.02992 -2.00724
1.57681 5.03535 -2.74955
-1.40063 5.01483 -0.350719
0.646857 5.37937 -1.44063
-0.186636 6.60599 0.800216
-1.17511 6.3431 -2.14468
1.3304 5.16503 -4.74211
-0.542383 4.9855 -4.74421
1.08271 6.4488 -1.51314
2.90034 6.49111 -2.96576
-1.61359 6.8696 -4.55691
2.35819 5.67364 -0.304329
0.1652 6.94577 -3.78504
-1.96914 6.89375 -3.90019
0.676333 6.53531 0.810336
2.7084 5.98526 -4.01809
-1.90257 6.924 -0.236683
-1.84696 4.88084 -0.98634
-1.72516 6.26626 0.304244
0.590655 6.9035 0.772458
0.693214 6.80082 -3.43973
-0.135163 6.49722 -5.32391
-3.16509 5.72364 -1.87306
1.20074 5.58533 -2.29004
2.19322 5.05925 -0.521539
2.40207 5.36515 -0.593164
0.299279 7.01746 -4.72869
1.02318 7.06998 -4.39011
1.09345 5.87186 0.656657
2.0686 6.74183 -0.0723471
0.769006 6.27255 -1.26855
-2.13971 4.87561 -1.34493
-2.89498 5.56909 -1.02389
2.9401 6.55406 -2.53298
1.70637 5.21224 -4.54293
-1.53774 6.94839 -2.62843
-1.61289 7.0032 -3.77163
0.16792 5.11218 0.821208
-2.63405 6.68012 -3.68396
3.0267 5.54778 -2.94141
-2.74432 6.14177 -3.92903
1.81235 5.40475 0.120635
0.316406 5.01121 -0.0998081
1.51939 5.26028 0.304332
1.95136 4.87798 -1.58489
2.92805 6.0846 -3.60425
1.04873 6.18226 -5.12626
-2.49034 6.48863 -0.603521
2.82955 5.67976 -1.03464
-0.093629 5.06951 -3.47642
1.4105 5.09294 -1.16478
0.30302 5.98659 0.849759
3.20978 5.8039 -3.34433
1.6998 6.70111 0.495989
-1.23906 7.17529 0.180678
0.923548 5.21044 -3.31092
-2.98365 6.43607 -3.69373
-1.71061 7.00922 -2.21037
1.63684 6.88096 -2.60568
-0.849173 7.00352 -4.16588
-0.529105 5.03333 0.0535589
0.611549 4.99937 -4.27674
0.371706 5.64605 -1.14017
1.05228 5.53418 -3.01349
2.92871 6.03831 -0.807396
0.904426 7.13068 -1.01483
2.06167 5.27701 -0.189418
-1.00077 5.0535 -3.7646
1.71963 5.36429 -4.99304
-0.510035 7.02804 -3.86667
0.34094 5.83328 -3.39171
2.57455 6.83737 -1.58206
-2.76743 6.59031 -1.31889
-2.1806 7.10537 -2.72059
0.305692 5.53265 -5.34112
-0.0408826 6.58301 -3.41968
2.11363 6.19426 0.17183
1.80825 4.93788 -2.39195
-1.94084 4.90412 -3.13313
2.287 4.7155 -1.68166
-1.40681 6.42409 -5.06024
0.596653 5.05248 -4.68627
-1.5066 4.88398 -0.725728
0.207056 5.01574 -4.51395
1.76451 6.25832 -4.74092
-3.36862 6.1714 -2.5304
2.92459 6.4947 -0.931841
0.26001 4.98263 -3.55539
2.06487 5.4408 -4.79616
-1.55665 6.89733 0.121518
0.437119 5.21238 -1.19552
1.78573 7.04266 -2.22557
2.29516 4.94155 -2.88455
0.721801 5.65803 -3.26
-0.136841 7.01358 0.714855
-0.0122248 6.91614 -5.26444
-2.09261 6.28108 0.0186434
-0.491933 6.97 -4.8354
-1.33484 6.17248 0.554171
1.16291 5.48427 -1.91044
-2.35087 6.74942 -4.00835
0.720023 6.15521 0.78923
0.973508 5.23753 -5.24992
-1.38508 5.00873 -3.7241
-0.705053 5.61941 -1.17831
-2.51389 6.79946 -3.30591
0.125666 6.97014 -0.494853
0.460247 6.57912 -1.06091
0.173385 5.07208 -1.00059
3.16313 5.66131 -2.54051
-1.36084 6.90166 -1.14234
2.47413 4.90693 -2.05023
-0.678831 6.74386 0.661155
1.08394 6.20167 -1.92082
2.30553 6.72372 -0.413875
-1.90736 5.34985 -4.52329
0.693476 4.97938 0.207
-0.620073 6.15335 -5.28199
0.783985 5.56559 -1.70723
-2.24509 4.77777 -3.57978
1.37694 4.91643 -3.78779
-2.14686 5.22382 -4.20327
-3.00223 5.55902 -2.51708
2.20367 7.29459 -2.76793
1.0864 4.94474 -0.0480876
-2.4519 6.96515 -1.38379
-0.556748 5.11583 0.496745
-1.20488 6.95593 -4.36563
0.035257 5.6221 0.883959
2.40142 6.09836 -0.112862
-2.3143 4.69537 -2.42884
1.1924 5.39303 0.538456
1.78188 6.29848 0.416091
-3.19631 5.78901 -2.27255
-1.01349 4.9837 -5.02021
0.116573 5.10423 -5.30548
-3.01945 5.81728 -0.710949
-2.94781 6.04803 -3.54459
-1.72913 5.16101 -0.203546
-2.84531 5.68298 -3.36233
-2.18954 6.88642 -0.598436
-2.78046 5.2496 -2.58167
-1.1261 6.11999 -5.14276
-1.04644 7.13087 -3.30214
1.62767 4.72992 -3.1138
0.912488 6.01682 -1.60907
-0.984524 6.65137 -1.34162
-2.67008 5.18216 -1.77614
-0.939146 7.06776 -3.7164
1.9154 7.12745 -2.62837
-2.85899 6.61295 -3.2846
2.65962 5.23251 -2.9229
-1.90292 5.87593 -4.67641
-0.228602 6.89921 -0.702529
1.61632 6.98522 -1.84294
3.17471 6.25872 -2.68871
-2.58801 5.41652 -3.62539
-0.390824 6.89995 -5.26388
1.09217 6.88697 -3.56054
2.1095 4.76584 -0.812424
0.622353 5.96018 -5.27376
-1.63026 5.62277 -4.81765
-0.501583 6.99353 -4.36725
2.65587 6.7068 -1.1815
-0.307316 4.95877 -0.393419
0.406328 5.4612 0.830301
0.895863 4.99598 0.567985
-1.16404 4.75486 -0.95731
-1.00262 6.46653 0.608882
-1.65198 4.9062 -3.99707
3.41017 6.04222 -2.24714
-3.08065 5.66777 -1.41397
-3.17487 6.34651 -3.30076
2.73577 6.78213 -2.25934
0.860168 5.78395 -2.00372
2.47903 4.98424 -2.4983
-0.826844 4.80703 -0.859518
-0.191798 5.00583 -4.36813
2.28745 6.5911 -4.05867
-1.83484 6.60375 0.0480198
-1.60943 5.24272 -4.75222
2.61344 6.33106 -3.83354
1.38241 6.75816 0.627446
1.42022 4.91862 -0.372913
-0.446744 6.01966 -3.33624
-2.00486 6.81208 -4.31772
-2.42573 5.44944 -0.294566
-0.66467 5.01515 -5.15715
-1.75576 7.03582 -1.78493
-0.864592 7.12556 0.428102
3.08195 6.17485 -3.16602
-0.689157 4.92898 -0.409261
1.00869 7.06975 -4.89892
0.845593 6.93286 0.385341
0.555581 7.03567 -0.968815
-2.3203 7.11579 -2.23777
-0.484942 5.74572 -5.29226
0.982547 4.93976 -3.97047
-2.43948 5.88958 -4.17222
-1.28603 5.33192 -4.98063
0.674838 5.82642 -1.34772
1.89124 4.70561 -2.82175
2.14232 7.30112 -2.34047
-1.03045 6.86044 -0.917761
0.96681 6.96731 -0.0861072
-1.39159 7.07145 -0.672977
-0.193518 6.98281 -0.196184
2.0517 6.62693 0.296948
-1.99581 5.92467 0.286043
-1.0529 5.72239 -1.77836
1.96751 7.09392 -1.2484
0.312435 6.33057 -3.32633
-0.96785 6.98845 -0.5029
2.63591 5.6948 -0.668783
0.836166 5.41132 0.700601
-1.56177 6.76796 -4.97872
0.158523 6.91835 -0.994345
-0.964315 4.96224 -4.57258
-1.24815 5.38329 -2.58362
-1.24 6.90634 -4.76098
0.67112 4.88857 -3.55211
1.06935 5.74169 -5.19779
-2.10645 7.3148 -1.57825
1.4215 6.91776 -3.31666
-2.67578 5.77759 -3.78062
1.9773 6.84291 -4.26026
0.511087 6.64416 -3.1344
1.49464 4.89132 0.136011
-1.83749 6.3228 -4.81988
1.54423 7.14848 -4.48157
3.39261 5.96568 -2.58865
-1.16977 6.82045 -5.12917
1.92785 4.80993 -0.409214
1.3702 6.86652 -1.55982
1.36179 6.62635 -2.52412
1.49843 6.72798 -2.17439
-0.354902 5.61725 0.893061
-0.377175 5.53682 -3.32428
-0.0853377 5.01498 -0.00799579
-0.664399 6.71315 -3.33807
-0.56162 6.97761 -0.31894
-1.06641 6.3459 -2.89849
2.22248 7.08022 -1.60741
-1.77294 4.90282 -1.76646
2.64396 5.39487 -3.6786
-3.36773 6.06819 -1.84582
-0.804885 5.20261 -1.05457
-1.98137 4.90576 -2.68081
1.653 4.91211 -0.760116
-1.23107 5.35679 0.754222
3.04423 5.71898 -3.70514
-1.14683 5.60049 -2.1553
1.43898 6.19042 0.563135
-3.16512 5.86609 -2.73723
-3.04707 6.25605 -1.26963
2.8204 5.31993 -2.5775
2.24022 4.73507 -1.24352
-0.515621 5.36875 -5.27059
1.8532 6.869 -0.355551
-1.7297 7.07237 -1.38034
-0.633398 6.74628 -1.06045
-2.67039 5.49424 -0.653493
-1.60953 5.14519 -1.97438
-1.45276 6.70836 -1.92657
0.0761906 4.99678 -0.490267
-1.40921 5.35427 -2.20569
-2.08096 5.32464 -0.133758
2.63293 5.10701 -1.71755
-1.88334 6.71907 -4.80562
-2.31775 5.94771 0.0313016
-1.40077 6.78089 -1.53527
-0.111671 7.0299 0.292861
-3.30863 5.98051 -1.47766
0.321981 5.05351 -4.96355
-2.67617 6.82687 -2.11474
2.09619 7.25231 -3.55868
1.19717 4.94298 0.381197
2.52583 5.04486 -1.34978
0.0950041 5.42951 -3.45121
2.98284 5.47968 -2.23406
-1.82108 4.90519 -3.57431
-0.948378 6.46296 -5.22284
-1.60719 6.92731 -4.16846
0.423574 6.11352 -1.1076
-1.97568 5.51379 0.415086
-1.65085 4.90582 -4.56559
1.2865 5.11672 -3.07221
2.72146 5.19035 -2.16165
2.06889 5.28026 -4.33487
-1.10325 6.48141 -1.73793
1.31675 6.56221 -1.86943
2.7861 6.42135 -3.41179
1.10472 6.37965 0.711232
-2.39811 5.51517 -4.02228
-0.690752 5.75702 -3.12482
2.0517 6.40703 -4.44275
2.07288 6.90531 -0.783777
3.38447 6.11607 -1.85334
1.31264 5.4024 -2.69391
0.914602 7.04166 -0.525458
-0.689393 6.35818 -1.60835
0.214412 6.94671 0.777674
0.194906 5.94191 -5.32833
1.56749 7.24721 -1.38859
2.49752 6.67177 -3.64096
-0.881624 5.92438 -2.16166
-2.38818 4.90893 -1.75268
-2.33718 4.74379 -3.19464
1.75931 4.92702 -3.5699
2.82122 5.45073 -1.41044
0.326448 6.99094 0.410609
3.12706 5.78478 -1.63001
3.30424 6.19931 -1.44829
2.42461 5.90675 -4.37744
-1.31956 5.38188 -1.74875
-0.823483 5.65674 0.838089
-3.08433 5.94323 -3.13353
2.40162 5.34948 -4.03972
-0.0860491 6.99294 -4.89545
2.04491 4.91667 -3.2386
-1.5716 7.2226 -0.147216
0.00898552 5.46277 -1.00823
0.224969 6.82905 -3.36932
-2.60272 6.8157 -2.90235
1.05165 5.78899 -2.62201
-1.34929 4.94402 -4.81396
1.22048 5.05164 -0.80421
-1.84474 7.15096 -3.07594
-1.79838 7.25964 -0.481541
-0.960191 5.02895 -0.0982561
2.1103 5.9513 -4.61953
-0.816846 6.13985 -1.88254
-0.880745 7.08807 -0.0412073
2.16599 7.28061 -3.1708
-0.548101 5.04388 -3.83246
-0.273767 5.05415 -5.25495
-2.08999 4.82109 -3.96136
-0.546607 6.36317 0.77012
-1.65602 5.14058 -2.453
2.66463 6.04418 -0.432221
-0.400435 5.32237 -0.975233
-0.486383 4.87611 -0.836056
0.584525 6.97516 0.105014
1.35052 6.78554 -4.83099
3.06455 5.89124 -1.2467
0.447746 5.04743 -0.60501
1.71212 6.70679 -4.59597
-1.59396 5.12217 -2.85642
1.78115 7.05252 -3.01874
1.26921 6.88642 0.231931
-2.28848 7.01399 -0.987357
-2.2278 4.68602 -2.07515
-1.74961 5.29702 0.184442
-2.61514 5.0655 -2.96278
-0.485195 7.06655 0.610619
-2.58174 5.68697 -0.0887371
-1.92503 4.91041 -2.21283
1.7948 5.8759 0.29272
1.10927 6.83741 -1.30026
3.32908 5.89078 -2.9591
-1.96979 7.27805 -0.804686
-0.857723 6.95509 -4.68586
0.677321 6.34373 -5.21661
1.0198 4.81467 -3.48647
-2.49367 6.24438 -4.2729
-2.17296 6.64588 -4.61885
-1.17528 5.07677 -1.21427
-1.08211 4.89418 -0.537448
0.82214 6.22702 -2.58313
-0.924452 6.07083 0.732691
2.46044 7.06447 -2.46962
0.17994 6.9911 -0.026532
-1.25745 5.7258 -5.04708
0.551013 4.93906 -3.89612
-1.62336 5.4419 0.608952
-2.45795 5.10682 -1.36494
-2.34984 5.12675 -3.82736
3.19939 5.75386 -2.05327
-0.583216 5.00397 -4.28164
-2.70405 5.33118 -3.22657
-0.513516 5.96947 0.837162
2.5416 6.68366 -0.74214
-0.570286 6.07329 -1.28006
0.810084 6.68791 -1.16148
-0.115143 5.01195 -4.84462
1.26312 7.20069 -1.16481
0.539924 6.99781 -0.278687
-0.502757 7.05843 0.144973
-3.29829 6.26943 -2.91442
-0.967553 5.00198 -4.12607
-1.67365 7.13167 -0.967769
-2.15576 5.68153 -4.39254
1.29631 7.11657 -4.69281
-0.148421 4.96486 -0.884368
1.01014 6.97759 -3.93523
-0.996847 6.68685 -3.14553
-0.105403 6.99314 -4.48961
-2.42105 7.05609 -1.80509
-2.35979 4.71716 -2.8366
2.68541 6.80567 -2.73097
-0.635277 7.05271 -3.44696
-0.916949 5.93753 -2.85603
-0.869015 5.81386 -5.20457
-0.773344 6.25825 -3.18776
-1.2574 5.76126 0.70443
2.37756 6.99372 -3.40856
-1.44769 7.22031 -3.06183
-0.913529 5.40419 -5.15792
0.239045 6.37093 -5.30105
-2.28349 5.57285 0.182811
-2.06915 7.30478 -1.20279
-2.90425 5.53078 -2.93271
-2.74931 6.72143 -1.71639
-0.889861 5.27568 0.819675
