-4.28552 -3.9743 4.49836
-8.09264 -6.15544 -0.471969
10.1395 2.88485 -10.0075
-6.53728 -5.11937 -3.11554
-4.19683 -10.0119 7.97547
4.97652 -6.23778 15.4034
-6.11297 -10.0128 2.89301
7.12278 -4.5746 -17.1652
11.6644 9.83828 1.78703
-3.27158 -0.544753 -19.0047
-6.21525 10.0067 0.569523
9.31934 3.16392 5.0925
-6.27497 -10.0079 -0.920209
8.25428 -9.91342 -9.74867
8.30947 1.92929 18.9231
9.90217 -10.011 -6.17127
-8.21142 -1.74706 7.95463
-1.79005 -6.0023 -11.9177
-4.77067 -10.0147 -4.3808
-8.06695 1.41341 -9.88858
11.7468 3.01952 -9.78393
0.983376 6.95592 -14.7696
11.6862 9.83179 -4.84945
7.58143 3.5322 18.8902
6.37971 8.29711 -3.864
4.07707 6.38672 5.55079
11.6678 4.14703 -4.60367
5.34412 5.85449 -4.8546
8.16721 10.0058 7.81495
-8.20812 -7.99597 0.987595
3.81502 -6.71667 17.1923
-4.13202 9.83699 -9.89593
-6.71344 -0.431986 10.0108
-4.47581 -3.13338 17.045
-2.90623 -9.80675 -3.95123
5.11155 -3.82462 19.0051
7.74093 -8.08768 0.659815
7.65888 10.0034 -5.91652
-8.05752 1.21146 6.01418
-6.15874 0.482009 5.98773
-1.43722 -3.19448 5.13909
-6.71577 -9.87364 -9.90868
-1.5378 1.75187 -5.73745
7.69705 5.91571 1.69516
-6.08452 -5.5802 2.18342
-5.70922 -10.008 6.42171
-8.20658 -5.88398 -8.04744
5.90534 -6.17116 -4.36427
11.7222 0.971635 6.11174
11.6839 -9.86704 2.114
-8.07029 -5.41543 2.91726
11.6843 5.18989 -3.31618
10.0867 3.00362 10.0075
-8.21302 7.92433 3.50288
8.63627 0.466488 -18.8664
7.63801 -3.86976 -15.4327
-8.1291 3.654 -5.06747
-1.67029 -9.86269 5.03786
-6.32431 4.32739 -4.16006
5.63359 -5.85393 11.9113
5.00385 -6.21691 -12.0253
7.23344 4.41795 -15.4407
-8.21451 7.90417 1.63223
11.7346 -5.91745 1.80287
-8.20665 -8.28035 -5.647
-8.08928 4.81822 -3.91928
6.97317 7.99973 -10.0128
-8.20747 -7.83516 6.39635
-4.77025 -2.42232 -13.5232
-4.77923 -10.0103 4.32604
-8.2131 8.20431 5.64647
-5.1521 0.892679 -17.0568
-2.13522 2.7274 19.0061
7.69955 -5.95984 -1.7584
11.7102 -7.75163 9.81732
-4.55749 3.99181 -4.47461
-1.07777 -6.52187 -10.111
-4.73657 -5.03192 -3.24394
-3.1736 -4.92865 -15.3584
11.8083 7.93767 -1.52406
4.03487 -10.0095 7.61426
-1.74501 -6.05127 17.1197
9.75332 -10.0099 1.09109
-2.42521 9.91051 4.48551
2.58105 -6.80745 18.9014
11.3813 9.79689 9.87301
8.08221 3.08737 -15.0945
-3.634 -5.40444 2.92594
3.20065 6.87072 15.3619
4.69107 -6.37429 13.5984
7.51913 9.88152 9.80776
-2.36383 -7.72113 -4.31934
0.906785 3.57575 5.94148
-8.09035 9.85315 -1.30626
-1.39602 9.85803 9.86059
1.98616 -10.0129 8.05453
-8.20936 -6.64022 -4.19088
-8.11022 -4.35754 9.82423
-8.13489 2.34653 -5.76911
11.8092 2.10182 7.8714
-5.5579 -9.88368 9.86617
1.94697 7.00001 11.8257
-1.32183 0.582415 19.0029
0.0104797 7.61753 5.72078
11.6771 9.83613 -6.68549
-4.99095 -1.734 -15.2371
11.6731 9.83779 6.75538
0.486688 9.9328 -6.1107
2.3914 6.97884 -13.5573
-1.82829 -10.0168 -8.59162
9.89163 4.186 -4.28496
4.57418 6.42877 -15.4538
7.13433 4.67141 -10.1235
11.5923 -5.09656 3.29913
-2.57582 -4.38678 4.20258
11.5724 4.75423 -9.93029
-8.2085 -7.52004 8.13993
9.54098 -5.4766 2.43366
-8.21163 -7.7745 2.7979
7.75029 3.67715 -11.8045
11.7373 9.79689 -3.03688
11.7372 9.80948 0.176706
-4.75399 -2.76985 -10.1126
-2.77608 4.53566 -4.03818
10.0125 10.0123 8.04786
3.58652 6.39935 -5.73048
5.81426 -9.87825 4.81891
0.12152 -6.69453 -18.9281
-8.20891 8.20151 -8.15392
11.7096 -3.88856 -4.84756
-2.50546 5.52161 14.9928
-3.17442 8.10997 -10.0119
11.6272 -9.86649 -1.94679
4.47827 -6.73936 -5.37947
-6.32518 2.89048 -5.26981
7.67816 9.84722 -9.86005
-4.44684 2.72908 18.9407
8.24881 -2.7075 12.1364
-4.66608 2.72315 -17.3487
5.37963 1.2115 -5.90328
-3.53648 -10.0111 -5.98289
5.33944 9.91247 5.12899
-3.65668 4.19356 -18.7762
-1.86374 -10.0083 -6.90389
11.8068 7.83291 6.06641
-6.55853 -10.0114 -4.97989
-8.20529 5.48188 -6.03775
-0.477685 -4.0445 19.0047
-8.21031 -5.69915 5.66073
1.67049 4.81613 -19.0032
-4.85472 -2.1794 15.3125
-8.20619 4.56348 6.40992
0.926001 6.96041 -12.2845
2.52617 0.802314 5.97671
9.46892 9.90377 -9.85178
-8.06945 9.82931 0.419815
-6.3194 9.84972 -9.89544
-6.51353 -1.56573 5.78344
-3.62469 -10.0057 5.96145
-8.03713 4.88351 9.91309
9.83549 -10.0075 -1.108
10.1028 10.0194 -7.94291
-0.108913 -6.73386 11.612
5.90114 9.91639 9.79693
-2.62221 -5.70347 -10.0897
11.6212 6.44985 9.91146
7.13202 -4.28396 -18.9268
-8.20674 7.79528 -2.28696
11.8119 -7.97738 -8.19434
4.68139 -6.2196 -18.8933
-8.20406 6.59206 -4.42202
-6.18857 -5.99145 0.397465
7.68301 -3.78126 -11.95
-5.14199 0.925123 13.7098
-0.63432 4.2237 19.0054
7.30958 8.0074 10.0122
11.804 -6.85625 3.87098
8.10889 -6.14184 10.0033
-8.096 -3.36749 -9.82771
3.93758 9.79689 9.92959
-8.08081 3.28332 -9.79693
-1.66421 -1.15087 5.8892
7.10821 2.83697 5.28648
-8.06972 -8.08547 9.83043
11.7087 -2.33492 -5.77023
5.88329 -8.10946 -4.37753
-3.93039 -10.0107 -7.97769
6.01146 -10.0118 8.23999
-2.84704 4.55211 4.04869
-8.21571 8.01541 7.87416
-3.52195 9.85777 -3.06447
10.2106 1.8971 5.68848
9.96012 -9.75649 -9.93199
8.24148 -10.0071 -7.50919
4.31433 1.00514 5.92839
3.41164 4.51678 19.0054
-8.06374 -9.87293 6.02734
0.942274 7.03205 10.1537
-8.21129 -8.43125 -3.59939
6.13269 5.87812 10.0527
11.8063 -7.82163 -6.3502
5.95224 5.63628 -13.7979
4.61456 10.0087 -7.92066
11.5785 1.1283 9.94387
9.48354 -4.60039 3.84117
10.0649 6.52965 -10.0099
-4.35176 3.34244 -13.9791
-3.09459 5.03654 -16.8941
11.8083 7.9764 -5.77141
-1.81563 -10.01 6.81274
5.28646 3.63901 19.0065
11.7591 -9.75426 -3.695
-2.43326 9.79689 -4.38769
-2.92644 7.57606 -3.70143
-8.08331 9.87405 2.13007
8.70449 -1.15585 -13.6442
-6.2151 -10.0076 1.0566
11.7435 2.89542 9.77763
-4.67763 2.64791 -11.9584
-8.20723 -3.65779 7.55735
-0.115097 -4.43531 -5.67862
8.42528 -10.0036 -4.89061
-8.21956 0.330583 8.01174
-7.97472 8.25521 -9.97794
-8.11091 5.8006 2.26771
11.8079 4.46217 -8.25788
-0.195431 0.637609 -5.98574
-6.18897 3.9816 10.0069
-4.5425 2.95639 13.6618
-8.20811 7.98636 -0.297789
-1.78628 6.02386 16.7948
9.14299 0.173514 -10.066
-1.69009 -9.84339 -5.04567
1.74213 -6.78597 -18.8771
-8.15408 -2.32499 -5.81279
11.8046 -3.98243 -7.39698
3.4583 -6.26504 5.78264
-6.15331 7.74563 10.0138
7.11835 -4.29494 18.9407
-0.935737 -9.85358 9.89042
11.8079 -8.17669 2.94048
7.99766 -10.0068 7.71053
10.2314 -10.0102 -4.01571
11.8101 0.156151 8.0719
-8.21376 -8.27816 -0.803034
-5.27988 4.77552 3.63731
0.155029 2.27501 19.0031
-3.03605 0.817767 -5.95715
7.77507 -3.65431 15.5669
9.96976 -10.0118 -8.1944
-3.09541 2.88483 -5.2655
2.63174 -8.01211 -5.94115
11.6937 5.85296 -1.9162
7.22737 -5.33399 3.0001
-6.35016 10.0117 -5.64434
11.6641 5.23625 3.1523
-4.81839 -2.24616 11.9121
6.2976 -5.3666 -15.5596
7.41809 9.86841 -2.55367
3.86084 9.83338 -9.79508
0.8042 10.0074 -8.05458
-8.21444 4.01336 8.14618
9.37385 4.77153 -10.0015
10.0492 4.4348 4.02774
1.84704 5.40656 -6.01639
11.8023 -5.98284 -7.80445
-3.61136 -4.07464 -4.38594
11.7327 -9.8216 -5.50618
-2.49135 5.26573 18.8123
-4.08432 3.80134 -16.1095
7.38625 4.21036 11.8559
4.29856 -8.48156 -5.43971
-0.117856 -9.87786 -5.83171
4.75694 -6.53132 10.1247
-4.84352 -9.8513 -9.87965
-3.79648 -9.88333 -2.5425
-8.20755 -7.52679 4.5391
-6.73602 10.0168 -7.80948
3.80232 4.45392 -5.66254
-4.81753 9.87082 9.84781
8.22277 -2.81932 -17.1856
8.1681 -8.23095 -10.0084
1.81181 6.85781 18.9042
11.6543 9.90433 -1.43544
-7.84571 -9.89609 9.79693
9.33866 9.79564 9.86268
-6.21233 -3.97403 10.0055
0.143009 -10.0165 -7.9002
-8.08101 9.86478 -9.58566
1.97349 -4.57494 -6.02359
-6.40294 -2.5623 -5.4183
2.87786 10.0122 7.97713
3.98941 6.66785 11.8655
9.94036 -6.52063 10.0068
7.07778 -4.60303 -13.7419
-1.45829 3.58236 -5.04148
-0.893131 6.47604 -11.9645
5.88378 5.70014 16.9869
0.580336 2.97408 -19.0039
11.7023 -0.726367 6.12282
7.42942 0.919001 -5.93722
5.16406 8.14675 10.009
3.21029 -6.66794 -18.9567
-1.00149 9.93079 5.516
8.48792 -2.10117 -15.4545
-4.75851 -1.96809 -18.8587
11.584 -0.682611 9.89617
5.85962 -2.75841 5.32137
-8.04722 -9.8914 -8.34111
-4.63842 -6.1583 -10.0051
3.71889 4.69347 -19.0079
6.76107 4.94004 15.288
-5.03272 -0.299051 -18.8145
-3.85439 -3.91881 18.8299
3.11914 7.0648 10.0913
-4.92044 1.30231 -18.8952
1.54814 -6.18609 5.99998
-3.35661 4.73154 13.4528
-8.21381 -7.45997 -2.2285
2.50301 -6.96736 -15.3128
10.1338 10.0073 -3.91612
-5.90962 -4.0317 -4.44768
-8.16586 -6.19328 9.79693
4.68413 10.0136 7.85886
9.88899 0.182313 5.99956
8.48765 -2.09008 -11.8877
-4.09244 6.65643 -10.0017
-3.30722 4.78603 -14.648
2.75719 10.0165 -7.92801
8.93825 -1.40957 -10.0708
4.41639 -6.24924 18.8753
-5.19583 -0.118296 15.384
-8.21256 2.18027 -7.92466
9.00698 -10.0046 -2.85837
-4.25501 6.09745 -1.10604
5.75582 6.11058 4.50816
-8.21156 5.95983 8.18988
-3.84605 7.84394 -2.01456
6.00656 -2.31858 -19.007
-7.926 -1.80696 -9.94014
9.72853 -3.23317 5.04267
-3.33031 -4.78558 17.0946
-1.52949 7.92759 -4.99554
6.48571 -5.19249 -11.9571
-5.09425 10.02 -8.50861
2.6392 -6.22369 -5.94287
-0.347931 8.29628 10.005
-8.1725 4.924 -9.71462
8.46366 -2.1721 14.5834
4.42332 -0.0808088 19.0032
6.57178 -2.43418 -5.48059
-6.06392 -5.81146 -1.46999
3.89207 9.93131 5.8652
-2.01872 -5.86626 11.994
-8.20612 -5.55584 7.66656
-2.17781 -10.0141 8.48927
7.79013 -3.92741 4.5491
-1.57082 -8.21755 -10.0094
6.97103 -10.0042 -6.02283
0.642161 -6.77018 18.8549
-5.78827 10.0047 4.36586
-3.05569 -9.85019 3.75888
11.5474 -0.367861 -9.88559
0.0198737 4.54676 -5.722
-0.157208 -6.73093 -11.9006
8.09033 3.09821 -16.9985
-8.07988 -0.468948 6.17488
11.7072 -0.65723 -6.12293
0.279676 -6.83432 13.2694
-1.3438 6.00303 5.11062
-6.4848 3.87225 4.59648
-4.40397 -3.24639 13.5525
-0.558458 6.59694 -13.9798
7.71937 -9.88468 9.85099
-1.15062 10.0116 7.91604
11.6441 -6.58263 -9.86549
-4.11273 3.74259 11.887
-3.51177 5.56717 -2.83783
4.58917 6.25606 -18.85
11.8081 0.199166 -8.02309
4.24441 6.563 -13.629
6.11119 -7.87231 10.0123
5.95711 -0.615035 -5.98891
3.21808 -4.37908 19.0063
3.90307 9.93649 -5.84128
5.88251 5.6725 11.774
-0.309673 9.85466 -9.86729
7.9549 -2.90294 18.8909
-6.32088 -8.03146 10.018
9.60908 10.0078 -2.05018
6.58455 9.83838 3.88207
0.963754 6.73872 -18.8606
8.82019 1.48518 10.0963
-1.81945 5.89886 -4.78977
9.80697 -1.60858 5.78364
4.60663 -0.815906 -19.0042
-6.47583 9.78605 9.91617
1.80677 9.86569 -9.86893
6.13554 1.67195 19.0031
2.92805 8.43391 -9.9989
-5.19758 0.215649 -15.2389
8.27219 -2.68851 17.0673
10.1279 -2.86715 -5.26417
-5.49761 -10.0033 -6.43979
0.439734 5.53285 5.85112
-8.05417 6.60218 -9.85334
-8.04791 -4.66584 4.0176
-8.11723 0.855744 -6.11666
11.8109 7.70895 2.46216
-4.18241 8.02104 0.00754797
5.17362 -10.0047 -6.7938
6.69822 2.66843 -5.3804
-6.1076 -10.0202 -8.07038
6.56029 -5.131 15.3657
11.803 -4.41583 6.49661
-3.90842 -4.05458 15.2664
11.8082 -1.7914 7.81023
-5.09366 -1.21051 13.6821
-8.20442 6.49938 6.46441
-3.17625 -2.39678 5.50274
8.81565 1.64165 -10.1092
11.6944 9.79689 -8.44736
11.8079 6.38489 4.45453
-6.57209 -5.97088 10.0118
-8.20801 4.05345 -7.52662
8.45881 10.005 -4.13769
3.00007 6.91076 -11.8518
7.39646 7.9158 -2.13742
11.8059 7.70404 7.9022
-3.32049 4.79247 16.9342
-8.12843 6.17376 0.653128
6.68783 -0.431154 -19.0039
7.19143 -4.44284 11.8622
-8.20547 7.77373 -6.16955
7.93798 -6.18651 -0.119549
6.10689 5.29469 -18.9407
-0.0869338 6.42427 -5.69573
11.8088 -5.83986 8.10766
-8.15039 -3.52298 5.21883
1.96219 3.40536 -6.01053
11.5969 -9.92094 4.08656
8.39009 2.36814 12.0016
0.243341 8.29492 -5.79902
6.39481 -10.0111 -8.17999
4.2469 -9.84413 5.67706
0.755147 8.50475 -10.0034
-3.83327 -4.15717 -13.5058
8.13231 -2.98632 -13.6801
11.5969 -4.10781 9.90083
-6.35408 -10.0145 8.14813
6.06591 5.55417 -15.6909
-2.99902 -5.51359 -3.59309
8.08859 4.30101 4.1766
-8.08137 -9.86007 2.092
4.01474 -10.0101 -8.18498
11.8088 -8.03683 -0.880299
-8.20423 -4.64732 -6.25752
-4.24306 1.54479 5.80001
9.78236 10.0104 0.0291384
-4.75515 2.79406 10.1235
0.325939 6.63182 18.8557
-2.40748 -8.17613 4.27884
-5.06653 -1.38129 -11.764
-0.569024 -9.79697 -9.86154
-4.18345 -5.99654 1.44127
7.57002 7.93573 1.60184
-8.06968 -5.06192 -9.83117
11.6663 4.05104 4.71547
-2.30609 -6.38959 4.37152
4.20976 -9.92629 9.71075
-7.99052 9.95249 5.58948
4.47923 -4.30421 5.37365
2.91088 2.78586 5.89209
-2.7737 1.33537 -19.0051
-8.07572 -9.88193 -2.08982
7.50169 -4.40651 10.1219
-6.07112 5.75213 10.0079
-5.13999 -0.936314 -16.9875
-2.66253 -1.15217 19.0034
5.98858 4.1494 4.41465
-8.20451 -6.41967 -6.10935
7.78126 8.00974 -0.302361
-5.20081 -0.154659 12.0197
8.79964 0.553446 17.3418
-0.421793 4.61166 -19.0044
5.05829 8.09146 -10.001
-4.45229 3.49929 4.87014
11.8077 -8.25238 5.29938
4.79818 -0.829335 5.94835
-6.56336 1.96268 10.0022
0.0585655 -6.80013 16.9881
-8.2079 6.32803 4.59416
11.6329 -9.88022 -9.59986
3.60542 8.18913 5.71627
3.37634 1.03861 -19.0019
6.73959 -9.88698 -3.72168
-0.0387253 6.77066 16.9316
-4.86727 -6.14242 10.0029
6.14329 -4.39307 4.23845
2.72953 6.7727 -18.8891
8.69264 1.23199 15.662
-8.20402 6.15671 -7.85092
11.8063 -5.66971 5.13727
-0.922289 6.56849 10.2
-8.0664 -3.6119 -4.94198
-8.06151 9.84053 9.56539
9.65455 10.0053 2.13957
11.8055 -7.96574 1.06969
-8.2073 8.29713 -4.13446
5.09417 6.18189 15.278
9.79755 5.94381 0.846291
-5.94088 10.0073 -3.51333
-4.07365 -3.51487 -18.8299
-3.64758 -4.43071 -17.1852
9.736 10.0043 -5.95393
7.9746 6.37918 -10.0015
-1.0255 9.88066 -5.47668
1.31259 4.80756 19.006
7.90778 -6.37621 -10.0013
6.98091 4.73962 -17.2923
5.39215 -9.91836 -5.02921
5.70403 9.87746 -9.88401
-0.432551 -6.66259 -17.1467
3.82151 -2.20995 19.0028
-1.37413 -0.538959 -19.0036
-8.05438 -5.71245 -2.28595
8.24621 -3.06162 10.1369
-3.23116 0.810191 19.0043
-2.26598 5.7029 -13.4661
8.0448 -10.0033 5.3198
-8.12381 4.18283 4.59118
3.99368 2.13738 19.0029
4.98453 7.80167 -5.07239
6.23986 -5.61245 10.1235
11.8053 6.22504 -7.3317
-0.378541 -1.73279 19.0051
11.6058 1.29354 -9.91669
6.54972 4.96918 18.7386
-3.96326 3.97624 15.2917
0.719811 -4.72555 -19.0036
2.04135 2.95552 19.0021
-8.11651 1.09482 9.84258
-2.42521 5.29727 -18.8286
9.86127 -4.26885 -4.20401
0.744004 -9.77233 9.93073
5.69755 6.03972 -10.1139
-4.31391 -6.14223 -0.341916
7.68924 -3.78616 13.6981
-8.13302 5.73297 -2.57818
1.50207 -2.95291 19.0029
4.31145 -1.46523 -5.81762
3.73137 0.278597 -5.99917
-8.02846 9.89167 3.88587
6.78183 7.58616 3.32689
6.61722 9.92002 -3.99002
8.00466 -9.90538 -0.188349
11.8078 7.97509 -7.89586
11.7668 -3.49469 -9.77668
4.34143 4.52559 5.44072
2.7903 6.93064 -15.3811
2.64208 -6.94794 13.6194
-3.37763 -9.85329 9.87483
-2.43791 -5.57182 -13.6984
0.48787 0.137909 19.0025
-8.06748 9.88356 7.44673
-7.98646 4.98408 3.41189
-2.70831 5.34988 11.681
-4.26875 -3.50082 -15.3063
3.07088 -8.10713 5.85313
11.6901 -2.4274 5.71299
-8.0535 6.66061 9.92148
-6.4412 1.02975 -5.90861
11.6961 -9.8332 -7.49736
-8.21421 -1.77965 -7.95815
8.73722 1.14955 -17.1244
-2.51038 5.50854 -11.7025
5.90612 -5.46705 18.8713
11.6445 -5.84376 9.85597
9.35846 5.25358 -2.90222
8.3826 10.0092 -7.81783
11.803 3.9461 7.46511
4.11863 6.61831 17.09
8.19507 3.18313 10.1235
-3.98767 -5.84136 -1.95938
-4.98628 1.24644 18.8695
-1.4178 -6.01346 -18.8768
-8.07964 6.04169 -0.951676
8.47268 2.14445 14.098
-2.40596 7.89871 10.0096
0.433061 -0.961186 -5.94231
-1.84834 5.97974 -15.4155
-6.34141 -5.68345 -10.0102
3.56009 6.80218 -17.1829
-4.33539 6.1172 0.798209
5.96282 -9.83287 9.92775
2.84589 2.91248 -19.0029
7.74114 -5.98501 1.47728
1.85122 -2.6367 6.00679
-4.34898 -9.84797 0.478243
-3.73508 -4.2792 11.882
4.57529 -6.42916 -15.5627
7.7138 -9.86664 1.68327
-5.04962 5.25816 -2.89235
9.78011 5.88544 -1.12695
2.52649 -0.762694 -19.0025
-2.73482 -5.54581 10.1736
-5.41301 -1.28552 -10.0113
5.95108 -4.22812 -4.44966
-4.37718 -3.28051 -11.829
11.6676 -9.86132 0.092894
2.92505 6.91034 13.5817
-1.63736 6.10036 13.0174
11.5969 -8.32774 -9.90651
-4.51443 3.04362 17.0991
-1.79744 -8.3831 10.0057
1.65205 -7.27759 10.0372
-8.04121 -9.89958 0.0890849
1.66695 8.30737 6.0128
-5.18573 -0.501122 -13.4886
3.38379 -9.90309 -5.99981
-1.62516 8.03725 4.9292
7.30499 -7.6779 2.36707
9.21803 10.0046 4.06172
7.54711 -9.84813 -2.05846
11.6651 5.91741 1.72453
-4.76736 0.451578 -5.99899
-2.23844 -5.74223 -17.0601
5.12358 5.91659 18.8595
-8.08575 -8.87477 -9.8393
8.53815 0.336402 18.9605
-0.784798 -6.50848 -13.7402
7.88631 -2.3214 5.54417
7.36853 4.60334 10.1309
-1.52447 -6.1639 13.7139
6.24052 -10.0052 6.46753
-6.05543 2.29453 5.54158
0.388738 -6.86141 -15.4521
-4.39703 10.008 -4.86867
-2.98549 8.31283 3.59829
5.47767 -5.97331 -17.1901
-8.05727 8.26947 9.91326
-2.17924 9.87503 -9.79693
4.07857 -6.62438 -13.8326
2.14414 -1.04564 19.0032
-0.657306 -6.56109 15.2718
-2.77639 6.52231 3.8764
-8.2068 2.26226 7.73038
-1.84459 6.19114 -10.0842
-8.20674 0.203544 -8.07364
5.38035 6.03327 -17.2811
7.34365 4.29933 17.0879
1.17654 -6.97563 14.992
3.90408 -2.56232 5.64441
3.56988 -2.55194 -19.0027
-3.50747 -7.6574 2.79423
4.70423 6.50279 10.1418
7.19917 -4.49087 17.1956
0.586404 -6.23909 -5.89056
5.65758 -5.8556 17.1001
2.14812 9.92255 9.80079
9.41278 5.39812 2.63735
9.60709 -9.96952 9.76161
7.95232 6.14218 -0.0117744
-0.631409 1.31069 -19.0047
4.93792 -9.8669 -9.86477
4.92021 2.71935 5.37289
-0.853226 -8.16642 5.39944
7.57097 10.0026 5.64261
-8.08963 -4.76439 -3.96077
0.872243 10.0104 7.96241
-8.0737 -7.0141 -9.86499
10.1766 2.61291 -5.4035
6.40763 -5.27053 13.5825
1.10563 -2.79629 -5.96388
7.88694 9.88828 -0.940909
8.34301 2.54088 17.184
-3.20326 -7.21795 10.0018
11.6568 1.00703 -6.05494
11.7522 2.6053 -5.62463
-0.160036 6.73844 -16.4212
6.59928 -0.259659 19.0061
8.57588 1.78039 -11.7794
-2.56753 -5.25047 18.9078
-3.86505 4.40565 10.0992
11.6602 4.59412 9.84518
2.57887 -6.95732 -13.3363
8.73689 -1.06377 16.5389
-4.32034 2.82946 -18.9418
11.7738 -5.24322 -3.4598
8.79319 -0.372729 14.7066
-4.8759 2.12425 -15.4459
9.58859 0.775617 -5.96149
9.41421 -10.0032 3.24192
-5.78497 -4.79348 3.61494
-4.98881 -2.55303 5.43274
-1.4259 -5.98993 -5.06636
-4.09835 9.83914 -1.78462
1.85689 -6.99907 11.9381
-1.28214 8.13115 -10.0078
7.37674 3.87187 -18.9328
0.0364371 6.84081 -10.1572
6.037 -2.05663 19.0078
11.8099 -8.04802 7.79961
2.14836 8.40954 9.99998
-4.1261 10.0046 5.46559
11.8041 -3.64015 8.02854
-0.353409 -2.4872 -19.0034
5.08101 1.15777 -19.0045
1.09424 -8.11114 5.97661
3.18989 -6.86866 15.3729
2.1144 -10.014 -7.98472
3.43276 6.61935 18.8937
-5.18572 0.63885 -11.8093
0.117659 -7.11475 10.0443
-1.17047 10.0087 -7.73848
9.81207 -10.0101 7.40602
6.60881 10.0098 -8.22768
4.83996 6.30312 13.4982
11.8039 -5.68236 -5.73486
6.66045 -9.81301 -9.88092
6.32259 10.0051 7.36358
-8.05793 9.89459 -5.01907
11.672 8.15225 9.87169
8.6298 1.54984 -15.3327
1.73486 1.00743 -6.00334
11.5388 -9.75819 9.84241
-4.67602 2.22288 -5.57684
-0.0665298 -2.21047 5.72152
-3.92971 -1.11523 -5.89674
11.7776 9.7927 8.3684
11.3261 9.74113 -9.99729
2.22532 9.92181 6.13288
7.86097 -3.97676 -4.49445
-3.71769 4.31028 -12.3287
4.84818 -3.075 -5.27705
11.8055 -7.4646 -4.50153
7.67327 -8.00872 -1.21579
5.168 3.23787 -19.0039
-0.970916 -6.22391 18.91
-3.2933 4.92746 -10.1472
0.961123 -6.95426 -13.6751
0.579653 -0.714196 -19.0035
8.76709 0.777377 -13.5024
6.35276 -6.58828 3.92347
0.86462 -8.09232 -5.92383
-5.0187 -0.520276 18.9021
-5.04165 1.50647 -13.573
-2.77299 10.0056 -6.2901
-1.85361 3.1231 -19.0038
6.43874 -8.36215 3.76899
11.792 6.41796 -9.68364
2.88621 -9.82514 -9.90499
-8.21032 -7.94317 -7.77921
-8.20943 -3.71141 -7.88376
0.393425 9.90616 9.85219
-4.23032 6.36801 9.99945
-3.83241 5.57246 2.61251
-5.94925 -7.89007 -10.0164
-4.61893 -2.33304 18.8985
8.72115 -5.17213 -3.02874
-3.69251 4.12788 18.8707
9.68771 5.16308 10.0051
-2.6361 2.87313 5.25963
-6.65356 4.70541 -10.014
-3.64939 -7.83132 -10.0094
6.1223 -7.85771 -10.0067
-8.0694 -2.14087 5.80182
8.51265 2.48054 -5.46507
11.803 5.65261 6.23303
-6.4198 -3.49723 4.87311
3.85684 6.76679 -10.1464
11.8068 6.10701 -5.18664
11.6992 2.73537 5.62376
-8.09409 -9.78127 7.92511
-5.48373 0.305175 -10.0062
-2.96796 -9.81139 -9.87318
6.04658 -5.34665 -18.8095
-1.37778 -6.43525 10.1658
11.6768 -6.1765 0.021162
7.89114 9.85586 0.865329
-2.15783 1.10751 5.90246
1.57877 -2.77344 -19.0031
-4.07957 -7.99214 -1.065
9.66051 -4.52462 10.0051
-1.09685 4.09067 5.25765
6.47546 5.20636 -11.9461
9.83423 -8.33546 10.0144
-4.90572 2.01905 15.4004
2.85303 -4.63847 -19.0033
-5.21809 -0.598901 10.1963
-6.0314 5.55843 2.25704
3.54146 -6.80298 -17.1243
-3.1447 -4.95937 13.5641
9.84945 -5.95831 0.750971
5.4268 9.83201 -4.96839
-1.75779 -0.678448 -5.9796
11.8079 8.01083 0.539385
-0.640637 2.32951 5.58945
7.32756 4.29501 -13.5462
1.87185 -7.0155 16.9312
7.2714 -4.56035 -10.1152
2.62014 -4.41205 5.94499
11.6945 -4.99162 -9.82615
8.52868 -1.3063 18.834
11.6866 -9.84039 6.27044
-6.56938 -10.0092 4.82182
-3.80122 7.72317 2.04829
-4.26716 8.21307 10.0136
6.29717 1.0155 5.91926
-8.06519 -9.90126 -4.23391
9.87488 -1.09393 -5.90098
4.16917 -4.86083 -5.51121
-8.03153 9.89274 -3.08002
11.8066 2.34865 -7.7899
-1.23962 -4.08285 -19.0068
-5.38268 8.30894 -10.0132
7.6908 5.88613 -1.79544
8.4453 -2.52366 -5.44599
6.45209 5.23194 13.5167
3.95085 -8.35024 -10.0041
-3.86616 -4.48721 10.1018
11.6168 8.10105 -9.90693
8.70416 -1.16137 12.742
11.8065 7.60192 -3.60204
8.02293 4.05107 -4.42623
-6.22971 10.0227 8.20022
-7.97863 -2.55341 9.96176
-0.461378 0.284255 6.00007
11.5986 9.90589 5.08917
-0.179758 6.71933 12.0081
2.94238 -0.947565 5.9573
-2.16228 -3.04341 19.0078
2.31225 -1.07287 -5.99891
2.08805 7.02372 17.1543
9.95467 -10.0114 5.2673
-2.46757 -2.40704 -19.0041
0.455508 9.86786 6.03591
-8.01256 -0.249295 -9.94354
-8.12952 -9.79697 4.01888
7.0679 5.31369 3.12021
-3.67409 9.90728 3.06785
9.63946 10.0052 6.03867
0.552555 -4.27444 5.87822
11.598 9.89107 3.40025
11.5959 -3.90383 4.62416
-4.3087 -9.89201 -1.14256
8.51472 -1.36858 -18.9436
11.8069 -1.96968 -7.92851
11.8103 8.22848 4.21882
-1.89967 -3.9948 -4.76684
7.96945 3.32359 15.505
9.21831 8.15471 -10.0219
9.81791 -7.33214 -10.0077
9.70335 7.69838 10.013
8.11009 -0.402439 5.99748
-3.99139 -4.2979 -10.1157
-0.357742 -6.4794 5.60409
8.23411 -3.22293 -10.1171
2.45493 -9.80099 9.90782
-4.37155 9.91112 -0.199501
1.17001 -9.77377 -9.91502
5.88389 4.11945 -4.47062
7.70803 3.75597 13.6425
-3.23658 -4.85866 -11.848
6.95498 5.07177 -3.3226
-5.99649 10.007 6.35414
2.33385 0.971249 19.0018
1.57589 -7.00326 -11.7432
8.78288 -0.214561 -11.8125
5.44225 8.04855 4.76528
5.68202 -5.82611 -13.7923
-6.16847 10.0137 -1.5133
1.41961 1.18626 -19.0031
11.6581 -9.88861 8.16385
-6.10326 -10.0083 -2.88873
-5.13781 0.955691 17.1
-6.39774 2.71855 -10.007
1.79518 7.42162 -6.01504
1.03933 1.57716 5.96007
-3.028 9.92567 9.752
3.08853 -6.97876 10.1477
-4.60015 -2.80019 -5.31255
-8.0964 -0.86922 9.75284
4.94661 -7.9745 5.10127
-1.63424 6.1263 -17.3339
4.38801 -6.66621 -10.1235
-6.68774 5.39382 -2.61172
11.8029 -6.7697 6.45056
1.60103 -9.87244 -6.13881
-6.36554 5.96962 0.624959
-8.04897 -6.02701 1.28761
0.913803 6.95043 13.5966
9.69278 -5.90439 -1.06143
-1.1096 -4.98189 5.25889
2.47289 4.77533 5.96927
11.7457 -2.38095 9.78507
-0.731623 6.53241 14.8268
-2.49115 -5.53618 15.3726
7.06574 -9.93849 3.28127
-4.50016 -8.28404 10.0134
8.80033 -0.228836 -15.2963
-3.262 -0.267596 6.00445
4.79773 -3.98946 -19.0073
8.29338 2.31067 -18.8008
11.6994 6.14162 -0.15545
4.021 -8.37088 10.0072
-3.46814 -7.76119 -2.86502
-5.19855 1.02072 10.182
8.30253 1.48211 5.81057
-8.164 9.80009 -6.96461
-3.99294 -9.8744 2.17552
8.75627 -1.45867 10.2533
-3.15226 10.0134 -8.13448
0.200203 -9.89548 5.93949
8.18435 6.37858 10.0025
7.02251 -7.66758 -2.9481
-2.38965 5.80679 10.1056
-2.69101 -2.44685 -5.47585
6.62903 6.69222 -3.57603
3.35668 2.10905 -5.77233
5.94261 -5.78633 -10.1235
-8.08714 2.76402 5.54291
-6.00823 10.0062 2.57335
-6.2304 -3.61433 -10.0102
7.01431 -5.3092 -3.2073
10.1546 -2.40916 10.0059
-0.0168177 -10.0096 7.94129
11.5969 -1.83316 -9.88792
-2.89713 -4.94291 -18.8201
2.22484 -9.87346 6.17719
10.3103 -5.3517 -2.67146
-4.15437 10.007 7.82448
8.18947 3.2917 -10.0993
9.2019 -0.0482194 10.0205
11.8072 5.75259 8.15353
-6.27198 6.76346 -10.014
9.59291 -5.1593 -10.0027
1.21151 6.97669 15.4335
8.77231 0.73102 13.2479
0.569961 -7.18843 -10.0285
-5.09033 1.82528 -10.1484
-0.827127 -7.90129 -5.39583
1.57069 -7.01255 -17.0786
-5.12768 5.13129 -9.99925
3.06249 -3.01597 -5.86849
8.7783 0.269491 11.5514
7.94901 -0.792551 -5.95826
3.30449 8.32445 -5.79658
-4.11661 -7.97311 0.935765
10.0604 -3.12022 -10.0065
-4.17862 9.83862 1.48089
-2.58169 10.0045 6.84532
1.56906 7.00912 -17.0004
7.46704 9.87722 2.52894
-8.08848 3.0072 9.81533
-8.08691 -0.717282 -6.11621
-5.10477 -1.18213 17.0915
-6.00457 5.90999 -1.04643
4.89629 6.26935 -11.8858
0.285951 2.52382 -5.80452
4.80329 2.94559 -5.2516
8.29913 2.59492 -13.4095
1.05653 -0.688957 5.98454
5.93524 10.0045 -6.57069
11.8047 4.34681 -6.50174
3.80443 -6.71506 11.9385
-4.55876 -3.25673 10.1789
1.88105 7.08022 -10.1721
-4.65008 -2.74377 -17.0121
-4.73826 10.0064 -6.76221
-6.0793 -0.934616 -5.92924
-4.94506 1.89983 11.9732
-0.758746 -2.50288 -5.52198
1.32177 -5.03255 19.0043
6.74415 1.69846 -19.0109
2.33316 -7.193 -10.0458
-0.585384 6.4619 -18.7805
-1.19111 6.20468 18.8281
2.09126 9.90491 -6.09857
11.8055 -7.72325 -2.77082
-5.23773 -1.96632 10.0615
-1.53912 -6.15774 -15.4426
7.94084 -2.96342 -18.8964
-7.98719 -9.91523 -6.47812
2.07895 6.6049 6.01547
11.702 -5.94981 -1.73626
3.40034 -6.82886 -11.6974
6.46642 -0.973985 5.93503
-4.77746 -0.753592 5.97068
5.0654 -6.04301 5.03572
-4.41797 3.46856 -10.1043
8.77677 -0.81453 -17.1158
7.94497 -7.94415 10.0075
