1.49272 5.67385 0.429849
-3.17168 5.91706 -1.04288
-2.7686 5.37841 -1.35217
0.707067 5.60658 -5.29538
0.67537 7.04431 -4.59647
2.35998 5.01955 -0.889069
-1.27836 6.83239 -2.93704
-2.23196 6.96944 -3.14461
-2.85896 6.2487 -0.885767
-2.59765 4.98632 -2.58882
0.601642 6.73335 -5.18658
-0.0302173 6.13137 -3.42317
-2.9242 5.42598 -2.13258
0.647233 5.0159 -0.280042
-0.528041 6.54534 -5.30478
-2.25149 6.54171 -0.336467
0.721312 6.41424 -2.83662
3.12246 6.42214 -1.74445
-2.96091 6.58161 -2.9041
-1.94117 4.84651 -4.18364
1.49724 5.24136 -1.88952
-2.27262 5.26242 -0.590496
1.17694 6.35551 -2.19967
-0.0762273 5.47212 -5.33681
0.0601578 5.93986 -1.03698
1.29702 5.27416 -5.15142
-2.81786 6.70565 -2.49747
0.440214 7.01234 -0.579813
-2.92099 5.45924 -1.7072
-1.29514 7.14329 -0.279996
0.903754 5.97375 -2.79685
0.737009 5.8489 0.768653
1.38372 6.39613 -4.92769
2.09497 5.77505 0.0218117
0.210026 6.94565 -5.2269
1.59928 5.0997 -1.54163
1.77299 7.18756 -4.20497
-1.12692 5.13927 -3.35512
-1.53382 6.02877 -4.9471
1.20531 4.78555 -3.40456
-0.719557 5.30236 -3.04502
-1.29016 6.52149 -2.59622
-1.43738 6.53333 0.371024
-3.36166 6.18861 -2.14889
-2.73356 6.10526 -0.528716
-1.82567 4.69137 -1.40288
0.229151 6.45984 0.840296
2.39527 6.54433 0.0320683
-2.51699 5.09153 -3.40583
-1.10388 6.80763 0.460817
-0.771573 6.88598 -5.19727
0.0670595 6.43286 -1.05609
1.0747 6.54206 -2.78723
-1.45105 6.68053 -2.2856
0.548417 5.04977 0.716038
-0.191899 5.01554 -3.93286
2.18256 4.69972 -2.09814
1.61583 6.98156 -0.565177
0.874277 5.99432 -2.30673
-1.90017 5.0787 -0.590631
2.48248 5.18268 -3.25109
1.48759 7.06014 -3.74413
0.0889447 5.74836 -3.43436
-0.396241 6.49347 -3.39449
-2.16448 6.18168 -4.55208
1.38671 5.05644 -4.22888
-1.05985 5.46016 -1.39769
-1.2324 7.02405 -3.89748
-2.27942 6.85551 -3.5696
-2.22258 5.084 -0.984818
-0.110385 6.99036 -4.026
-2.59823 6.63758 -1.0024
2.36289 5.51689 -4.56981
1.01627 5.04939 -4.42233
1.83879 7.28094 -1.6803
1.30121 6.9632 -0.2643
-0.12228 6.11007 0.855954
2.29968 6.90044 -1.13756
1.49985 5.27368 -2.31416
-1.40474 5.11217 -1.48228
2.67397 6.48108 -0.263295
-1.55125 5.05429 -3.26666
0.754213 5.10483 -0.816002
-1.32549 5.23765 0.409763
-2.05069 4.68215 -1.73342
2.22368 5.12115 -3.5554
0.293098 5.01767 0.351775
1.26402 7.08533 -0.735423
-1.52992 4.719 -1.18319
-0.8241 5.49493 -2.76423
1.01441 6.59145 -5.05889
0.652545 6.98339 -4.16309
2.60248 5.34051 -1.00402
2.6306 5.59742 -4.30795
-0.44822 6.57858 -1.32074
1.77917 5.78458 -4.89814
-0.733108 5.12065 -3.46609
-2.5545 5.31017 -0.980571
1.0215 6.81932 0.727836
2.95133 6.53526 -1.37991
-1.93415 7.29983 -2.41385
-0.19384 5.17753 0.873735
-1.18582 5.25341 -2.9848
-0.315929 5.76719 -1.05274
-1.65452 5.87595 0.504046
-0.561854 5.24348 0.877791
-2.76598 5.73937 -0.315351
1.01927 6.70962 -3.15091
-0.260203 5.84785 -5.32374
2.04128 7.29297 -1.9882
2.64917 6.74783 -3.12334
3.13033 6.40306 -2.15429
-1.07817 6.1282 -2.5014
2.8643 5.47012 -3.32094
1.38381 7.1104 -4.13822
-3.14114 6.44948 -2.49433
-0.475425 5.224 -3.26093
1.78151 7.12373 -3.42082
-0.253849 6.24001 -1.12534
-0.925454 5.13553 0.334751
-0.670429 6.88818 -0.682939
-0.829008 5.90125 -1.48703
1.15676 5.31848 -1.54119
-2.44217 6.61699 -4.36352
2.10675 4.69818 -2.49431
-2.7323 6.52556 -4.06052
-2.46353 6.14424 -0.244633
-1.36056 5.13995 0.0449213
0.64646 6.90149 -3.76619
2.11804 5.18333 -3.91546
0.270046 6.98464 -4.26404
1.74769 5.08893 -4.04465
3.15162 6.29174 -1.01289
0.200428 4.98885 -4.05971
-1.40961 7.1189 -3.45734
-3.0087 6.53 -2.08541
1.9031 7.23211 -3.87062
-0.0991048 5.05963 0.455249
-1.435 4.93116 -4.21035
2.13918 6.96545 -3.94226
2.401 6.25946 -4.17313
1.78121 4.90312 -0.094686
-0.147739 6.96351 -3.49916
2.90903 6.39621 -0.569409
1.82404 4.98405 -2.0041
1.66251 7.09662 -0.966784
2.81943 6.68374 -1.83594
2.91293 5.44969 -1.81701
1.41209 6.78281 -2.90902
0.553441 5.16128 -5.30084
0.547951 7.03911 -5.04423
0.513774 5.44458 -3.41382
-1.73668 7.27089 -2.7577
2.45559 7.05023 -2.90283
2.84958 5.62942 -4.00652
0.898031 5.11749 -4.90765
-2.04677 7.3119 -1.99362
-3.07611 6.38377 -1.68193
-1.90224 7.00998 -3.47423
1.44478 5.63916 -5.09272
-2.60429 5.02794 -2.18133
0.660918 6.12424 -3.11304
-0.886121 5.70285 -2.46689
0.941604 5.21133 -1.17397
1.61455 6.851 0.0256037
1.39312 6.01949 -5.02332
1.82166 4.90977 -1.18052
-0.150504 6.78201 -1.10938
1.00979 5.01409 -0.463559
-2.467 6.96168 -2.52411
2.44074 7.01881 -1.9882
1.58158 5.00509 -2.78626
-1.41731 5.01599 -0.357246
0.637411 5.37591 -1.43226
-0.197018 6.59476 0.800023
-1.17571 6.34886 -2.13163
1.32137 5.15824 -4.71851
-0.542169 4.98551 -4.74423
1.06686 6.40215 -1.52848
2.91134 6.48773 -2.93671
-1.61193 6.87383 -4.52824
2.35927 5.68726 -0.297281
0.238655 6.93564 -3.78892
-1.97863 6.89114 -3.89968
0.675171 6.57156 0.811263
2.71153 5.99897 -4.00315
-1.96459 6.90527 -0.297005
-1.87466 4.88273 -1.00877
-1.76922 6.27304 0.271774
0.559637 6.91394 0.765973
0.690161 6.78974 -3.41072
-0.196828 6.26307 -5.32733
-3.16308 5.72323 -1.79573
1.16799 5.63313 -2.35857
2.15592 5.0526 -0.467667
2.39275 5.35391 -0.588238
0.272501 7.01463 -4.71313
1.03809 7.07143 -4.38123
1.12233 5.83239 0.640176
2.03528 6.74584 -0.0364621
0.771299 6.30645 -1.25847
-2.17235 4.88526 -1.37367
-2.89434 5.5784 -0.983748
2.97067 6.52794 -2.49004
1.70785 5.21063 -4.5345
-1.5408 6.94484 -2.61734
-1.62182 7.00703 -3.74886
0.182285 5.11683 0.82359
-2.64578 6.67622 -3.67251
3.02093 5.54221 -2.93691
-2.73008 6.13805 -3.94592
1.82104 5.45173 0.130919
0.29333 5.01149 -0.0822214
1.54881 5.22947 0.273
1.95725 4.87549 -1.6162
2.91057 6.11115 -3.60179
0.990736 6.13229 -5.15528
-2.52143 6.47102 -0.629814
2.82351 5.66983 -1.0353
-0.23013 5.08434 -3.45123
1.39543 5.10299 -1.18011
0.284865 5.95937 0.852136
3.20988 5.80321 -3.34347
1.71536 6.72965 0.453691
-1.22761 7.17743 0.176895
0.876082 5.20489 -3.33977
-2.97856 6.43372 -3.70652
-1.71313 7.00968 -2.1982
1.59969 6.84143 -2.54988
-0.846722 7.00426 -4.15962
-0.574335 5.02867 0.0185499
0.643989 4.99146 -4.2249
0.360324 5.62465 -1.13653
1.09221 5.40768 -3.06408
2.90802 6.02631 -0.786258
0.939108 7.13727 -1.02725
2.07038 5.3193 -0.175658
-0.987139 5.05352 -3.76915
1.69204 5.34241 -4.98927
-0.480815 7.02453 -3.88415
0.434103 5.89229 -3.34994
2.56627 6.83899 -1.56025
-2.7483 6.63473 -1.38097
-2.15125 7.11225 -2.75685
0.315927 5.55284 -5.3396
-0.0180091 6.55895 -3.41674
2.09535 6.20489 0.188918
1.79122 4.94733 -2.41816
-1.95365 4.91022 -2.97769
2.30336 4.72557 -1.64818
-1.40262 6.42912 -5.06252
0.635905 5.04767 -4.62063
-1.54082 4.88721 -0.738742
0.232339 5.0154 -4.49679
1.75783 6.21017 -4.76374
-3.36598 6.13452 -2.52188
2.86161 6.53526 -0.931837
0.132084 4.99347 -3.57453
2.04913 5.43483 -4.804
-1.4614 6.90009 0.195614
0.425957 5.19088 -1.16943
1.78255 7.05031 -2.1791
2.29576 4.93551 -2.86498
0.813071 5.69626 -3.1713
-0.174414 7.02022 0.7041
-0.074347 6.67228 -5.31522
-2.03425 6.44578 -0.0335702
-0.473309 6.97172 -4.82569
-1.35748 6.17488 0.54297
1.18932 5.48724 -1.9598
-2.35249 6.75154 -3.99163
0.623142 6.20572 0.809002
0.933286 5.24534 -5.26415
-1.36329 5.0131 -3.72492
-0.701826 5.61685 -1.17512
-2.58618 6.77048 -3.2553
0.0665112 6.96001 -0.541983
0.426032 6.5432 -1.05884
0.13408 5.05771 -0.98279
3.16369 5.6619 -2.54054
-1.36414 6.90825 -1.12903
2.47789 4.90808 -2.01339
-0.656509 6.74449 0.668183
1.05591 6.16011 -1.89635
2.29097 6.72332 -0.383594
-1.89745 5.42957 -4.55736
0.700076 4.97917 0.191263
-0.65303 6.14689 -5.2756
0.793146 5.56077 -1.71305
-2.26954 4.78047 -3.54694
1.4324 4.91087 -3.74657
-2.0869 5.20763 -4.27196
-3.0765 5.66419 -2.51047
2.19497 7.29526 -2.75786
1.07186 4.94745 -0.0518136
-2.43989 6.98731 -1.41749
-0.511339 5.10436 0.463752
-1.20086 6.95825 -4.35071
0.0298249 5.603 0.88523
2.39926 6.11582 -0.101984
-2.32971 4.69948 -2.4364
1.20271 5.36213 0.52735
1.73421 6.34341 0.452515
-3.22239 5.81334 -2.19136
-1.02108 4.97426 -5.00092
0.14236 5.10126 -5.30008
-3.00146 5.81893 -0.678313
-2.94116 6.0626 -3.56905
-1.72995 5.15873 -0.21072
-2.79227 5.70524 -3.50406
-2.23491 6.86315 -0.645212
-2.82094 5.30209 -2.5299
-1.13991 6.12432 -5.13798
-1.02377 7.11939 -3.30464
1.5716 4.73558 -3.19737
0.888413 5.98856 -1.58344
-0.953374 6.65718 -1.31456
-2.67935 5.18625 -1.80153
-0.894711 7.0696 -3.70129
1.88103 7.09773 -2.5965
-2.91029 6.5779 -3.32135
2.65751 5.22535 -2.8969
-1.88074 5.9006 -4.69944
-0.27468 6.89392 -0.701859
1.58775 6.96938 -1.80708
3.1826 6.24902 -2.69086
-2.55614 5.39894 -3.6726
-0.347171 6.91639 -5.25052
1.09324 6.88602 -3.55683
2.09188 4.76475 -0.805157
0.555978 5.98467 -5.28343
-1.60601 5.6079 -4.83125
-0.491066 6.99407 -4.35908
2.62951 6.72141 -1.17296
-0.331495 4.95717 -0.389026
0.437314 5.50116 0.824893
0.89214 5.00047 0.573939
-1.22362 4.74707 -0.968957
-1.00148 6.45173 0.613245
-1.71573 4.91335 -3.78956
3.40499 6.06446 -2.24162
-3.0761 5.67087 -1.36112
-3.18455 6.31778 -3.28319
2.74996 6.7675 -2.21934
0.864846 5.78167 -2.01202
2.49084 4.9884 -2.46636
-0.866517 4.80264 -0.872853
-0.185659 5.00573 -4.39474
2.24902 6.60799 -4.09557
-1.75793 6.72272 0.0458716
-1.64075 5.21589 -4.72101
2.59068 6.38872 -3.80938
1.39242 6.71013 0.642209
1.43656 4.91424 -0.372466
-0.417471 6.02659 -3.34814
-2.00318 6.81411 -4.30787
-2.43503 5.46185 -0.273374
-0.65591 5.01389 -5.15714
-1.74111 7.02172 -1.77546
-0.877079 7.12733 0.421535
3.06332 6.18939 -3.18347
-0.724738 4.92226 -0.430246
0.923266 7.04177 -4.96303
0.814608 6.93523 0.409299
0.585134 7.05868 -0.945853
-2.29189 7.13608 -2.25177
-0.611194 5.71913 -5.26625
1.03981 4.93395 -3.94275
-2.41255 5.9046 -4.21046
-1.30307 5.28026 -4.96338
0.65479 5.83217 -1.32303
1.87192 4.70802 -2.85491
2.14718 7.30047 -2.341
-1.02887 6.86156 -0.913781
0.968112 6.95986 -0.030109
-1.39112 7.06717 -0.686048
-0.204581 6.98174 -0.205474
2.05496 6.61568 0.298329
-2.0041 5.8995 0.292366
-1.03218 5.74925 -1.77394
1.96301 7.09647 -1.24989
0.331327 6.33228 -3.31624
-0.99511 6.99827 -0.490465
2.63021 5.68975 -0.664367
0.835059 5.42766 0.702677
-1.5787 6.76604 -4.97068
0.196448 6.93388 -0.983162
-0.991388 4.96052 -4.5596
-1.23614 5.38453 -2.59755
-1.25299 6.90561 -4.75175
0.486604 4.97327 -3.52826
1.06654 5.7079 -5.2043
-2.10185 7.31492 -1.59207
1.42935 6.91697 -3.30179
-2.61652 5.76528 -3.86421
1.92696 6.80319 -4.34168
0.548829 6.60752 -3.09085
1.48927 4.88039 0.107838
-1.81998 6.34197 -4.83428
1.53491 7.12417 -4.52207
3.39195 5.95759 -2.58307
-1.168 6.82482 -5.12547
1.90337 4.80323 -0.430278
1.33875 6.89167 -1.49675
1.29182 6.55814 -2.49757
1.48697 6.71741 -2.14864
-0.365114 5.61954 0.892499
-0.29038 5.59386 -3.36571
-0.132152 5.01866 0.0280988
-0.709845 6.72437 -3.32197
-0.580043 6.98233 -0.30534
-1.07134 6.34808 -2.89219
2.22185 7.07891 -1.60175
-1.69653 4.92129 -1.6605
2.61825 5.37791 -3.67385
-3.36395 6.06398 -1.81355
-0.789544 5.2108 -1.0508
-1.99093 4.89592 -2.5446
1.64281 4.92023 -0.78389
-1.22499 5.36906 0.760959
3.04318 5.71464 -3.70403
-1.14827 5.59752 -2.16227
1.41287 6.15337 0.568012
-3.16044 5.89701 -2.82701
-2.99526 6.30724 -1.25456
2.82672 5.32425 -2.5587
2.23105 4.73537 -1.22705
-0.483635 5.37421 -5.27789
1.86946 6.86272 -0.348054
-1.73252 7.07476 -1.37947
-0.602097 6.75917 -1.03228
-2.66907 5.50047 -0.629414
-1.57537 5.17219 -1.94827
-1.44462 6.70556 -1.90276
0.0613994 4.99585 -0.451586
-1.42065 5.34052 -2.25913
-2.08187 5.32 -0.148734
2.6365 5.11717 -1.68131
-1.90143 6.73038 -4.78064
-2.21163 6.07326 0.0443371
-1.38253 6.78029 -1.50235
-0.123585 7.02763 0.251046
-3.29529 6.00067 -1.43877
0.37611 5.05626 -4.931
-2.64913 6.85049 -2.14288
2.12587 7.23594 -3.56344
1.20514 4.94165 0.37568
2.51943 5.04898 -1.31052
0.102932 5.35529 -3.45623
2.99875 5.49821 -2.22357
-1.91024 4.8901 -3.40236
-0.955929 6.47977 -5.22174
-1.59331 6.93514 -4.13754
0.413595 6.11384 -1.10415
-1.93765 5.51796 0.441422
-1.74287 4.9072 -4.49014
1.28915 5.0636 -3.10984
2.72939 5.19897 -2.13304
2.07345 5.28451 -4.34416
-1.09789 6.49146 -1.71336
1.30391 6.57326 -1.80611
2.74175 6.48375 -3.4083
1.05642 6.33049 0.720245
-2.34712 5.49024 -4.07887
-0.659304 5.72864 -3.14948
2.06003 6.35351 -4.46358
2.05285 6.90948 -0.771553
3.38095 6.12118 -1.82591
1.35323 5.34158 -2.70906
0.905049 7.04572 -0.545987
-0.664967 6.38391 -1.57093
0.178779 6.93473 0.78552
0.138725 5.96416 -5.33055
1.58495 7.24982 -1.40277
2.42091 6.7563 -3.67993
-0.882089 5.94485 -2.15046
-2.39532 4.90715 -1.77735
-2.3407 4.74415 -3.18485
1.80679 4.94746 -3.58045
2.82228 5.45592 -1.40208
0.266298 6.99702 0.401908
3.12012 5.78344 -1.60999
3.29459 6.20684 -1.41209
2.39308 5.94668 -4.38335
-1.29653 5.42065 -1.77978
-0.838657 5.65201 0.836174
-3.02099 5.86889 -3.18646
2.43313 5.37406 -4.07384
-0.0699193 6.99299 -4.95536
2.04026 4.90369 -3.21142
-1.59635 7.19131 -0.114801
0.0090458 5.45184 -1.00752
0.264951 6.8165 -3.35336
-2.58086 6.83434 -2.86731
1.09908 5.67476 -2.75387
-1.39456 4.92166 -4.74222
1.21879 5.05289 -0.807885
-1.82886 7.14021 -3.12328
-1.77659 7.25953 -0.468025
-0.999597 5.0291 -0.113463
2.09346 5.90254 -4.65387
-0.815828 6.16826 -1.86337
-0.905865 7.09078 -0.0535474
2.16726 7.2812 -3.15949
-0.578281 5.04349 -3.84514
-0.258224 5.04609 -5.24426
-2.12376 4.80914 -3.87461
-0.559976 6.35519 0.76845
-1.69118 5.11611 -2.41395
2.65482 6.046 -0.418717
-0.389919 5.31687 -0.972933
-0.510991 4.86792 -0.827273
0.551705 6.9758 0.133682
1.33636 6.79328 -4.83751
3.06161 5.90606 -1.21719
0.409614 5.04859 -0.645614
1.68717 6.6471 -4.64193
-1.58904 5.13348 -2.81333
1.78244 7.05029 -2.99868
1.26045 6.88161 0.278301
-2.32614 6.98281 -1.02138
-2.24084 4.68717 -2.1021
-1.76169 5.30181 0.186029
-2.63031 5.0941 -2.97401
-0.511922 7.08407 0.5736
-2.50507 5.706 -0.0105671
-1.88982 4.90982 -2.07738
1.78473 5.92222 0.312934
1.04799 6.75411 -1.29183
3.32829 5.88994 -2.9622
-1.99695 7.26147 -0.78928
-0.855562 6.95544 -4.68388
0.660222 6.36076 -5.21894
0.860211 4.84332 -3.54122
-2.48387 6.26611 -4.29137
-2.18599 6.62565 -4.61574
-1.14612 5.06779 -1.186
-1.11713 4.89134 -0.552603
0.856874 6.23805 -2.53602
-0.944851 6.06493 0.727919
2.46816 7.05468 -2.43811
0.200097 6.98848 -0.100138
-1.26784 5.69201 -5.03813
0.573299 4.93081 -3.86471
-1.60169 5.43833 0.617987
-2.48222 5.11694 -1.39391
-2.32446 5.12072 -3.86893
3.2116 5.76987 -2.0475
-0.600054 5.00339 -4.28349
-2.75112 5.42324 -3.23814
-0.530961 5.96661 0.835188
2.5096 6.69542 -0.720559
-0.561956 6.07042 -1.27134
0.725042 6.73788 -1.10945
-0.0837192 5.01424 -4.84914
1.27843 7.20311 -1.17499
0.620946 6.99699 -0.249793
-0.524309 7.06057 0.139456
-3.29622 6.27996 -2.908
-1.02493 4.99506 -4.14562
-1.68778 7.14177 -0.961207
-2.14228 5.70395 -4.41432
1.20951 7.11461 -4.73289
-0.167803 4.9508 -0.863462
1.0384 6.98575 -3.94779
-1.00118 6.66573 -3.13369
-0.109811 6.99311 -4.5034
-2.40908 7.06824 -1.8308
-2.35462 4.71593 -2.8167
2.70549 6.79146 -2.67292
-0.550945 7.03273 -3.45975
-0.909159 5.93973 -2.87667
-0.938993 5.82279 -5.1834
-0.758003 6.24898 -3.1966
-1.27338 5.77258 0.696038
2.40811 6.9745 -3.35866
-1.42677 7.20995 -3.06424
-0.920758 5.38727 -5.1538
0.256697 6.42355 -5.29525
-2.24601 5.55868 0.208321
-2.07546 7.30225 -1.20123
-2.90264 5.5095 -2.88629
-2.74042 6.73781 -1.75925
-0.897139 5.25846 0.795916
