-0.194395 -0.568921 -0.312826
-0.643419 -0.651778 0.326782
-0.0448069 -0.477994 0.0788166
-0.0188323 0.138343 0.735889
-0.474116 0.174273 0.08131
-0.627686 -0.400813 -0.871013
-0.0300568 -0.0130113 -0.932579
0.303883 -0.687209 -0.704384
-0.388684 0.194136 -0.864025
0.381608 0.0850117 0.180783
-0.282367 0.237749 -0.399369
-0.725765 -0.549927 -0.153712
0.122745 -0.410154 0.190516
-0.0940664 0.127239 0.130481
0.647985 -0.503073 -0.574729
-0.780141 -0.184726 0.604009
-0.589523 0.587622 0.756747
0.895106 -0.351604 -0.716213
-0.959576 -0.291747 0.0678111
0.4195 -0.622795 -0.737927
0.365772 -0.512309 -0.996093
0.400489 0.247929 -0.0647471
-0.0540029 0.212113 -0.930836
0.74203 -0.379394 -0.580816
0.729625 -0.422645 -0.260043
-0.599009 -0.387754 -0.597381
-0.812858 -0.471153 -0.359159
-0.522858 -0.573923 -0.0769553
-0.382787 -0.396358 0.232879
0.207772 0.397354 -0.742114
0.3812 0.293282 -0.92274
0.383315 0.237842 0.00986437
-0.465229 -0.57944 -0.123355
-0.820688 0.0301726 -0.428813
0.522051 0.314058 -0.288012
0.780539 -0.199273 -0.917243
0.937684 -0.308099 -0.692264
-0.0800922 -0.713018 -0.328107
-0.651464 -0.429288 0.591656
-0.257373 0.0598217 0.200156
-0.580903 0.220622 0.649499
0.0176444 -0.734524 -0.259872
-0.193618 0.0500269 0.172916
0.736754 0.066678 -0.153859
0.460546 -0.645172 -0.32436
-0.893807 -0.307002 0.0217978
0.123458 0.450392 -0.638334
0.904397 -0.214625 -0.508022
-0.6106 0.198799 -0.0714301
-0.249626 -0.603274 -0.971924
-0.923656 -0.221025 0.44237
-0.645361 0.0791026 0.221489
0.193819 0.446899 -0.603637
-0.613903 -0.528046 0.020108
-0.124574 0.0426206 0.587765
-0.428539 -0.6014 -0.237726
-0.280601 -0.0743403 0.730463
-0.707423 0.0574965 -0.502344
-0.255476 -0.184876 -0.982484
0.0902948 0.214849 0.0571843
0.739849 0.144565 -0.332
0.26932 -0.165087 -0.997425
-0.806532 0.0149226 0.338201
-0.644292 0.724935 0.7448
-0.0987419 0.0864865 -0.928852
0.243015 -0.128529 0.269085
-0.525393 0.0164607 -0.710355
-0.641279 0.740829 0.869088
0.591206 0.216416 -0.718256
-0.375417 0.32549 -0.971459
0.345693 -0.65981 -0.775101
0.648094 -0.537361 -0.283062
-0.845474 -0.0845836 -0.454953
-0.102681 -0.469572 0.0486903
-0.864936 -0.360302 -0.00488491
0.667338 -0.489292 -0.633489
0.683641 -0.363818 -0.883327
-0.542104 -0.148173 0.609006
0.634584 -0.540225 -0.462588
-0.910673 -0.0789934 -0.208658
-0.44238 0.0955644 0.186468
-0.345387 -0.343731 0.176715
-0.02533 0.49655 -0.483305
-0.555425 -0.504195 -0.804356
-0.760881 -0.540085 -0.222478
-0.495065 -0.206409 0.60012
0.754564 -0.0501239 -0.927501
-0.101654 -0.547478 -0.629682
0.334218 0.419405 -0.411526
-0.716543 -0.383077 -0.536478
-0.900533 -0.247666 0.00853272
-0.545566 -0.0107038 -0.645338
0.63919 -0.00308001 0.061812
-0.250655 -0.611331 -0.90061
-0.68648 -0.124654 -0.846498
-0.955558 -0.471752 0.0954534
0.0892983 0.336936 -0.871738
0.27581 0.265217 -0.991231
0.600475 0.156956 -0.0352715
0.621597 -0.328631 0.0773824
-0.322434 0.0783104 0.208109
0.46863 -0.620568 -0.636675
0.746027 0.106778 -0.412218
-0.287419 -0.0320191 0.238287
-0.899549 -0.297096 -0.042365
-0.133304 0.38786 -0.67894
-0.61619 0.670583 0.895363
-0.449634 -0.617855 -0.314436
0.800746 -0.0253045 -0.314803
0.570435 -0.574301 -0.482916
-0.505022 0.0670869 -0.670904
0.104499 -0.621108 -0.832244
0.444819 0.365754 -0.449266
-0.805729 0.411236 0.759811
-0.770829 0.0504071 -0.471313
-0.0064156 0.453605 -0.668681
-0.909818 -0.278296 0.566175
-0.927878 -0.504287 0.302381
0.62849 -0.189169 0.0942865
-0.590831 0.435144 0.622637
0.799705 -0.387167 -0.798255
-0.207898 0.311399 -0.263762
-0.279202 -0.540301 -0.667178
-0.67239 0.653787 0.933465
-0.0865034 -0.0528748 0.202733
0.738441 0.0141326 -0.10249
-0.17017 0.370493 -0.871856
0.704648 -0.258703 -0.0157057
-0.746814 -0.724718 0.192435
-0.752207 0.0402265 0.375826
-0.5404 -0.424994 -0.80503
-0.473282 -0.0524796 -0.985708
0.566667 -0.55403 -0.544971
-0.0539852 0.15511 0.803853
0.0443432 0.234108 0.0241195
-0.398203 -0.18961 0.37833
0.724558 -0.0401957 -0.0500096
0.617731 -0.339513 -0.921936
-0.766558 0.198872 0.70994
-0.20681 0.373979 -0.49807
-0.700263 0.075593 0.164675
0.516858 0.335814 -0.44115
0.884867 -0.190897 -0.856035
-0.722283 0.442057 0.601567
0.348551 -0.706165 -0.589239
0.0170294 -0.508338 0.0580692
-0.218528 -0.068444 0.222637
0.110935 0.109088 -0.927474
-0.359622 -0.585426 -0.239698
0.0582689 0.487028 -0.464992
-0.396494 -0.0834217 0.317757
0.670256 0.186689 -0.601665
0.0465419 -0.628073 -0.821319
-0.389261 -0.455545 -0.977985
-0.841187 0.029284 -0.0703921
-0.759797 0.229647 0.543136
-0.452345 0.106618 -0.830067
0.118405 0.180932 0.111495
-0.594564 0.745845 0.900824
-0.212474 -0.524026 -0.6227
-0.81466 0.0735625 -0.109812
-0.514813 -0.437976 -0.976697
-0.328355 -0.105587 0.682906
-0.463473 -0.354426 0.561769
-0.890562 -0.43194 0.0503242
0.634707 0.206761 -0.665327
-0.0751568 0.297602 -0.101964
0.716294 0.162456 -0.273167
0.504315 -0.479934 0.00319409
-0.336825 0.245177 -0.360158
0.215184 -0.660148 -0.808113
-0.349017 0.135623 -0.795559
0.245976 -0.058836 0.262754
-0.485119 -0.543597 0.193185
0.314347 -0.0779763 0.262921
-0.693748 0.329381 0.799773
0.177695 -0.037888 -0.938614
-0.901659 -0.181596 -0.377219
0.347224 -0.722716 -0.343578
-0.139382 -0.245157 0.194064
0.540087 0.225496 -0.824623
-0.710378 -0.152625 0.61063
-0.0210918 -0.0916035 0.224658
0.031209 0.101229 0.675945
0.31386 0.104151 0.185937
-0.303224 -0.11137 0.575311
-0.00719371 0.281851 0.822187
-0.225807 -0.360764 -0.980511
-0.586485 0.669618 0.750766
0.34913 0.385948 -0.731365
-0.857012 -0.569177 0.0209408
-0.158245 -0.0214024 0.188733
0.693506 0.135802 -0.14722
0.253871 0.356017 -0.173311
-0.0482385 -0.369931 -0.935073
-0.137328 0.459387 -0.289226
0.217648 -0.7042 -0.194485
-0.292067 -0.0598117 0.512773
0.317814 0.394202 -0.655973
-0.662105 -0.585517 -0.3286
0.233422 0.43152 -0.54655
-0.116238 0.0488465 0.168898
-0.948537 -0.158102 0.0707438
0.564455 0.270775 -0.22646
-0.216663 -0.415768 0.116544
0.414649 -0.677089 -0.355026
-0.974269 -0.223857 0.271501
-0.689016 -0.527874 -0.427569
-0.686101 0.0244279 -0.549253
0.476725 -0.582113 -0.772394
-0.747133 0.180511 0.580027
-0.0635352 -0.600666 -0.619363
-0.8039 0.00603653 0.41954
0.372764 0.398294 -0.46126
-0.313817 0.182143 -0.53981
-0.84203 -0.494388 0.0158943
0.282208 -0.53424 -0.995051
0.372739 -0.295571 0.241759
-0.437316 0.162303 -0.52719
-0.941797 -0.277188 0.39048
-0.301732 -0.570343 -0.201619
-0.14572 -0.51097 -0.584028
-0.0631376 -0.672676 -0.494065
-0.428765 -0.0536253 0.378901
-0.0648308 0.482926 -0.544108
-0.0668547 0.00927833 0.644032
-0.913056 -0.265149 -0.304499
0.0247901 -0.686916 -0.658336
-0.544201 -0.588567 -0.147866
0.376525 -0.70202 -0.402217
-0.890906 -0.131898 0.0136083
-0.0131126 0.193606 0.850633
-0.0194602 -0.218326 -0.9377
-0.820848 -0.666752 0.363169
-0.201072 -0.284369 0.197484
-0.235763 0.202453 -0.929857
-0.490329 0.214253 -0.430845
-0.472877 -0.398903 -0.628989
0.136947 0.422711 -0.708325
0.224152 -0.498054 0.115962
-0.0861581 -0.422847 0.11497
-0.327226 0.366532 -0.9377
-0.88216 -0.0636372 -0.346861
0.093007 0.135634 0.15141
0.142814 0.302625 -0.131178
0.00662583 0.254592 -0.0129731
-0.670499 0.171407 -0.122816
-0.529357 -0.410371 0.584338
0.40229 -0.628668 -0.185448
0.2698 -0.242422 -0.994875
-0.237801 0.380728 -0.895472
0.215545 -0.598805 -0.861944
-0.406653 -0.11842 0.385602
0.157196 -0.75163 -0.400969
-0.958107 -0.373532 0.298895
0.0141493 0.201912 -0.93005
-0.866235 -0.661036 0.314283
-0.670296 -0.649655 0.399531
0.214932 0.410271 -0.198234
0.0111532 -0.69624 -0.206133
-0.741393 0.398314 0.535052
0.433218 0.170587 0.0899965
0.281111 -0.686269 -0.769819
-0.296346 -0.571019 -0.462467
-0.8969 -0.1907 0.0078
-0.222355 -0.000193791 -0.9319
0.00281754 0.389547 -0.804097
0.218008 -0.443447 -0.933449
0.0689409 -0.657393 -0.164121
-0.502506 0.113417 -0.881302
-0.384572 0.261878 -0.189552
-0.844304 -0.161899 0.581095
-0.638847 0.0673776 0.417188
0.918451 -0.237671 -0.814882
-0.0351942 0.0644201 -0.929343
-0.740768 -0.236997 0.614129
0.571848 0.300134 -0.44775
0.810321 -0.239383 -0.450857
-0.619548 0.00646823 -0.983087
0.552325 0.0961743 0.0753385
-0.868285 -0.0769345 0.0216333
0.645363 0.0946874 -0.858613
-0.899112 -0.356292 0.555375
0.727018 -0.312393 -0.076323
-0.443326 -0.193424 -0.973732
-0.68658 0.0448846 -0.971702
-0.0708083 -0.705856 -0.880465
0.258304 -0.20171 0.270157
-0.227068 0.117301 0.132177
-0.681089 -0.0256763 0.624163
-0.356235 -0.568066 -0.495009
0.394952 0.29236 -0.117612
-0.615705 -0.535853 -0.468967
-0.101096 0.488101 -0.488031
0.135728 -0.317043 -0.9375
-0.897593 -0.0209081 -0.175018
0.551684 0.149117 0.0174131
-0.608231 -0.113883 -0.644018
-0.699025 -0.533711 -0.081025
0.806234 -0.335267 -0.848687
0.653705 0.107935 -0.758915
-0.262879 -0.255041 0.22205
-0.625356 0.553359 0.822656
-0.248237 0.147841 -0.643834
-0.443042 0.113114 -0.682012
0.789673 -0.306564 -0.461716
-0.94065 -0.373593 0.491684
0.050521 0.326821 0.97168
-0.664948 0.0052414 -0.856697
0.985164 -0.226673 -0.601069
0.3106 -0.330487 0.24206
-0.45417 -0.226502 -0.709441
0.488179 -0.523097 -0.811197
-0.477174 -0.411576 0.5505
0.268063 0.424238 -0.600581
0.209395 -0.733029 -0.634672
0.103906 -0.178661 0.255533
-0.883677 -0.391467 -0.280401
0.468461 0.332699 -0.7665
-0.570846 0.0977304 -0.907219
0.584064 -0.503702 -0.742236
-0.410955 -0.00263155 0.489429
-0.0838317 0.457383 -0.593051
0.272888 0.203406 -0.98931
-0.173607 0.219877 -0.927819
0.0257878 0.0491024 -0.929875
0.529994 0.283681 -0.719764
-0.957911 -0.22601 0.060935
0.143521 0.374639 -0.833492
0.426477 -0.564967 -0.900238
-0.575589 0.100861 -0.970289
-0.488419 -0.473853 0.329255
0.955099 -0.293821 -0.627784
-0.765718 0.368608 0.80089
0.694175 -0.375212 -0.084635
-0.60973 -0.00402155 -0.824029
-0.0781588 0.496461 -0.420598
-0.466091 -0.253942 -0.821978
-0.514604 -0.0831615 0.63832
-0.211627 0.41418 -0.425307
-0.173866 -0.33911 -0.94166
-0.310479 0.198923 -0.978043
0.48051 -0.00331555 0.185539
0.823573 -0.128628 -0.49884
-0.15517 0.403317 -0.243047
-0.448427 -0.431392 -0.696696
-0.303696 0.211202 -0.465324
-0.655463 -0.465639 -0.958906
0.756829 0.103154 -0.276808
-0.49225 -0.342057 -0.809181
-0.173592 -0.488668 0.0178421
-0.700311 0.25209 0.769649
-0.734281 0.341134 0.592864
0.134678 -0.753249 -0.506918
-0.747289 0.0406132 0.457005
-0.0778206 0.349989 -0.965779
-0.879477 -0.142753 0.534256
0.465424 0.356388 -0.389825
0.0548929 -0.293451 -0.937702
-0.639753 -0.603951 -0.264621
-0.804946 -0.687233 0.16211
-0.194617 -0.408937 -0.94052
-0.428221 0.189997 -0.463215
-0.807715 0.469626 0.791709
0.668534 -0.146456 0.0464236
0.838262 0.0910966 -0.716611
-0.795954 -0.729217 0.234216
0.162876 -0.462541 -0.93555
-0.500129 0.173583 -0.496397
-0.913474 -0.156111 -0.0534921
-0.142705 0.19827 0.046515
-0.707338 0.268061 0.493716
-0.152511 -0.385469 0.12713
-0.837295 -0.0903982 0.549682
-0.908502 -0.127749 -0.328237
0.141358 0.403869 -0.776096
-0.6814 0.104294 0.0369934
-0.725431 0.635679 0.867183
0.134287 0.461191 -0.259801
-0.0150582 -0.0877916 -0.934847
-0.110549 0.105848 0.833751
0.341303 0.351753 -0.816372
0.453187 0.0618691 0.165696
-0.578942 -0.633016 0.125275
-0.657544 0.113654 -0.500695
-0.66276 -0.570692 -0.134155
-0.384998 0.265856 -0.881946
-0.326319 -0.403233 0.127826
0.0664448 -0.568354 -0.985664
0.303824 0.412594 -0.54926
-0.822024 0.0746606 -0.346092
0.404098 -0.235944 0.242369
0.410939 -0.642677 -0.669833
0.203653 -0.0796396 -0.984383
-0.587493 0.368108 0.587154
-0.726372 -0.03372 -0.900798
-0.122037 0.363671 -0.744302
-0.208309 0.223228 0.00198273
0.666996 -0.294974 0.0368153
0.154111 0.0383493 -0.929519
0.346226 -0.568787 -0.982074
-0.669069 -0.498727 0.559447
-0.59996 0.725617 0.714688
-0.526057 -0.128966 -0.734008
0.64387 0.253542 -0.352148
-0.592976 0.0364901 0.563244
-0.2106 -0.59693 -0.246169
-0.610743 0.456972 0.770568
0.271404 -0.746067 -0.345297
-0.545395 0.16267 0.0678813
0.419847 -0.16426 0.23872
-0.85884 -0.152992 -0.440394
0.860769 -0.334545 -0.79609
0.181866 -0.735329 -0.55652
0.0399012 0.176972 0.106755
0.809082 -0.20141 -0.379082
-0.783741 0.118157 -0.14237
-0.673119 -0.499374 -0.483756
0.801602 -0.274947 -0.387716
0.428643 -0.448732 0.113355
-0.777291 0.0218127 0.0645164
-0.216508 -0.597616 -0.835189
-0.111838 0.224885 -0.934246
-0.501521 0.127522 0.134134
-0.172853 0.437841 -0.487579
0.398161 -0.412785 0.171883
-0.919563 -0.0693888 -0.284672
0.472557 0.36365 -0.572087
-0.575165 0.381646 0.662228
-0.584449 -0.545358 0.407329
-0.654723 0.0834956 0.101536
-0.817377 -0.14185 -0.49818
0.448721 0.337957 -0.26345
-0.134756 -0.140118 -0.937942
-0.901174 -0.256524 -0.374532
0.408256 -0.606378 -0.11798
-0.784556 -0.505113 -0.158292
0.482131 -0.521244 -0.942331
0.038354 -0.0281816 -0.933329
0.162242 -0.699789 -0.699227
-0.912934 -0.402171 0.367707
0.422323 -0.270899 -0.994223
-0.934742 -0.155898 -0.114007
-0.830414 -0.212326 -0.49175
-0.37435 -0.378836 -0.984507
-0.137248 -0.532332 -0.957246
0.155278 -0.609954 -0.850609
0.533045 0.167104 -0.8514
-0.779906 0.0871476 -0.403332
-0.887301 -0.329924 -0.329616
0.541166 0.198246 -0.0462044
-0.650802 0.55553 0.57273
-0.543435 -0.58038 0.169917
-0.699615 0.591009 0.592354
-0.106116 -0.656989 -0.284232
-0.858967 -0.40654 -0.0719984
0.421693 0.123133 0.14082
-0.542279 -0.266055 0.607181
-0.500737 -0.182166 -0.788232
-0.740714 0.257192 0.609455
-0.751426 0.0554322 0.303996
-0.377222 0.168974 -0.572898
0.524874 -0.36882 0.139462
-0.470297 -0.279364 0.580191
0.109337 -0.747067 -0.459547
0.0469022 -0.749175 -0.329507
-0.669953 -0.522974 -0.0084473
-0.599445 -0.580183 -0.898124
-0.237919 0.343644 -0.440574
-0.492901 0.0995649 -0.608935
-0.104729 -0.598502 -0.216477
0.114105 0.486403 -0.411078
0.411539 -0.549834 -0.0612055
0.916371 -0.300324 -0.768203
-0.171167 -0.0133936 0.580671
-0.459478 -0.36331 0.488094
0.179229 0.145958 0.143283
-0.77154 0.0516648 0.139566
0.636638 -0.455073 -0.752337
0.809137 -0.0841882 -0.344134
0.616624 0.10868 -0.795938
0.6348 -0.497708 -0.689151
-0.211884 -0.662106 -0.895011
-0.801313 -0.36487 0.592395
-0.196205 0.292681 -0.637508
0.411086 -0.331142 -0.994438
-0.570332 -0.0840664 0.594163
-0.317688 0.149149 -0.611375
0.653003 -0.437161 -0.0943078
0.717937 -0.175183 -0.948444
0.215099 0.178012 -0.937462
-0.435972 0.208286 0.025877
0.31235 0.24959 0.030097
0.627584 0.255025 -0.426369
-0.458515 -0.491971 0.252111
0.0681899 -0.0957059 -0.935121
0.358579 0.0299357 -0.996747
-0.206932 -0.351168 0.165638
-0.634801 0.366966 0.525101
0.143072 -0.497774 0.111933
-0.0871533 -0.0736795 -0.9339
0.347416 0.283223 -0.975836
-0.803443 -0.626865 0.0275088
-0.957398 -0.158973 0.289212
-0.829685 0.0849303 -0.182105
0.75707 -0.377203 -0.455159
-0.753446 0.305113 0.53822
-0.954681 -0.575974 0.215601
-0.858627 -0.519261 0.48702
0.49559 0.351247 -0.507071
0.672534 -0.219259 0.0389898
-0.0252286 0.234214 0.749307
-0.694882 -0.690037 0.33529
0.411508 0.313893 -0.19963
-0.351053 -0.559735 -0.84264
0.502999 -0.0711005 0.18944
-0.112857 -0.527033 -0.696047
0.0191226 0.194 0.786644
0.0828771 0.301375 0.892179
0.63155 0.160762 -0.725559
-0.0251588 -0.167958 0.228141
-0.616993 -0.519421 -0.861445
0.34022 0.406914 -0.338491
0.898643 -0.345676 -0.635682
0.543632 0.0477915 -0.946904
0.0852852 -0.723042 -0.632504
0.734374 -0.254081 -0.927085
0.154891 -0.62322 -0.907664
0.655984 -0.0717795 0.0577833
-0.44901 -0.452264 -0.605689
0.637142 -0.369187 0.0290349
-0.497022 -0.540631 -0.801053
-0.897086 -0.0113138 -0.248355
-0.473421 -0.00626897 0.371277
0.75397 -0.281426 -0.134894
-0.618228 0.195248 -0.14389
-0.575194 0.0338199 0.493581
-0.77123 0.116551 0.590211
-0.172927 -0.589628 -0.981788
-0.443172 -0.306374 0.436511
-0.375827 0.22368 -0.013129
-0.47495 -0.0399071 0.669094
0.760063 -0.0543404 -0.113905
-0.109611 0.0715639 0.911014
0.410638 0.018796 0.210208
0.430674 0.385952 -0.515848
0.525473 0.239214 -0.102585
-0.314282 0.112125 0.69786
-0.506423 0.0693155 -0.812508
0.706201 -0.0961333 -0.956057
-0.565719 -0.178204 -0.82601
0.612206 0.11134 0.0145662
-0.756015 -0.507562 -0.0904758
-0.490396 0.122094 -0.554856
0.684224 -0.026862 0.00768526
0.803159 -0.241217 -0.321254
-0.497999 -0.248772 -0.984197
-0.0674717 0.248906 0.820451
-0.0611298 0.387505 -0.776428
-0.608723 0.158136 0.658708
0.499683 0.156205 0.0635587
-0.250053 -0.501264 -0.00534156
-0.28903 0.0252094 -0.950809
-0.251433 -0.588587 -0.328469
-0.369296 -0.221075 0.307327
-0.778305 0.141643 -0.208796
0.271189 -0.421897 -0.935685
-0.945706 -0.272434 -0.22269
-0.731473 -0.646707 0.42914
-0.883542 -0.0230776 -0.0957091
-0.189517 -0.531417 -0.0479511
-0.214356 0.197585 -0.76209
-0.752054 0.069336 0.0204792
0.7692 -0.343691 -0.518893
-0.645881 0.297807 0.499002
-0.627145 0.063966 -0.879618
-0.533019 -0.506859 0.509875
-0.139881 0.234808 0.00513851
0.542641 -0.0232144 0.148934
0.821593 -0.0686735 -0.512701
0.160038 -0.737914 -0.244803
-0.835558 -0.57882 0.451326
0.172283 0.276391 -0.989349
0.0807088 0.190274 -0.930046
0.211261 -0.707101 -0.754053
-0.620708 -0.150918 0.605651
-0.911989 -0.508765 0.0420914
0.319796 0.360517 -0.198487
0.895684 -0.0839507 -0.512297
-0.573864 -0.621259 -0.268012
-0.138568 0.207391 0.822391
0.0239394 0.103808 0.147993
-0.340008 0.0208 0.790994
0.385539 -0.100034 0.248585
-0.467629 -0.359832 -0.725442
-0.448308 -0.510564 0.014153
0.579946 -0.239759 0.137588
0.699007 -0.100683 -0.00111392
0.232899 -0.748523 -0.409711
-0.116852 0.349227 -0.816678
-0.755741 0.536685 0.888454
0.280255 -0.5568 -0.084519
0.459016 -0.679065 -0.410259
0.280592 0.379019 -0.783426
-0.269272 -0.384729 0.15765
-0.56054 -0.357 -0.8444
-0.835341 -0.405351 -0.398338
-0.888281 -0.00736961 -0.317976
-0.243634 -0.526814 -0.804624
0.288418 -0.668388 -0.1787
-0.349895 0.256133 -0.131616
0.768563 -0.00219594 -0.168528
-0.793899 -0.543119 0.510274
0.238008 -0.335563 0.243353
-0.341991 0.213237 -0.817071
-0.216993 0.184459 0.0725114
-0.634838 0.739442 0.803309
0.55933 -0.481948 -0.0294338
-0.27338 0.203043 0.0509239
-0.449729 -0.485433 -0.97674
-0.0490393 0.275861 -0.0309136
0.560632 0.2524 -0.76581
-0.227482 0.375444 -0.363181
0.689211 -0.462829 -0.205197
0.117944 -0.63319 -0.974398
0.522666 -0.584025 -0.58552
-0.661652 0.20622 -0.298032
-0.428499 -0.332363 0.369498
0.174757 -0.324013 0.246126
-0.86766 -0.676774 0.198745
-0.419618 -0.53557 -0.505909
-0.258077 0.213281 -0.512607
0.342073 -0.629694 -0.168195
0.272974 0.446998 -0.432978
-0.601042 -0.604669 -0.341188
-0.404615 -0.605021 -0.184373
-0.737676 -0.252135 -0.578356
-0.153743 0.0338767 0.876118
0.53939 -0.438535 0.0472441
-0.761625 -0.599353 0.476624
0.071871 0.383677 -0.827604
0.0460438 0.337049 -0.924613
0.0891757 -0.757631 -0.387666
0.44613 0.207506 -0.923775
-0.781716 0.439965 0.822653
0.254236 0.26073 -0.0292286
0.782253 -0.247215 -0.194369
0.0457595 -0.496822 -0.931494
-0.532995 -0.140531 -0.675365
-0.61145 -0.0403002 -0.629031
-0.285608 0.157981 0.105935
-0.139025 -0.46322 -0.93
-0.0776151 0.269938 -0.988493
-0.436099 -0.0962703 0.687854
-0.0198767 -0.396541 0.157718
-0.646267 -0.469224 -0.896912
0.00757898 0.424985 -0.733417
0.802836 -0.0292017 -0.398606
-0.198205 0.0931754 0.587579
0.607746 0.06091 0.0578446
-0.413995 0.0120783 -0.984983
-0.438718 -0.491725 0.162254
0.00294683 -0.542909 -0.0012398
-0.294943 0.0680384 0.819834
-0.407785 0.25298 -0.332626
-0.615392 -0.702917 0.126937
0.875086 -0.104194 -0.861398
-0.616361 0.0809806 0.150335
-0.66364 -0.155727 -0.630384
0.428477 0.0595982 -0.987082
0.262767 0.0925178 -0.9364
0.371257 -0.671448 -0.719494
0.580281 -0.560545 -0.206692
-0.733916 0.173613 -0.332206
-0.740062 -0.608894 0.00984063
-0.046023 -0.711505 -0.271685
-0.954452 -0.550769 0.0891289
0.279362 -0.70994 -0.228859
-0.578699 0.161655 0.596624
0.800191 -0.13549 -0.236074
-0.771095 -0.192555 -0.544238
-0.928994 -0.0699301 0.151402
-0.617288 -0.565578 -0.960108
0.957963 -0.249673 -0.747153
-0.627857 -0.568901 -0.40394
-0.537141 0.0473693 0.339898
0.598812 -0.483045 -0.096707
-0.630833 0.209895 0.716906
-0.611939 0.173865 0.478328
-0.516232 -0.506988 -0.9767
-0.274582 0.151576 -0.92692
-0.0145288 0.179203 0.675738
-0.665609 -0.704037 0.0726758
-0.655193 -0.357455 0.610789
-0.299249 0.102749 -0.931424
0.796228 -0.0121177 -0.547562
-0.53359 -0.627649 -0.899024
-0.136345 0.116599 0.616088
0.656828 0.0461747 0.0102598
0.126343 -0.749744 -0.318385
-0.377058 0.0643059 0.693489
-0.295471 0.232517 -0.00401606
-0.000572573 0.491645 -0.421989
-0.953436 -0.286737 0.452698
0.718127 0.0681943 -0.873663
-0.469663 0.0267997 0.3079
-0.0988914 -0.318132 -0.937652
-0.42977 0.147487 0.136695
-0.399472 0.25097 -0.0801275
0.48222 0.0843627 -0.938513
0.490304 0.341118 -0.704081
-0.863312 -0.641416 0.0568208
-0.266008 -0.585121 -0.259607
-0.503612 -0.599732 -0.840567
-0.646141 0.400142 0.797134
-0.0457107 0.0857157 0.162296
0.177302 0.328237 -0.869841
0.876757 0.0552999 -0.759807
-0.601242 0.0970627 0.608809
0.950048 -0.25223 -0.552058
0.337481 -0.193369 -0.99101
0.698361 0.084398 -0.0965438
0.620128 -0.381118 -0.862819
-0.601256 -0.586535 0.303799
-0.404364 -0.0630313 -0.987805
-0.547412 -0.298852 -0.981297
-0.625709 -0.480938 -0.52735
0.309455 -0.146785 0.26901
-0.680204 0.155051 -0.0689698
-0.598666 0.112871 0.463202
-0.668144 -0.007731 -0.5953
0.193383 0.428377 -0.668986
-0.214499 0.187107 -0.695569
0.30861 -0.474177 -0.989691
-0.834088 -0.47557 0.535588
-0.653147 -0.40727 -0.953803
-0.125709 -0.0288602 0.639906
0.690227 -0.390706 -0.75273
-0.640004 0.207611 -0.221697
-0.202613 0.267297 -0.982614
-0.00811304 -0.618176 -0.794592
-0.706363 0.345618 0.508161
0.456902 -0.616136 -0.212971
0.268352 0.34026 -0.843458
0.0267107 0.493862 -0.302033
0.200862 -0.143057 -0.987997
-0.201316 0.148426 -0.924254
-0.381961 -0.491849 0.0347497
-0.996784 -0.31297 0.179348
-0.391046 -0.611937 -0.287338
0.436171 -0.506548 -0.000550642
0.111566 0.35235 0.824397
0.806066 -0.155423 -0.311984
-0.487226 -0.178857 -0.704523
-0.577456 -0.457007 -0.566282
-0.61138 -0.641582 0.260167
-0.22406 0.254542 -0.569234
0.524245 -0.604736 -0.22296
0.700391 0.104447 -0.814221
-0.00648843 -0.0240754 0.213642
-0.00800985 0.288891 0.948977
-0.27266 0.0795576 0.572197
0.521117 0.27493 -0.165241
-0.156749 0.169068 0.876007
-0.52039 -0.336115 0.595655
-0.251737 -0.0236778 0.687756
-0.837749 -0.0555931 0.432122
-0.932652 -0.325476 -0.168798
0.610297 -0.553522 -0.335026
0.81307 -0.167559 -0.445064
0.366085 -0.438669 -0.993822
-0.519829 0.249811 -0.17007
-0.690741 -0.605432 0.474259
0.654749 -0.146486 -0.978719
0.680515 0.149342 -0.66601
-0.121478 -0.522463 -0.0183085
0.273756 -0.387051 0.211462
-0.68625 0.542556 0.870455
-0.92128 -0.0841948 0.28161
-0.404279 0.178447 0.0797299
-0.0113192 -0.509719 -0.929912
-0.198619 0.375107 -0.968873
0.12205 0.333309 -0.918089
0.281469 0.430572 -0.289946
-0.596715 -0.515302 0.540484
-0.557157 -0.570575 0.24564
0.285964 -0.00498433 0.24904
-0.657393 -0.692647 0.260303
0.203916 0.443234 -0.262411
-0.581001 0.751637 0.781765
-0.207772 0.0213159 0.734956
0.384687 0.358445 -0.235407
-0.717276 0.189833 0.48272
-0.288722 -0.558581 -0.128141
-0.580783 0.18187 1.97121e-05
0.0357854 0.302649 -0.986126
-0.26588 -0.529355 -0.0675985
0.0819308 -0.648969 -0.891949
0.964224 -0.0251368 -0.675406
-0.636234 0.0304442 0.61969
-0.592548 -0.184418 -0.6588
0.240814 0.246257 0.0540982
0.527849 0.324691 -0.365533
-0.866768 -0.677923 0.124911
0.511068 -0.385367 -0.962847
0.679379 -0.495746 -0.445575
0.665571 0.0493045 -0.920326
-0.148768 -0.493329 -0.65751
-0.859504 -0.111105 0.473165
0.0404082 0.274099 0.761377
0.497463 0.191833 0.00102001
0.880149 0.0694474 -0.675101
-0.467058 -0.565176 -0.978012
-0.584179 0.688496 0.837736
0.350116 -0.577495 -0.917476
0.366866 0.412949 -0.529253
0.823495 -0.354125 -0.622323
-0.140756 -0.315307 0.160295
0.234183 0.115782 0.17475
0.685673 -0.478155 -0.516265
-0.575654 0.236103 0.582485
0.712844 0.12426 -0.611803
-0.628738 0.336575 0.762917
-0.61747 0.136167 0.0535127
-0.793611 -0.513912 -0.284963
-0.0581194 -0.639489 -0.984391
0.781603 0.0238993 -0.368285
0.444838 0.289873 -0.828706
-0.686805 0.700953 0.899547
-0.527466 -0.424337 -0.599322
-0.668272 0.134375 0.453148
-0.13447 -0.702616 -0.889784
0.510765 0.317375 -0.593545
-0.137924 0.264565 -0.983732
0.012344 0.483111 -0.539549
-0.713865 0.0763217 0.244862
-0.91047 -0.0378681 0.235185
-0.685867 -0.650706 0.0315608
-0.782226 -0.000879909 0.501905
0.412669 0.384812 -0.591601
-0.309078 0.128005 -0.680399
0.116943 -0.109375 0.254845
-0.5834 0.0478568 0.429103
-0.401458 -0.177332 0.514833
-0.159189 0.0622671 0.793571
0.790856 -0.278572 -0.259655
-0.452739 -0.411248 0.356649
0.227662 -0.580585 -0.124141
-0.0177708 0.33321 -0.968219
0.310684 -0.720276 -0.286934
0.540495 -0.0146139 -0.983812
-0.729828 0.477188 0.857664
0.744827 -0.170261 -0.0774813
-0.0800496 -0.206763 0.210398
-0.842717 -0.454687 -0.292729
-0.648834 -0.229885 -0.637087
-0.820878 -0.285935 -0.480639
-0.693294 -0.733994 0.132711
-0.213725 -0.54376 -0.553831
-0.934765 -0.282056 -0.112952
-0.491477 -0.530194 0.119272
0.693793 -0.419583 -0.147536
0.0555748 -0.714957 -0.522731
-0.583363 0.173114 0.531832
-0.626135 0.0778962 -0.54612
0.809738 -0.0866218 -0.438906
-0.607821 -0.0763562 -0.982192
0.678388 -0.300989 -0.932801
0.688891 -0.333362 -0.0192109
0.608719 0.262053 -0.498888
-0.668421 -0.211803 0.614804
-0.491682 0.0170035 -0.984388
-0.46143 -0.0220376 0.451869
-0.487765 0.0665351 -0.742275
-0.572531 0.302233 0.629378
-0.433923 -0.242413 0.477681
-0.289608 0.119691 0.16694
-0.0315515 0.352557 -0.904308
0.679876 -0.443926 -0.696242
-0.589227 -0.419486 -0.976354
-0.157093 0.196871 0.750208
-0.638677 0.274078 0.749978
-0.119268 -0.392669 -0.934652
-0.851001 -0.4077 0.562387
-0.424433 0.227008 -0.395949
0.412969 -0.673098 -0.596847
-0.176665 0.270054 -0.0496093
-0.920306 -0.0885511 -0.140678
0.740656 0.0950757 -0.558253
-0.676001 -0.0835929 -0.61054
-0.0655684 0.0750754 0.610875
-0.251088 0.110476 0.834104
-0.159957 -0.656665 -0.838258
-0.71433 -0.443499 0.584561
0.0676362 0.0106863 0.22291
0.789072 -0.0789714 -0.18563
-0.0645173 0.0140264 0.190588
-0.57584 0.0761369 0.219246
0.487075 0.108418 0.114534
0.339028 0.0394327 0.222755
-0.891353 -0.396427 -0.146956
-0.726196 0.113439 0.469108
0.464854 0.223106 -0.0559049
-0.924938 -0.446432 0.326329
0.56916 0.2745 -0.575385
-0.277773 -0.576377 -0.399072
0.915383 -0.303028 -0.569978
-0.450886 -0.400625 -0.978
-0.573927 -0.53119 0.332995
0.644826 0.226024 -0.548936
-0.714976 0.517294 0.709443
0.99516 -0.169286 -0.649816
-0.7294 0.469798 0.541876
0.0873057 -0.529636 0.0502105
0.766237 -0.318779 -0.198756
0.813052 0.0875888 -0.779145
-0.180907 -0.555504 -0.372253
-0.934599 -0.347511 0.42219
-0.93861 -0.133205 -0.258922
-0.628399 -0.597787 0.445073
-0.769166 0.154568 -0.275789
-0.271852 0.273224 -0.346142
-0.708251 -0.723563 0.240489
-0.183832 0.00185953 0.672284
-0.209001 0.0364371 0.554291
-0.517741 0.104599 -0.982179
-0.442955 -0.501815 -0.554296
-0.89241 -0.0654818 0.339885
-0.674808 0.681739 0.831159
-0.727601 -0.370994 0.605494
-0.402786 -0.123586 -0.965573
-0.314623 -0.148981 -0.965495
0.28606 -0.598987 -0.139544
-0.98971 -0.243592 0.198068
-0.689948 0.177345 -0.189049
0.177266 0.359365 -0.15864
0.112405 -0.510549 -0.957455
-0.855094 -0.694079 0.257567
0.628976 -0.261117 0.0902809
0.577701 0.2612 -0.659748
-0.172918 0.458548 -0.374299
-0.0324426 -0.684215 -0.555127
-0.557755 -0.585637 -0.390095
-0.206322 -0.501055 -0.763488
0.178081 -0.460146 0.16094
-0.585543 -0.255073 -0.65205
-0.663742 0.0765354 0.292384
-0.696068 -0.444278 -0.515644
-0.394637 -0.508665 -0.591143
0.322968 0.323723 -0.887264
0.692804 -0.485639 -0.268994
0.016311 0.342067 -0.860677
-0.364875 -0.0537673 0.257875
-0.428305 -0.0249475 0.715289
-0.461106 -0.298004 -0.76463
0.180931 -0.250758 -0.943725
0.612026 -0.276337 -0.962094
0.410665 -0.205767 -0.984163
-0.7633 0.147392 0.532144
0.303721 -0.722727 -0.410287
-0.233769 -0.0386862 0.548788
-0.35981 -0.0522581 0.47058
0.371916 -0.513718 -0.0116667
0.237281 -0.735638 -0.527526
0.0837983 0.431216 -0.199045
-0.648847 -0.557269 0.515156
0.479082 0.15044 -0.892079
-0.040165 0.400947 -0.188865
0.330492 0.270364 -0.097905
0.439646 0.279162 -0.890842
-0.970708 -0.517853 0.153974
0.594884 -0.573426 -0.4131
-0.0740482 0.107739 0.943683
0.305401 -0.0248453 -0.994252
-0.244885 0.248267 -0.0524104
0.276353 0.0391468 -0.986223
0.208981 -0.541482 0.0477231
0.220359 0.0306717 -0.938053
0.0870369 0.232484 0.780428
0.773551 0.0796619 -0.835816
0.977702 -0.243914 -0.678292
-0.48122 -0.348945 -0.652735
-0.169174 0.317661 -0.212676
0.553704 0.313109 -0.520252
0.150705 -0.528141 0.0620305
0.555002 -0.326895 -0.956861
0.50074 -0.42454 0.110771
0.257379 0.282419 -0.0872806
-0.523276 0.0529708 0.266012
-0.419845 -0.615227 -0.956257
-0.275304 0.0190258 0.523767
0.348636 -0.26818 -0.993362
-0.525502 -0.224758 -0.676621
0.179974 0.325015 -0.951861
-0.345108 -0.529355 -0.711884
-0.308158 -0.367385 -0.983165
0.718565 -0.446206 -0.326345
-0.277472 -0.556401 -0.60108
-0.531761 -0.296225 -0.659124
-0.19791 -0.476463 -0.96019
-0.429175 -0.587117 -0.849176
-0.0999834 0.169553 0.935503
0.160369 0.228975 0.0488335
-0.159014 -0.0337684 -0.931302
-0.40387 0.262015 -0.263507
0.641976 -0.0703887 -0.975324
-0.0855443 -0.668213 -0.817563
0.332374 -0.230514 0.262876
0.586264 -0.527889 -0.147544
0.69782 -0.470048 -0.389483
-0.664139 -0.587914 0.0190152
0.731712 0.0109453 -0.912717
0.352489 -0.371637 0.214523
-0.409431 0.218774 -0.981976
-0.865502 -0.609849 0.389838
0.0875417 0.0355554 -0.929999
0.0970827 -0.456543 -0.930863
-0.743425 -0.677512 0.0492655
-0.401725 -0.132354 0.4491
0.720091 0.166856 -0.386723
-0.98017 -0.199374 0.130122
0.083433 0.358714 0.935434
0.92041 -0.0638531 -0.812834
-0.747165 -0.00584921 -0.511151
-0.212018 -0.506721 -0.691559
0.37294 0.204999 0.0764286
-0.129829 -0.618173 -0.791818
-0.692766 -0.0571196 -0.846455
-0.644328 -0.180113 -0.977432
-0.437785 -0.221712 0.54793
-0.729233 -0.118543 -0.892543
-0.398947 -0.546475 -0.978002
-0.50205 -0.497244 0.0526935
-0.140915 0.366456 -0.962894
0.541505 -0.494816 -0.796593
0.432048 -0.490996 -0.991074
-0.322531 0.281131 -0.828545
-0.567162 -0.0532809 -0.79055
0.440079 0.132 -0.961727
-0.747596 -0.717226 0.107687
-0.95587 -0.507107 0.230692
-0.334416 -0.108835 0.612717
0.836809 -0.379163 -0.672131
0.47853 -0.565466 -0.0953551
-0.804824 -0.711446 0.30701
0.704718 0.165689 -0.538471
-0.5021 -0.449542 0.408465
-0.913092 -0.583029 0.0523498
0.110427 0.312201 -0.975363
0.0995824 0.488678 -0.329845
-0.553919 -0.556787 0.101234
-0.0841864 0.180813 0.0779722
-0.544638 -0.565681 -0.976102
0.70532 -0.449881 -0.577147
0.438649 -0.0873135 -0.982742
-0.575967 -0.624509 0.203185
-0.271623 -0.522671 -0.733144
0.438894 0.207988 0.0235594
-0.718128 -0.564994 -0.282765
-0.148035 -0.170238 0.204107
-0.510398 0.201605 0.016383
0.483296 -0.0510377 -0.99735
-0.758508 0.0734936 0.640833
0.464977 0.35116 -0.329161
0.213308 -0.217124 -0.986407
0.20218 0.221133 -0.987489
-0.135659 -0.199483 -0.941049
-0.681718 0.189674 -0.373014
-0.743258 -0.72513 0.294081
-0.659533 0.699125 0.686055
0.388183 0.377612 -0.66088
-0.824399 -0.0472457 0.496282
0.375756 -0.384091 -0.99131
0.323528 -0.398509 -0.94877
0.225757 0.447839 -0.332886
-0.28456 0.173992 -0.789278
0.305765 0.207711 0.09405
-0.232425 0.0463316 0.858639
-0.921852 -0.628761 0.101311
-0.0973229 0.222724 0.766507
0.14642 0.18071 -0.929607
-0.103211 0.489529 -0.357081
-0.98133 -0.376416 0.228891
0.0503165 0.323869 0.822467
0.195208 0.258387 0.0063615
-0.590418 -0.323399 0.610275
-0.232022 -0.459923 0.0503235
-0.245942 0.328719 -0.986914
-0.83611 -0.412199 0.0112332
-0.0833354 -0.356289 0.157215
0.297438 0.308682 -0.958306
-0.816011 -0.483166 -0.22284
0.581384 0.279982 -0.381805
0.529411 -0.49686 -0.876377
0.0409111 0.261389 0.933176
-0.0743712 -0.625424 -0.549682
-0.982929 -0.377368 0.161075
-0.0234612 -0.292469 -0.9377
-0.866376 -0.016259 0.297836
-0.657723 0.478085 0.824276
-0.0163091 -0.668919 -0.83476
-0.365881 -0.337867 0.251671
0.685247 0.0959295 -0.720582
0.683125 -0.016666 -0.951273
0.0329455 0.221538 0.707653
0.793673 0.0110564 -0.880316
-0.583632 -0.211676 0.611142
-0.154172 -0.270405 -0.944248
-0.753798 -0.686741 0.371117
-0.43056 0.137493 -0.906524
0.068262 -0.558492 -0.0112619
-0.0806528 -0.501593 -0.929377
0.862395 -0.022742 -0.540581
-0.856742 -0.0343959 -0.406451
0.991449 -0.156781 -0.577622
-0.753329 0.392059 0.700603
-0.392737 0.128505 -0.832191
-0.16695 0.100325 -0.927369
-0.314682 -0.53122 -0.788513
0.477488 -0.241223 -0.99306
0.612012 0.0147385 -0.957737
0.235966 0.308848 -0.975302
0.733161 -0.412782 -0.518756
-0.00123057 -0.716944 -0.508264
0.272434 -0.522909 0.0672807
0.674906 -0.509364 -0.335436
-0.387574 -0.14 0.646175
-0.94636 -0.409278 0.103263
0.296746 0.436255 -0.484679
-0.317728 -0.57387 -0.29611
0.469581 -0.600965 -0.15024
-0.278749 -0.000112414 0.818748
0.199471 -0.576817 -0.0584681
-0.816227 0.0963841 -0.252886
-0.909265 -0.376005 -0.211465
-0.695172 -0.578474 -0.210102
-0.508071 0.136449 -0.946888
-0.70341 -0.180155 -0.956392
-0.108704 -0.596255 -0.982022
0.477602 -0.161811 -0.979125
0.752499 -0.357835 -0.648291
-0.579161 0.115585 0.107917
-0.914715 -0.549393 0.356973
-0.556863 0.0931233 -0.55693
-0.148724 -0.589736 -0.262205
0.659495 0.0979847 -0.0378825
-0.437094 0.262629 -0.145443
-0.461552 -0.551718 -0.0468093
0.292966 -0.584883 -0.974921
-0.588761 -0.146499 -0.981633
0.00746734 -0.670143 -0.973475
0.239898 -0.497897 -0.985005
-0.884091 -0.088695 0.405047
-0.597122 0.52179 0.761037
-0.206134 0.333782 -0.570921
-0.237088 0.313905 -0.321925
0.0567123 -0.0589519 0.237918
0.35158 0.307302 -0.1686
-0.603834 -0.287279 -0.965738
-0.340482 0.00818467 0.49918
0.0107456 0.0437282 0.190663
0.840784 0.0367723 -0.827349
-0.346242 -0.547798 -0.557694
-0.00976373 -0.753035 -0.333694
-0.546082 -0.356282 -0.6258
0.39002 0.319977 -0.856973
0.803472 -0.265219 -0.532284
0.137547 0.0379299 0.227168
-0.746078 0.572499 0.827582
-0.273659 0.13003 0.765981
0.0751901 0.420829 -0.753803
-0.348147 -0.112731 0.264316
-0.630189 -0.271633 0.615486
0.540181 -0.513913 -0.0896196
-0.289112 -0.0639971 0.646936
-0.0993429 0.110381 0.759412
0.528547 -0.550986 -0.73817
0.343056 0.399432 -0.259232
-0.591818 0.306215 0.54908
0.649429 -0.532643 -0.391418
-0.0488893 0.314762 -0.15921
-0.47153 -0.128241 -0.983548
-0.961496 -0.588348 0.14962
-0.329 0.0155099 0.233969
0.696814 0.0282403 -0.0451521
-0.161511 -0.440899 0.0792111
-0.00763661 0.203253 0.921103
0.368219 -0.050142 -0.986035
-0.734086 -0.473329 -0.461603
-0.481713 -0.32453 -0.983116
0.658793 0.199038 -0.483057
0.293875 -0.723136 -0.64566
-0.213913 -0.139211 0.226057
-0.354363 -0.59105 -0.955589
0.921448 -0.140858 -0.824929
-0.310848 -0.233625 -0.965191
0.205152 -0.00205766 0.246778
-0.646178 0.725063 0.939687
0.278957 -0.641402 -0.833112
0.192398 0.462303 -0.40482
-0.176846 0.360323 -0.633572
-0.349735 -0.295305 -0.97142
-0.527199 0.256577 -0.247279
-0.802381 -0.669687 0.0905737
-0.494932 -0.622362 -0.958871
0.330242 -0.114233 -0.990574
-0.607694 0.0637536 0.356231
-0.904554 -0.63219 0.252004
-0.227334 -0.560822 -0.415482
-0.759749 -0.525633 -0.334866
-0.250567 -0.090349 0.616399
-0.158095 0.0987162 0.143285
-0.896074 -0.0881286 -0.0585097
-0.219885 0.220393 -0.63502
-0.775155 -0.485526 -0.0237312
-0.782425 -0.43193 0.577598
0.239461 0.185875 0.113935
-0.56642 -0.512581 0.0479051
0.722355 0.112195 -0.209846
0.674161 0.168622 -0.211407
-0.607776 -0.453659 -0.83215
-0.808293 -0.0225256 -0.470637
0.399463 -0.483582 0.0565384
0.0705245 -0.664905 -0.773827
-0.0870609 -0.128259 0.211578
-0.0639163 -0.155694 -0.936441
-0.789823 0.121915 -0.326588
-0.697633 0.57526 0.666597
0.948568 -0.0455423 -0.745942
-0.471493 -0.596399 -0.183778
0.57035 -0.382171 0.0845232
-0.0537149 0.226154 0.952791
0.327257 0.258534 -0.0366212
-0.117441 0.158282 -0.926134
-0.886429 -0.15475 0.448111
-0.146081 -0.607582 -0.332525
-0.334522 0.26663 -0.984393
-0.428403 0.0222659 0.67277
-0.915402 -0.198544 -0.313505
-0.053251 -0.562425 -0.9638
-0.320325 0.245369 -0.070608
-0.985946 -0.307769 0.254847
0.461637 0.352718 -0.646536
0.189541 0.108573 -0.926458
-0.746022 0.126028 -0.0864553
-0.0617424 0.146148 0.883256
-0.510298 -0.465581 0.548705
0.077448 0.314425 -0.136637
0.837379 -0.225241 -0.884441
-0.596007 0.220516 -0.272179
-0.574998 0.151637 -0.516446
-0.196236 -0.00611935 0.828842
0.400716 -0.600487 -0.794947
0.138563 -0.696243 -0.182695
0.102486 0.372782 -0.161375
-0.894984 -0.0156158 0.166045
-0.269286 -0.322021 0.195328
-0.265181 0.256056 -0.982762
0.740674 -0.329016 -0.892645
-0.359528 0.318697 -0.898296
-0.163291 -0.0917362 -0.935474
-0.421277 -0.262261 -0.974312
-0.344466 -0.10038 -0.98695
-0.239385 0.0704902 -0.926061
-0.542426 0.0128885 -0.787235
0.6564 -0.390179 -0.808404
-0.474306 -0.138975 0.639017
0.905625 0.0011578 -0.790752
-0.564089 -0.614993 -0.95307
0.434539 -0.549374 -0.83017
0.461155 0.271176 -0.105716
-0.850365 0.047704 -0.289215
-0.643657 0.606147 0.875722
0.201302 0.0633913 0.215653
-0.384606 0.0591533 0.224111
-0.453079 -0.380679 0.417216
0.0938215 -0.693401 -0.703947
0.953011 -0.187316 -0.782642
-0.0622712 0.483999 -0.296097
-0.870448 0.0416272 -0.219753
0.578276 0.283248 -0.310407
-0.894191 -0.43074 0.515906
-0.59931 0.618481 0.688299
-0.711166 0.51127 0.632349
-0.620648 -0.587266 -0.186855
0.341351 -0.618984 -0.834043
-0.259351 0.308715 -0.811907
-0.621107 -0.651293 0.0639063
0.701526 0.156826 -0.452537
0.62361 -0.520353 -0.520208
-0.381084 -0.592747 -0.894656
0.289502 0.295418 -0.147052
-0.487691 -0.611811 -0.367061
-0.423128 -0.434755 0.287839
-0.656001 -0.726995 0.183998
-0.775125 -0.299136 0.608091
-0.763784 0.0748673 0.522783
-0.643973 0.621327 0.607634
-0.739464 -0.0595287 -0.962693
0.86649 -0.276989 -0.842368
-0.017902 0.0489815 0.657547
-0.0278973 -0.721139 -0.445002
-0.377984 -0.390842 0.14816
-0.0893109 0.44447 -0.230133
-0.374603 -0.596836 -0.34845
-0.147124 0.111074 0.913542
-0.750016 0.457935 0.740414
0.614708 0.249077 -0.608085
-0.401425 -0.536591 -0.0272992
0.582697 -0.576405 -0.270081
0.59688 -0.540633 -0.61114
-0.610764 -0.227142 -0.884069
0.472175 -0.61954 -0.269243
-0.575643 -0.547569 -0.0365024
0.459593 0.298921 -0.159219
-0.273428 0.26925 -0.126541
-0.00418104 0.212487 0.995246
-0.247832 -0.251974 -0.984868
-0.864766 -0.431154 -0.219841
-0.0119849 0.474213 -0.602135
0.763986 -0.206802 -0.133121
0.637627 -0.522526 -0.217374
0.388528 -0.697606 -0.291793
-0.192235 0.287744 -0.15595
0.571966 -0.449464 -0.864338
-0.12979 0.45066 -0.541658
0.787128 -0.315254 -0.324011
0.11007 -0.244478 -0.938993
-0.570542 -0.281721 -0.901672
0.124551 0.230552 -0.984357
-0.239749 0.124586 -0.706276
-0.185699 0.431652 -0.320708
0.414016 -0.553894 -0.971116
-0.772128 0.0579782 0.217517
-0.353821 -0.580435 -0.154936
0.0176836 -0.587005 -0.146185
0.470153 -0.199462 0.214042
0.351816 -0.676896 -0.228382
0.978412 -0.0872637 -0.575892
0.0491512 0.490667 -0.376326
0.33424 -0.507609 0.0611395
0.668352 -0.227058 -0.95928
-0.200406 0.269124 -0.775965
-0.731752 -0.0548709 -0.56178
-0.344188 -0.0119708 -0.985792
-0.787436 -0.435099 -0.426998
-0.714804 0.113777 -0.0227087
-0.0520958 -0.585154 -0.108861
-0.721015 0.0601853 0.0864741
-0.973957 -0.166199 0.205388
-0.279899 -0.546234 -0.85383
-0.785189 0.20493 0.635756
-0.351893 0.158176 0.12752
-0.624263 0.199556 -0.416545
-0.60128 -0.58922 0.0584181
-0.646742 -0.23977 -0.958353
0.155442 -0.184528 -0.943352
0.7967 -0.0160453 -0.470167
-0.857666 -0.228674 -0.428782
-0.0648889 0.413849 -0.7147
-0.405778 -0.00295913 0.256439
0.763667 -0.352877 -0.262667
-0.485474 0.248742 -0.10236
-0.669917 0.669271 0.761568
-0.551084 -0.076363 -0.664438
-0.147235 0.168519 0.675516
0.0282109 -0.701218 -0.595302
-0.0910945 -0.676794 -0.434908
-0.910446 -0.169595 0.389603
0.071307 0.468326 -0.527335
-0.4555 -0.475207 -0.774932
-0.20237 -0.146764 -0.973908
0.74427 -0.413376 -0.39167
-0.361433 0.223396 -0.424892
0.292557 -0.586393 -0.877304
-0.698466 0.0614944 0.421836
0.578095 0.0236887 0.103397
0.403873 0.178475 -0.984854
-0.746308 -0.128758 -0.949851
-0.398143 -0.43448 0.107564
-0.645266 0.0918522 0.663457
-0.864377 0.0078541 0.23379
-0.266495 -0.116147 -0.988672
0.980196 -0.179943 -0.715654
0.327611 0.157733 -0.990191
-0.249511 -0.423426 -0.980894
0.0595424 0.239108 -0.983995
-0.00399971 0.109559 0.636872
-0.769814 0.036429 0.57168
-0.20118 0.103251 0.879293
-0.107609 0.274231 -0.038546
-0.402815 0.276221 -0.969976
0.955138 -0.119411 -0.527097
-0.455635 0.0703569 -0.984713
-0.263464 -0.491674 -0.98313
-0.752925 -0.49787 -0.397735
-0.723422 0.672801 0.936096
0.594851 0.0733174 -0.903336
-0.698235 -0.297991 0.616397
-0.930437 -0.417217 0.436327
-0.478361 -0.40887 -0.775493
0.265932 -0.729178 -0.586304
-0.367498 -0.291177 0.292626
0.770624 -0.12603 -0.131375
-0.106467 0.377932 -0.197544
0.115956 -0.356446 0.224241
0.841417 -0.378469 -0.745504
0.112229 -0.0362689 -0.933201
-0.454427 0.0355535 0.237639
-0.859759 -0.340629 -0.388739
0.267176 0.0572158 0.219155
-0.595516 0.396647 0.733886
0.144796 -0.677956 -0.776878
-0.575531 -0.223461 -0.981907
-0.282216 -0.560814 -0.530026
0.585262 0.175464 -0.787322
-0.433784 0.1379 -0.604574
-0.372392 0.117777 0.177958
-0.620424 -0.344957 -0.970245
-0.551855 -0.565163 -0.45991
-0.808194 -0.442217 -0.0142282
-0.194113 -0.0625358 0.636105
0.651772 -0.396089 -0.0320116
0.0172405 -0.353177 -0.935823
-0.41933 0.209211 -0.925361
0.184495 -0.530886 -0.988332
0.357234 -0.680476 -0.65374
-0.787359 -0.0701935 -0.504371
-0.902715 -0.476563 0.461598
0.274879 -0.351077 -0.938942
0.478523 -0.537803 -0.878048
-0.323982 -0.52608 -0.0107174
0.474278 -0.634278 -0.573358
-0.943891 -0.247419 0.520995
-0.566196 -0.0217298 0.543038
-0.341453 0.275713 -0.238989
-0.771489 0.628196 0.914191
0.893178 -0.151288 -0.501615
0.0598081 -0.491407 0.107192
0.0185687 -0.563519 -0.0719024
-0.761489 0.309446 0.775344
-0.774527 -0.338006 -0.510016
-0.297712 -0.561733 -0.908519
-0.590202 -0.545043 0.47989
0.587471 -0.133107 -0.994687
0.116793 0.452283 -0.573205
-0.555306 0.226562 -0.387839
0.871821 -0.264753 -0.528077
0.235623 -0.70591 -0.692851
-0.486899 -0.614241 -0.254306
-0.3073 0.277201 -0.189934
-0.488975 -0.00835663 0.523112
-0.252279 0.300123 -0.393162
-0.558091 0.0396477 -0.984428
-0.117905 -0.666829 -0.366474
-0.724864 -0.316826 -0.558396
-0.68227 -0.284729 -0.608974
-0.843625 -0.453038 -0.15306
0.00794129 -0.590384 -0.985857
-0.0298295 0.145498 0.113438
0.180696 -0.612453 -0.977035
-0.168313 0.319623 -0.792976
-0.0130474 -0.253139 0.221753
-0.587207 0.33064 0.701721
0.520817 0.0472621 0.134856
-0.858325 -0.0239177 -0.0269992
0.138431 -0.63797 -0.143261
-0.516457 -0.178193 -0.985615
-0.534955 -0.00335073 0.463396
-0.741807 0.00187657 0.620481
-0.518488 -0.529871 -0.0075349
0.512833 -0.644094 -0.38
-0.163186 -0.546736 -0.442628
-0.917364 -0.096795 0.0830419
0.111657 -0.295758 0.244574
-0.747525 0.516581 0.780695
0.242438 0.31705 -0.898506
-0.2082 -0.6576 -0.9663
0.81143 -0.131594 -0.3857
-0.9643 -0.443287 0.177941
-0.200823 0.141465 0.642871
-0.89577 -0.608768 0.326962
-0.611512 -0.31477 -0.625057
-0.0811896 0.192455 0.705463
0.196126 -0.747784 -0.34101
-0.712331 0.407882 0.826916
0.598614 -0.423608 0.0218308
-0.350651 0.0609311 -0.97733
0.722053 -0.381193 -0.698639
-0.376351 -0.522495 -0.782004
-0.459325 0.142301 -0.977944
0.619218 -0.119741 0.103043
-0.592393 0.266156 0.693062
-0.274125 -0.313811 -0.973064
-0.0522556 -0.600398 -0.181889
0.0789709 0.079045 0.195402
-0.852252 -0.292954 -0.424202
-0.150151 0.0644028 0.731376
-0.107338 -0.566128 -0.55666
-0.0588914 0.0857595 0.700636
-0.138604 -0.6649 -0.981782
-0.39883 -0.267759 0.350576
0.743346 0.112575 -0.765072
-0.955587 -0.439928 0.258007
0.348365 -0.592671 -0.108322
0.714495 0.0786472 -0.682543
0.77897 -0.342364 -0.392402
-0.00309999 -0.644755 -0.179249
-0.684951 0.62759 0.712177
-0.733962 0.155917 -0.149312
-0.291109 -0.0493514 -0.979214
0.0115482 -0.676743 -0.895547
-0.945841 -0.20659 -0.239046
0.767709 0.0413621 -0.513004
-0.558506 0.197476 -0.45623
-0.337994 -0.511161 -0.980282
-0.747392 0.321908 0.655801
0.446497 -0.661795 -0.518272
-0.717563 0.531861 0.565104
-0.546463 -0.616736 -0.209526
-0.647886 -0.520156 -0.954487
-0.319113 0.346848 -0.982576
0.486085 -0.318191 -0.989078
-0.61371 0.218262 -0.348593
-0.152483 -0.0948044 0.201542
0.0261999 0.326976 0.891893
-0.279244 0.291011 -0.272139
-0.529774 0.210609 -0.0534685
-0.073604 0.143555 0.645084
0.479604 0.0169363 -0.982683
0.521211 -0.618386 -0.5226
0.159491 -0.577531 -0.116876
-0.276704 -0.435387 0.0989273
-0.0204113 -0.328308 0.189708
0.335149 -0.539677 -0.0619455
-0.19716 0.372386 -0.281629
-0.158551 0.15571 0.102052
-0.175431 -0.561476 -0.780145
-0.300532 -0.481661 0.039826
-0.376933 -0.0800242 0.728546
-0.212316 -0.536821 -0.981712
-0.214542 0.273249 -0.0989609
-0.0271386 0.50311 -0.359086
-0.544092 -0.0520247 -0.726441
-0.795828 0.584906 0.883428
0.106035 -0.46028 0.151717
-0.371265 0.206014 -0.498607
0.909575 0.0288427 -0.632112
-0.455516 0.255636 -0.211493
0.0455173 -0.220995 -0.93907
-0.813731 -0.35767 -0.451993
0.526859 -0.290538 0.172361
-0.901582 -0.208768 0.562063
-0.151012 0.323122 -0.988494
0.184213 0.285305 -0.0615318
0.542546 -0.258236 -0.986473
0.303629 -0.54207 -0.00170659
-0.411993 -0.490478 -0.734541
0.114701 0.275336 0.00305639
0.130161 -0.0330083 0.246825
0.137561 0.465383 -0.476012
-0.627576 0.435069 0.559482
-0.809832 -0.459924 -0.0897804
-0.370845 0.126041 -0.722203
-0.204918 -0.21199 0.220258
-0.0204803 0.468964 -0.24754
-0.663783 -0.352128 -0.585765
0.581367 -0.0600612 -0.989305
0.531271 -0.620432 -0.306077
-0.827288 0.0218203 0.176533
-0.619747 0.678675 0.65913
-0.626398 0.168117 -0.470105
-0.431067 0.169917 -0.978762
0.0441498 -0.127113 0.242
0.79069 -0.0178323 -0.236616
0.104443 0.268351 0.735226
-0.548329 -0.0313073 -0.984283
-0.0384818 0.152466 0.973699
0.263975 -0.0861364 -0.993744
-0.754669 -0.496456 0.553303
0.0324202 -0.194621 0.241657
-0.372349 -0.202647 -0.965547
-0.602699 0.24227 0.511035
-0.70167 -0.551123 -0.366265
-0.262211 0.388344 -0.95937
0.16579 0.478654 -0.339854
0.77963 0.0461577 -0.43874
-0.566884 0.060193 -0.843575
-0.467388 -0.290111 -0.691687
-0.520255 0.0274598 0.401763
-0.338507 0.091454 0.628538
0.715042 -0.421234 -0.638428
0.21523 0.457025 -0.477515
0.485443 -0.659808 -0.470723
0.211816 0.301864 -0.139096
-0.799235 0.341218 0.721304
-0.00483628 -0.45654 0.121172
0.180955 0.196051 0.0937708
0.71025 -0.178199 -0.0152027
-0.558818 -0.515888 -0.517031
0.0678208 -0.246517 0.244597
-0.224919 -0.0687179 -0.955254
-0.514539 -0.526118 0.280091
-0.0629286 -0.591345 -0.773841
-0.668462 -0.185087 -0.893044
-0.580392 0.102435 0.533682
