-0.627025 -0.451596 0.581255
-0.372121 0.259352 -0.299061
-0.046217 -0.427976 -0.932528
-0.255289 0.106002 0.603724
-0.472534 -0.631536 -0.926782
-0.338302 -0.575195 -0.412253
-0.649577 -0.086542 0.602529
-0.537798 -0.245642 -0.858992
0.00673707 0.308537 -0.145388
-0.53071 0.0956754 0.153719
0.524793 -0.152955 0.183379
0.00595602 0.292268 -0.0822251
0.494774 -0.470079 -0.95661
-0.690678 0.231671 0.480205
-0.679086 0.1786 0.729676
-0.938992 -0.20462 -0.118031
0.259751 0.401141 -0.203088
-0.389935 -0.506104 -0.678639
0.506657 0.296019 -0.781703
-0.932809 -0.205955 0.509026
-0.195685 -0.018331 0.200736
-0.528608 -0.500362 0.454719
-0.398091 -0.433083 0.200835
0.795984 -0.187194 -0.226145
0.0359121 -0.290474 0.227732
-0.300516 -0.3043 0.200647
-0.537928 -0.312047 -0.860702
0.589799 0.221851 -0.145966
0.192353 -0.631217 -0.140769
0.750466 -0.144478 -0.93567
0.73634 -0.38382 -0.19904
0.590058 -0.065635 0.123231
0.465348 -0.09627 0.213382
-0.589377 -0.370285 0.603219
-0.346629 -0.443156 -0.980576
0.379773 -0.094745 -0.984643
-0.592747 0.483353 0.654806
0.195958 -0.764757 -0.465967
-0.0840371 0.236718 0.869974
-0.793866 0.554332 0.842519
-0.579957 0.427206 0.680787
0.729208 -0.229944 -0.0519091
0.643748 -0.403486 -0.803546
0.827387 0.0297371 -0.595651
-0.381225 -0.14193 0.314836
0.483395 -0.524714 -0.0552453
-0.930211 -0.333344 0.537335
-0.65021 -0.438525 -0.547017
-0.098649 -0.579008 -0.109858
-0.91105 -0.349939 -0.111729
0.459008 -0.0098059 -0.994543
0.266448 0.437894 -0.346502
-0.56752 0.226254 -0.163774
-0.719296 0.0524262 0.65873
-0.159253 0.418498 -0.547671
-0.813774 -0.301068 0.599959
-0.060066 -0.554777 -0.0440949
-0.686748 0.0367852 -0.898615
0.387112 0.393251 -0.380102
-0.125252 0.421942 -0.609269
0.382223 -0.564632 -0.857841
0.984756 -0.072677 -0.648768
-0.0147861 -0.674966 -0.599664
-0.936217 -0.370715 0.333673
-0.53264 -0.476895 0.40258
-0.232335 0.366403 -0.855844
-0.410685 -0.172873 0.44863
-0.088108 -0.010999 -0.932591
0.579083 -0.364239 -0.927207
-0.491933 -0.44407 0.485493
-0.010335 0.22428 0.050802
-0.799015 0.032515 0.00396203
0.319985 -0.254915 0.260765
0.448527 -0.330465 0.198161
-0.333881 -0.565579 -0.089985
-0.569986 -0.577792 -0.845413
-0.360115 -0.142679 0.536663
0.480248 -0.61413 -0.710629
-0.774898 -0.243968 -0.534522
0.0549571 -0.366036 0.20188
-0.507953 -0.606065 -0.324463
-0.442538 -0.0191822 0.345144
-0.0274329 -0.647389 -0.668502
-0.124293 -0.549795 -0.064993
0.002362 -0.391379 -0.933999
-0.531846 0.0339181 -0.630617
-0.748294 -0.38904 -0.510764
-0.209634 -0.592937 -0.182526
-0.440318 -0.541357 -0.80812
-0.256809 0.146638 0.682994
-0.653994 0.132843 0.695385
-0.534238 -0.077609 -0.984397
-0.790262 -0.623907 0.438204
0.389924 -0.694711 -0.282664
-0.147368 0.469201 -0.415927
-0.640598 0.0785759 -0.935158
-0.872825 -0.563467 0.433178
0.355472 0.395243 -0.620899
0.645503 0.187112 -0.15887
0.38157 -0.697535 -0.527375
0.0464269 -0.440493 0.151594
-0.741874 0.166474 -0.243277
0.144917 -0.37739 -0.935574
-0.043434 -0.287626 0.1993
-0.635508 -0.554379 -0.0718381
0.027344 0.156968 0.734175
0.238719 -0.231697 0.266137
-0.400241 -0.343465 0.322389
-0.516814 -0.0371259 0.59593
-0.926735 -0.627446 0.209458
0.194159 0.0937699 0.193933
-0.236674 0.293375 -0.492115
-0.0655648 0.449242 -0.63874
0.240912 -0.597002 -0.924108
-0.145293 0.0382455 0.692851
0.319315 -0.384806 0.209686
0.599385 0.235807 -0.205653
-0.748483 0.112519 0.678347
0.0924732 0.29698 0.860424
0.194928 -0.132636 0.266842
-0.413157 -0.574817 -0.109657
0.440145 0.365227 -0.691946
-0.46296 -0.401432 0.460283
0.547559 -0.208172 0.166882
-0.043178 0.360961 -0.833321
-0.32869 -0.538481 -0.681483
0.539342 -0.626073 -0.376282
0.807713 -0.09332 -0.907558
0.289957 0.162198 0.145643
-0.867396 -0.0266292 0.0981091
-0.117748 -0.582794 -0.163407
-0.61435 0.196364 -0.125151
-0.718711 -0.00170496 -0.931723
-0.953365 -0.213798 0.322553
-0.734926 -0.079294 0.601846
-0.761231 -0.191203 -0.555478
-0.0628557 -0.668745 -0.233982
0.424745 -0.692399 -0.461779
-0.737689 -0.136835 -0.581886
0.098344 0.37035 0.890009
-0.055473 -0.527543 0.00901297
0.122731 0.402116 -0.177571
-0.621533 -0.109655 -0.812562
-0.882371 -0.00255977 -0.136717
0.926421 -0.0491739 -0.535761
0.79305 -0.320406 -0.588352
-0.622541 -0.032082 0.588166
-0.340014 0.092382 0.709189
0.643573 0.170347 -0.102805
-0.608082 0.638716 0.852874
-0.328886 -0.230884 0.241477
0.062033 0.434952 -0.696346
0.100032 -0.571148 -0.048567
0.671701 0.214143 -0.272109
-0.200317 0.258641 -0.694706
0.593541 0.198207 -0.0885281
0.261142 -0.409027 0.198649
0.685684 0.20196 -0.410205
-0.178232 0.058789 -0.928718
0.221635 -0.56812 -0.0426509
-0.408684 -0.554803 -0.483945
0.065408 -0.605174 -0.988988
0.483909 -0.260903 0.19883
-0.600291 0.565411 0.672576
0.804611 0.0999693 -0.740599
0.569497 -0.559575 -0.635348
0.0477959 0.15013 0.6659
-0.926145 -0.323041 -0.259856
0.535804 -0.457553 -0.913211
-0.809491 -0.242073 0.601875
-0.587644 0.754305 0.885165
-0.719814 0.565513 0.782308
0.793359 0.0707106 -0.655795
-0.807312 0.0333766 0.153144
-0.701917 0.0638255 0.343219
0.402462 0.385571 -0.323709
0.077995 0.291113 -0.0622831
-0.051605 0.242155 0.0153529
-0.269114 0.244059 -0.799055
-0.11197 -0.711978 -0.94935
-0.375717 -0.095955 0.464824
-0.231685 0.290116 -0.190143
0.384138 0.339346 -0.804208
-0.208327 -0.571674 -0.129051
0.960675 -0.0294399 -0.600168
-0.381219 -0.434975 0.095864
0.728443 -0.431523 -0.43851
0.334573 -0.432849 0.173014
-0.493705 0.23176 -0.391534
-0.062285 -0.689754 -0.973508
-0.455983 -0.208933 -0.742334
-0.885042 -0.131727 -0.406698
-0.786541 -0.549446 -0.000676239
0.834907 -0.168208 -0.892416
-0.413207 0.0415764 0.598684
0.916557 0.0220957 -0.726378
-0.937946 -0.16121 -0.177099
0.00324593 0.240281 0.999994
-0.47914 -0.488968 0.065418
-0.198704 0.166078 0.82003
0.735752 0.118666 -0.486779
-0.246924 -0.106102 0.235566
0.0488338 0.251577 0.871731
0.727673 0.0714582 -0.639895
-0.699346 -0.546682 0.527578
-0.265034 0.181955 -0.559499
0.436669 -0.0369121 0.219118
-0.640403 -0.172482 -0.852704
-0.586627 -0.344165 -0.869703
-0.856708 -0.0360521 0.356849
-0.522681 0.25073 -0.322598
0.491763 -0.3478 0.164943
0.76984 0.0265002 -0.597763
0.376111 -0.0287259 0.241067
0.150906 -0.55447 0.0096151
0.804087 -0.060122 -0.26568
-0.601994 -0.57992 -0.110656
0.741306 -0.342969 -0.15889
-0.39828 0.0276758 0.724279
0.272021 0.12435 -0.938618
0.091761 -0.740831 -0.27661
0.0127241 -0.667743 -0.706806
0.540721 0.09993 -0.876085
-0.0622989 -0.5982 -0.676481
-0.418547 -0.0601359 0.433443
-0.72535 0.095509 -0.463641
-0.876889 -0.355112 0.0217681
0.600655 0.0973511 -0.853676
0.0803727 0.177487 0.715553
-0.934198 -0.095081 0.208364
0.471013 -0.398992 0.141556
-0.95029 -0.278552 0.331784
0.346235 0.168827 0.134292
0.652191 -0.474515 -0.157471
0.330006 -0.72401 -0.514026
-0.498841 -0.4468 -0.592517
0.190102 -0.201039 0.265645
-0.533194 -0.378481 -0.978487
0.397818 0.215609 -0.981651
-0.101786 -0.626374 -0.465097
0.751667 0.0616522 -0.202873
-0.244115 -0.0445025 0.786122
-0.690001 0.169719 -0.416068
-0.792089 -0.085946 0.578801
0.063484 -0.576775 -0.116755
-0.214224 0.173138 0.753905
-0.856262 0.0271769 -0.338374
-0.199198 -0.564743 -0.322936
-0.628093 -0.627229 0.344119
-0.066953 -0.470099 0.073624
-0.0710739 0.108532 0.731809
-0.477479 0.173348 0.081687
-0.616009 -0.392583 -0.861602
-0.028527 -0.015043 -0.93286
0.298604 -0.701976 -0.680698
-0.392964 0.18932 -0.867513
0.384132 0.0877052 0.177864
-0.30248 0.233728 -0.399176
-0.730904 -0.549097 -0.160454
0.135729 -0.414248 0.189386
-0.064833 0.122444 0.135589
0.662491 -0.498448 -0.527763
-0.770069 -0.139288 0.599723
-0.599172 0.565219 0.78346
0.917266 -0.323151 -0.733375
-0.937738 -0.292446 0.0511418
0.432555 -0.60911 -0.75382
0.378547 -0.501523 -0.995391
0.424332 0.234685 -0.042964
-0.0603 0.19395 -0.926235
0.739002 -0.377291 -0.613011
0.73623 -0.413794 -0.270258
-0.596901 -0.413056 -0.584871
-0.801789 -0.478525 -0.364016
-0.49707 -0.566171 -0.0629542
-0.392018 -0.385636 0.277816
0.221208 0.394964 -0.742516
0.383174 0.292276 -0.923212
0.391102 0.235916 0.00660105
-0.474951 -0.583057 -0.116807
-0.821345 0.0385839 -0.412492
0.513135 0.30855 -0.261457
0.780753 -0.191727 -0.918695
0.950784 -0.280308 -0.713417
-0.0712629 -0.726318 -0.378656
-0.670038 -0.393863 0.602274
-0.263796 0.050033 0.208389
-0.574382 0.22088 0.621089
0.0389249 -0.73617 -0.24982
-0.1874 0.0346082 0.178642
0.718658 0.097677 -0.150393
0.469614 -0.643038 -0.32992
-0.892388 -0.296294 -0.0271179
0.126724 0.445671 -0.647895
0.933133 -0.232492 -0.52585
-0.595678 0.197078 -0.0495891
-0.266325 -0.596299 -0.959132
-0.934124 -0.232634 0.430876
-0.652752 0.0795317 0.213999
0.192297 0.43884 -0.635769
-0.591573 -0.543007 -0.0315759
-0.129255 0.0292911 0.587101
-0.429913 -0.601194 -0.207486
-0.274521 -0.070623 0.728858
-0.720923 0.0463913 -0.500379
-0.26137 -0.199536 -0.970478
0.069772 0.203558 0.073803
0.750259 0.125452 -0.32137
0.257084 -0.15849 -0.997285
-0.79435 0.0286696 0.31981
-0.664031 0.694127 0.708311
-0.114047 0.058123 -0.930013
0.254144 -0.131393 0.269796
-0.527235 0.0100089 -0.684477
-0.66869 0.709395 0.872295
0.589886 0.217562 -0.718996
-0.362558 0.340152 -0.963234
0.326894 -0.678043 -0.729903
0.610032 -0.553816 -0.308618
-0.852515 -0.0915859 -0.449152
-0.143626 -0.458371 0.0609266
-0.878785 -0.357904 -0.0478591
0.657108 -0.499164 -0.605192
0.683031 -0.374979 -0.865023
-0.530495 -0.160148 0.61018
0.621768 -0.554676 -0.434818
-0.920399 -0.101895 -0.203799
-0.452694 0.0921272 0.184941
-0.346667 -0.335513 0.187746
0.0151011 0.493197 -0.465583
-0.532303 -0.491077 -0.798489
-0.755068 -0.545145 -0.234882
-0.514546 -0.223162 0.6026
0.754536 -0.079416 -0.93227
-0.0939389 -0.559768 -0.615961
0.330515 0.420974 -0.403314
-0.712169 -0.342962 -0.55582
-0.931046 -0.232708 0.0383712
-0.558516 -0.0377199 -0.645078
0.61546 -0.0245669 0.0902923
-0.244461 -0.620273 -0.908932
-0.704913 -0.13054 -0.867388
-0.960289 -0.468951 0.107785
0.098787 0.352733 -0.855891
0.24417 0.241486 -0.993696
0.59817 0.16107 -0.0389199
0.605387 -0.350111 0.081564
-0.288381 0.0969233 0.187066
0.467156 -0.621499 -0.641215
0.756563 0.0911751 -0.396113
-0.282903 -0.0347999 0.237609
-0.91896 -0.298171 -0.078643
-0.132975 0.397009 -0.66145
-0.592153 0.692239 0.870878
-0.443396 -0.606186 -0.348374
0.796464 -0.01788 -0.332066
0.570189 -0.566825 -0.498999
-0.502105 0.0591591 -0.706649
0.120329 -0.640586 -0.815297
0.447315 0.365291 -0.428881
-0.807268 0.41325 0.765426
-0.772032 0.0500062 -0.470611
0.0193288 0.455109 -0.653693
-0.881228 -0.296966 0.577278
-0.924282 -0.499341 0.326664
0.619354 -0.203024 0.103483
-0.589981 0.423078 0.615821
0.780742 -0.396709 -0.795842
-0.244718 0.298543 -0.251891
-0.25301 -0.516693 -0.73377
-0.648618 0.63469 0.901991
-0.05588 -0.039988 0.206538
0.739136 0.0425811 -0.130909
-0.179987 0.373672 -0.885043
0.697137 -0.236919 0.00120815
-0.686387 -0.735134 0.165258
-0.753203 0.0399145 0.369311
-0.512559 -0.430741 -0.792853
-0.477386 -0.071288 -0.985076
0.550689 -0.564452 -0.568285
-0.0461642 0.162446 0.816248
0.0689643 0.257742 0.00675769
-0.397208 -0.165951 0.374012
0.724919 -0.05158 -0.0468559
0.641168 -0.349127 -0.901957
-0.741414 0.211673 0.737811
-0.215177 0.348394 -0.507572
-0.709825 0.0726808 0.201612
0.521344 0.332267 -0.40915
0.862277 -0.237865 -0.864082
-0.728047 0.416201 0.589232
0.344573 -0.708614 -0.571379
0.017005 -0.49995 0.06972
-0.193209 -0.077482 0.213073
0.068614 0.109093 -0.9274
-0.366713 -0.588064 -0.23152
0.070546 0.482427 -0.483383
-0.398597 -0.074187 0.314841
0.662394 0.197795 -0.597781
0.0600579 -0.646269 -0.854259
-0.416863 -0.417568 -0.977997
-0.840706 0.0140031 -0.0399309
-0.760477 0.203757 0.535851
-0.454129 0.0991913 -0.811319
0.133707 0.161205 0.132891
-0.630991 0.710632 0.934117
-0.251253 -0.529568 -0.672895
-0.845266 0.0469601 -0.140834
-0.477388 -0.438024 -0.977538
-0.322803 -0.10363 0.671204
-0.458309 -0.357233 0.551145
-0.913447 -0.419789 0.06773
0.633189 0.215976 -0.646005
-0.049182 0.300636 -0.112363
0.697445 0.168311 -0.250141
0.483906 -0.491852 -0.00703384
-0.360178 0.244954 -0.355317
0.205878 -0.650099 -0.816423
-0.329359 0.148369 -0.795316
0.278482 -0.074668 0.265492
-0.500757 -0.545761 0.224701
0.337562 -0.069449 0.25844
-0.723397 0.324503 0.797184
0.17739 -0.081024 -0.955431
-0.902128 -0.197289 -0.377521
0.332135 -0.72881 -0.33531
-0.139169 -0.221842 0.199248
0.529829 0.24315 -0.820142
-0.688347 -0.139256 0.609644
-0.014231 -0.107205 0.227503
0.0170951 0.113542 0.697406
0.326864 0.0927201 0.193452
-0.303245 -0.098029 0.54315
0.0048363 0.286047 0.815279
-0.224848 -0.372684 -0.97753
-0.586856 0.640412 0.771221
0.381172 0.370242 -0.748144
-0.859657 -0.55492 0.0201346
-0.13511 -0.059423 0.196235
0.685275 0.140027 -0.131106
0.259646 0.348476 -0.170509
-0.050113 -0.354534 -0.935538
-0.15144 0.451187 -0.290947
0.203675 -0.703611 -0.194127
-0.311811 -0.0615699 0.500178
0.353143 0.388194 -0.690136
-0.671956 -0.576016 -0.341008
0.248879 0.430456 -0.577464
-0.12961 0.0359091 0.173205
-0.940372 -0.16627 0.0592719
0.52345 0.283265 -0.207782
-0.237083 -0.426776 0.104437
0.388621 -0.695801 -0.353542
-0.978275 -0.224545 0.25538
-0.674881 -0.544656 -0.40936
-0.673374 0.0449999 -0.53979
0.494779 -0.577966 -0.757074
-0.744777 0.243289 0.611048
-0.0551942 -0.631683 -0.585688
-0.802265 0.0130122 0.401761
0.348486 0.407065 -0.467622
-0.343463 0.187656 -0.537188
-0.851309 -0.49074 0.0192202
0.270978 -0.505076 -0.99325
0.367017 -0.285834 0.2458
-0.455183 0.159466 -0.520115
-0.93949 -0.315676 0.381742
-0.308543 -0.573524 -0.230885
-0.138902 -0.509758 -0.596814
-0.0616892 -0.660082 -0.521096
-0.458535 -0.0252577 0.408155
-0.040936 0.493697 -0.499021
-0.0545197 0.0190996 0.643371
-0.912063 -0.287608 -0.30463
0.0402301 -0.700885 -0.640933
-0.557424 -0.589032 -0.150984
0.395848 -0.698477 -0.412959
-0.892088 -0.129748 0.0215109
0.005734 0.209637 0.854977
-0.013667 -0.222586 -0.9377
-0.822496 -0.650955 0.383235
-0.201783 -0.291672 0.193788
-0.235744 0.213523 -0.939914
-0.473699 0.189272 -0.460414
-0.459863 -0.421056 -0.627567
0.118895 0.423457 -0.713164
0.226405 -0.50108 0.111779
-0.0641809 -0.430281 0.117371
-0.316781 0.371553 -0.942291
-0.88342 -0.080374 -0.378799
0.129332 0.115234 0.184037
0.142983 0.299451 -0.126847
0.01115 0.251651 -0.00755106
-0.668305 0.169674 -0.107513
-0.539829 -0.400951 0.588441
0.410584 -0.63339 -0.19774
0.286947 -0.213116 -0.996381
-0.226916 0.380773 -0.917195
0.221919 -0.604892 -0.853455
-0.420749 -0.0682459 0.377092
0.162685 -0.749637 -0.395288
-0.970628 -0.381908 0.264446
-0.004761 0.164708 -0.926122
-0.862535 -0.653087 0.331232
-0.651127 -0.63861 0.39574
0.204893 0.392364 -0.183967
0.00183486 -0.695645 -0.210969
-0.746056 0.372166 0.547718
0.405428 0.167433 0.110771
0.276948 -0.690637 -0.755083
-0.259726 -0.5629 -0.46775
-0.9036 -0.185913 0.0180233
-0.23685 0.012417 -0.932761
-0.026842 0.395014 -0.783957
0.200778 -0.394686 -0.932604
0.071481 -0.670813 -0.171047
-0.492272 0.101535 -0.854714
-0.377873 0.261814 -0.169029
-0.828273 -0.168664 0.587667
-0.652118 0.064938 0.377036
0.930863 -0.199474 -0.811985
-0.053423 0.049821 -0.929882
-0.729959 -0.189682 0.612271
0.579307 0.283682 -0.394781
0.812869 -0.190816 -0.467491
-0.626356 0.023513 -0.982459
0.544772 0.109391 0.069079
-0.873942 -0.0761301 0.041024
0.677017 0.0742119 -0.8865
-0.878691 -0.359857 0.565143
0.728351 -0.2927 -0.0696271
-0.433435 -0.190956 -0.971452
-0.686465 0.016589 -0.978185
-0.077047 -0.709074 -0.897977
0.283584 -0.195555 0.270603
-0.241808 0.102862 0.150704
-0.680702 -0.0403369 0.61923
-0.316918 -0.567111 -0.493175
0.395199 0.273846 -0.0938058
-0.625905 -0.539813 -0.454527
-0.080807 0.496806 -0.444896
0.125197 -0.314041 -0.9377
-0.903951 -0.042876 -0.18583
0.556043 0.14173 0.021817
-0.583843 -0.102665 -0.649779
-0.685093 -0.554604 -0.113409
0.807307 -0.348884 -0.836524
0.651268 0.105684 -0.802702
-0.273633 -0.250667 0.223647
-0.635589 0.576255 0.847111
-0.245696 0.168199 -0.616487
-0.464191 0.101921 -0.670294
0.79492 -0.292829 -0.465174
-0.923609 -0.387815 0.512166
0.034725 0.289568 0.990514
-0.680212 -0.012423 -0.862092
0.985829 -0.224621 -0.602536
0.31999 -0.333231 0.239776
-0.453623 -0.260639 -0.714374
0.521773 -0.525472 -0.778732
-0.475688 -0.411337 0.529546
0.287088 0.412508 -0.621304
0.231492 -0.730637 -0.646881
0.142692 -0.162902 0.260738
-0.891291 -0.373198 -0.286901
0.443077 0.356052 -0.752827
-0.567339 0.0998848 -0.909195
0.583449 -0.505079 -0.740613
-0.423619 -0.0179462 0.47219
-0.0916479 0.459561 -0.577674
0.266753 0.180149 -0.961641
-0.178444 0.22834 -0.936453
0.00630801 0.039415 -0.930615
0.527546 0.28519 -0.729443
-0.971305 -0.244181 0.0779128
0.111367 0.394546 -0.805242
0.396613 -0.569121 -0.920714
-0.593768 0.0961888 -0.966474
-0.464966 -0.454128 0.328244
0.973081 -0.26386 -0.642491
-0.774036 0.367094 0.792908
0.714235 -0.352481 -0.0893571
-0.629746 -0.00622315 -0.830729
-0.055252 0.495625 -0.387112
-0.46273 -0.267214 -0.813284
-0.469794 -0.10008 0.667584
-0.192576 0.431875 -0.443911
-0.177625 -0.347138 -0.943269
-0.342059 0.204351 -0.98309
0.476745 -0.00608793 0.188858
0.816062 -0.116097 -0.488389
-0.1977 0.358586 -0.274132
-0.451506 -0.423017 -0.684651
-0.313264 0.213554 -0.453356
-0.655159 -0.424566 -0.961083
0.757854 0.0929969 -0.266677
-0.507191 -0.342913 -0.819463
-0.191475 -0.498788 0.00400319
-0.657276 0.273667 0.762449
-0.729475 0.365936 0.617234
0.169862 -0.743374 -0.534119
-0.749926 0.0392261 0.430988
-0.0883199 0.3213 -0.984692
-0.880582 -0.165406 0.557814
0.479807 0.350726 -0.373468
0.06018 -0.274428 -0.938372
-0.661759 -0.59102 -0.258947
-0.799593 -0.713405 0.193238
-0.153127 -0.433525 -0.932461
-0.408049 0.197227 -0.465212
-0.807965 0.466429 0.793528
0.660835 -0.161688 0.0569053
0.875291 0.063286 -0.74086
-0.810336 -0.721909 0.266947
0.161777 -0.451021 -0.931301
-0.535273 0.171994 -0.498695
-0.904102 -0.148911 -0.0328559
-0.164845 0.202236 0.0487201
-0.722726 0.287101 0.508271
-0.177264 -0.41713 0.105047
-0.842945 -0.0989172 0.552006
-0.905411 -0.133591 -0.344286
0.166237 0.402457 -0.774657
-0.6809 0.0927601 0.0595991
-0.729393 0.605726 0.839094
0.127395 0.44482 -0.22061
-0.001088 -0.066182 -0.933904
-0.116499 0.0975551 0.835834
0.332099 0.365093 -0.800575
0.48368 0.0451812 0.156264
-0.576783 -0.633287 0.13865
-0.673532 0.139156 -0.467579
-0.676842 -0.577853 -0.167411
-0.358554 0.294091 -0.884245
-0.34233 -0.400971 0.127593
0.0674581 -0.550058 -0.974626
0.301286 0.414939 -0.545326
-0.820439 0.0840242 -0.336207
0.419884 -0.229009 0.236672
0.426279 -0.634399 -0.680908
0.218885 -0.097198 -0.992694
-0.58519 0.36356 0.590505
-0.731638 -0.056569 -0.903889
-0.141702 0.36058 -0.711946
-0.206004 0.224141 -0.00126793
0.676499 -0.314765 0.0136328
0.154812 0.026416 -0.929989
0.350362 -0.570987 -0.977377
-0.657272 -0.500286 0.558535
-0.595371 0.717301 0.713549
-0.508111 -0.152775 -0.725225
0.661658 0.240201 -0.33163
-0.594507 0.042393 0.567413
-0.229729 -0.583035 -0.271837
-0.59956 0.426441 0.746772
0.265252 -0.746008 -0.341818
-0.533719 0.170815 0.062173
0.453729 -0.152531 0.223052
-0.856903 -0.182097 -0.435752
0.849653 -0.344813 -0.796878
0.232606 -0.732904 -0.586695
0.061546 0.158669 0.126911
0.809383 -0.211155 -0.395425
-0.786373 0.102518 -0.107663
-0.675718 -0.506381 -0.474631
0.805371 -0.266186 -0.412638
0.399413 -0.442061 0.138739
-0.786031 0.017872 0.067105
-0.175408 -0.596256 -0.809052
-0.119449 0.227076 -0.93541
-0.514188 0.141818 0.112002
-0.163709 0.443479 -0.496179
0.381465 -0.402489 0.184553
-0.923245 -0.0760362 -0.256383
0.471971 0.365674 -0.545065
-0.573688 0.361036 0.650654
-0.571035 -0.522303 0.398854
-0.640618 0.0893271 0.100375
-0.833966 -0.138303 -0.482276
0.452508 0.331021 -0.254937
-0.102491 -0.135372 -0.9356
-0.907631 -0.250724 -0.353222
0.410448 -0.615818 -0.142355
-0.799613 -0.4948 -0.166189
0.485104 -0.525469 -0.930054
0.040007 -0.024134 -0.932849
0.185662 -0.700875 -0.677199
-0.91769 -0.444247 0.361888
0.445753 -0.268722 -0.994442
-0.930222 -0.146991 -0.107864
-0.819601 -0.21268 -0.503328
-0.371694 -0.3734 -0.985282
-0.168015 -0.513043 -0.959001
0.165101 -0.609422 -0.862478
0.54369 0.153533 -0.845242
-0.766834 0.0979541 -0.412026
-0.886067 -0.318825 -0.35091
0.542412 0.198835 -0.047964
-0.629964 0.530245 0.59823
-0.551332 -0.586562 0.160433
-0.677559 0.576852 0.575167
-0.0933589 -0.696682 -0.327022
-0.856612 -0.408898 -0.0712741
0.424108 0.114773 0.144821
-0.52712 -0.279183 0.603887
-0.493634 -0.20424 -0.807529
-0.735714 0.305682 0.613084
-0.753424 0.0602617 0.278991
-0.385069 0.164276 -0.578436
0.552613 -0.364799 0.118727
-0.461481 -0.289762 0.569604
0.1223 -0.750894 -0.46535
0.044332 -0.748624 -0.314144
-0.679846 -0.552048 0.00529847
-0.61115 -0.550899 -0.885341
-0.228841 0.359432 -0.443706
-0.500688 0.0958551 -0.592389
-0.108875 -0.634397 -0.257586
0.131357 0.485382 -0.358337
0.396293 -0.560497 -0.0701797
0.924635 -0.276962 -0.781163
-0.187283 -0.0334958 0.588041
-0.456421 -0.347104 0.482909
0.187519 0.134576 0.153555
-0.753029 0.0599385 0.141384
0.637612 -0.473261 -0.729469
0.808716 -0.081217 -0.328224
0.591965 0.134023 -0.79873
0.606849 -0.517291 -0.673933
-0.201794 -0.640597 -0.855482
-0.822194 -0.367418 0.584705
-0.199054 0.281706 -0.639551
0.418704 -0.319066 -0.994816
-0.552234 -0.093534 0.60351
-0.335582 0.14987 -0.610737
0.654615 -0.425498 -0.0804808
0.713996 -0.206529 -0.945891
0.212943 0.120557 -0.926962
-0.447956 0.218559 0.000179005
0.328607 0.237417 0.0406677
0.642642 0.23084 -0.435126
-0.46187 -0.502981 0.229998
0.083123 -0.099806 -0.935115
0.388679 0.041289 -0.994995
-0.188678 -0.371087 0.142879
-0.63043 0.38189 0.533141
0.165567 -0.482121 0.132961
-0.06755 -0.089953 -0.934806
0.32568 0.276447 -0.985054
-0.806867 -0.634712 0.0374982
-0.961109 -0.15895 0.261384
-0.810935 0.107729 -0.200154
0.755816 -0.381754 -0.44702
-0.752467 0.313032 0.551719
-0.949853 -0.573098 0.230266
-0.841308 -0.544055 0.478816
0.467563 0.362574 -0.48618
0.661793 -0.228344 0.053284
-0.029163 0.227233 0.739431
-0.668927 -0.67055 0.346258
0.397749 0.313405 -0.192452
-0.386074 -0.552429 -0.827497
0.512763 -0.082394 0.184599
-0.108515 -0.533868 -0.679418
0.000468857 0.182418 0.787591
0.067966 0.295219 0.918354
0.635996 0.154224 -0.72654
-0.0260329 -0.167055 0.227867
-0.609759 -0.509851 -0.843049
0.325262 0.413614 -0.34541
0.926164 -0.327526 -0.67626
0.557171 0.0498331 -0.942177
0.099293 -0.722009 -0.652357
0.728395 -0.26562 -0.926213
0.11285 -0.633152 -0.873308
0.660451 -0.088138 0.052928
-0.439435 -0.470712 -0.59415
0.634784 -0.372069 0.0303808
-0.499243 -0.541758 -0.801598
-0.900213 -0.0209191 -0.240252
-0.487815 0.00868578 0.369854
0.7615 -0.281166 -0.154946
-0.657456 0.190377 -0.167152
-0.578355 0.037297 0.51162
-0.763209 0.188455 0.601148
-0.209338 -0.59467 -0.980509
-0.443475 -0.298218 0.449241
-0.415083 0.235863 -0.04932
-0.474284 -0.0386801 0.669434
0.753525 -0.0383219 -0.101751
-0.134931 0.048044 0.877781
0.399214 0.0298412 0.208719
0.406657 0.394242 -0.516299
0.523063 0.242884 -0.106303
-0.301426 0.117056 0.660653
-0.526453 0.0620729 -0.820357
0.694756 -0.149089 -0.960479
-0.579696 -0.165969 -0.825244
0.600234 0.0966058 0.0358678
-0.757451 -0.511685 -0.109604
-0.531986 0.119325 -0.542956
0.680679 -0.03943 0.0164399
0.805446 -0.23619 -0.343819
-0.478628 -0.238971 -0.980531
-0.0453759 0.257164 0.81374
-0.101952 0.365574 -0.780173
-0.603546 0.160048 0.652779
0.503478 0.153626 0.0635941
-0.284316 -0.502977 0.00445494
-0.289823 0.0222601 -0.952246
-0.224905 -0.563777 -0.397856
-0.354428 -0.201217 0.283508
-0.771416 0.13412 -0.154471
0.275385 -0.429844 -0.942568
-0.944592 -0.267413 -0.235852
-0.723487 -0.642704 0.433734
-0.877028 -0.0222749 -0.0741969
-0.218801 -0.521128 -0.0417031
-0.208386 0.216263 -0.760351
-0.755868 0.0649251 0.0233161
0.771348 -0.339867 -0.515156
-0.66283 0.310603 0.498669
-0.638492 0.048091 -0.866612
-0.530431 -0.50255 0.517044
-0.13035 0.244265 -0.000715768
0.543974 -0.038485 0.152816
0.800792 -0.0296521 -0.469005
0.141189 -0.719451 -0.209778
-0.79015 -0.574445 0.48756
0.193721 0.271154 -0.989788
0.098412 0.195758 -0.935717
0.219665 -0.692084 -0.777498
-0.620099 -0.140288 0.604271
-0.940262 -0.508376 0.066745
0.319271 0.360545 -0.198312
0.862403 -0.084139 -0.513204
-0.59555 -0.617626 -0.27333
-0.14154 0.203588 0.830868
0.01272 0.0958139 0.153097
-0.364178 0.02288 0.77131
0.38413 -0.103017 0.249161
-0.465879 -0.368794 -0.706271
-0.476261 -0.512506 0.0124668
0.5751 -0.250399 0.14022
0.710019 -0.104706 -0.017014
0.224042 -0.753099 -0.417249
-0.137702 0.357123 -0.841187
-0.761579 0.513605 0.873337
0.260953 -0.561667 -0.0851619
0.440381 -0.676188 -0.381287
0.276057 0.37468 -0.791403
-0.24643 -0.390753 0.150775
-0.546242 -0.38694 -0.821755
-0.828714 -0.413992 -0.399955
-0.895141 -0.040966 -0.32237
-0.230208 -0.558891 -0.814615
0.244614 -0.654248 -0.155466
-0.324572 0.25774 -0.120419
0.76604 0.00836489 -0.169167
-0.766171 -0.533083 0.527494
0.247601 -0.297831 0.253927
-0.354101 0.225691 -0.831164
-0.20966 0.174611 0.0827691
-0.630964 0.745469 0.830346
0.535693 -0.498464 -0.0439951
-0.261313 0.213318 0.0338989
-0.435068 -0.479272 -0.976691
-0.033733 0.276035 -0.033116
0.563119 0.246201 -0.768041
-0.232643 0.361825 -0.384374
0.696709 -0.441655 -0.194403
0.112686 -0.638326 -0.947521
0.510621 -0.59362 -0.597041
-0.694974 0.190094 -0.283655
-0.411043 -0.295817 0.361561
0.191716 -0.318506 0.248346
-0.871377 -0.67538 0.179136
-0.413888 -0.523851 -0.542511
-0.261914 0.24193 -0.4596
0.337762 -0.612606 -0.139498
0.257169 0.443988 -0.407635
-0.613432 -0.606505 -0.327578
-0.385383 -0.592884 -0.162243
-0.728658 -0.268616 -0.582963
-0.201534 0.0479651 0.871852
0.526118 -0.456189 0.026458
-0.726585 -0.603722 0.4792
0.026399 0.390148 -0.804064
0.026321 0.335603 -0.939514
0.10911 -0.758068 -0.377252
0.440795 0.229567 -0.921862
-0.774335 0.419238 0.816093
0.261258 0.26336 -0.004723
0.782195 -0.231455 -0.188232
0.011599 -0.455376 -0.930166
-0.567112 -0.166826 -0.664385
-0.611648 -0.0192449 -0.621437
-0.267297 0.179229 0.0837984
-0.116748 -0.479822 -0.928582
-0.057213 0.239843 -0.967927
-0.410573 -0.121366 0.672991
0.00838905 -0.397416 0.165455
-0.643413 -0.44742 -0.900287
-0.00559503 0.428518 -0.721716
0.803968 -0.0313099 -0.407866
-0.181987 0.100371 0.596036
0.60532 0.0339731 0.0750432
-0.436587 -0.018311 -0.984347
-0.444701 -0.498996 0.175423
0.006745 -0.529954 0.021739
-0.321839 0.0531091 0.800356
-0.429623 0.256404 -0.320271
-0.604566 -0.691127 0.136171
0.869346 -0.11407 -0.867916
-0.620324 0.0806571 0.158454
-0.68724 -0.16171 -0.620541
0.453665 0.0573279 -0.974732
0.219805 0.059543 -0.930495
0.392201 -0.647334 -0.736628
0.5669 -0.569288 -0.19787
-0.746284 0.167974 -0.301184
-0.761465 -0.611149 0.0106082
-0.0508908 -0.721133 -0.295952
-0.969504 -0.523934 0.133761
0.264538 -0.703741 -0.208271
-0.57806 0.160736 0.575459
0.795759 -0.130453 -0.213149
-0.795923 -0.161944 -0.517541
-0.912206 -0.0538637 0.13436
-0.629055 -0.553811 -0.940679
0.958339 -0.231425 -0.760356
-0.613941 -0.571207 -0.406824
-0.533785 0.0422089 0.374454
0.588606 -0.489063 -0.092921
-0.623838 0.191365 0.699901
-0.652693 0.180172 0.466333
-0.488434 -0.502352 -0.976707
-0.31239 0.155568 -0.962721
0.010409 0.191089 0.684116
-0.658828 -0.689158 0.0620257
-0.685996 -0.335534 0.612982
-0.326067 0.067218 -0.961173
0.790945 -0.0104533 -0.52747
-0.54332 -0.621478 -0.895119
-0.11263 0.120825 0.621696
0.665492 0.03809 0.00127005
0.142623 -0.745486 -0.324107
-0.375946 0.0712858 0.656041
-0.32942 0.225249 0.0021999
0.015986 0.495252 -0.395611
-0.948693 -0.311163 0.487838
0.737215 0.0408701 -0.884159
-0.473392 0.0252492 0.315155
-0.090048 -0.29898 -0.937837
-0.426536 0.136116 0.15145
-0.384665 0.255513 -0.110268
0.506352 0.0792219 -0.928139
0.492494 0.33315 -0.724019
-0.866539 -0.635616 0.053347
-0.28613 -0.580369 -0.287239
-0.506388 -0.590715 -0.832947
-0.648896 0.419876 0.802655
-0.050616 0.0693552 0.170763
0.151059 0.331776 -0.868886
0.875967 0.0295502 -0.798256
-0.599818 0.095345 0.604108
0.937203 -0.3022 -0.594116
0.334464 -0.178908 -0.991013
0.702265 0.0625549 -0.0894611
0.601841 -0.387614 -0.876846
-0.597558 -0.572049 0.323687
-0.41089 -0.09035 -0.985988
-0.535187 -0.314076 -0.981786
-0.634782 -0.487984 -0.515008
0.325271 -0.154785 0.267404
-0.671712 0.149201 -0.0482092
-0.604215 0.145701 0.47213
-0.655926 0.0128121 -0.589007
0.213811 0.419781 -0.687199
-0.214023 0.204069 -0.68539
0.328228 -0.463412 -0.991905
-0.834476 -0.487992 0.52709
-0.624815 -0.354558 -0.914267
-0.141487 -0.0219312 0.653774
0.686219 -0.404557 -0.730169
-0.654444 0.199622 -0.223572
-0.221907 0.255318 -0.976402
0.014082 -0.625349 -0.79465
-0.686096 0.372696 0.510813
0.468453 -0.614806 -0.22878
0.244678 0.353384 -0.837239
0.032495 0.496344 -0.332591
0.188082 -0.151192 -0.97846
-0.215958 0.159604 -0.923516
-0.423349 -0.490166 0.0405243
-0.996731 -0.306583 0.181956
-0.45134 -0.617059 -0.292627
0.429316 -0.503404 0.00800196
0.091912 0.336185 0.797056
0.806131 -0.126966 -0.280227
-0.48648 -0.202389 -0.693821
-0.581403 -0.470418 -0.554722
-0.611128 -0.622292 0.281641
-0.235754 0.243876 -0.538098
0.534799 -0.604746 -0.238088
0.716486 0.0996628 -0.822673
-0.00123811 -0.0128129 0.210997
-0.000951084 0.299338 0.941051
-0.277751 0.068521 0.560365
0.493602 0.28333 -0.15578
-0.134479 0.18389 0.885435
-0.544216 -0.335478 0.601328
-0.224555 -0.00603615 0.739155
-0.839394 -0.0489169 0.417041
-0.928449 -0.33401 -0.166035
0.569584 -0.595889 -0.310903
0.812601 -0.139537 -0.426843
0.38136 -0.42864 -0.994801
-0.518517 0.243118 -0.136016
-0.662391 -0.582883 0.490553
0.642014 -0.161812 -0.979447
0.667322 0.162153 -0.671659
-0.135202 -0.518829 -0.0169002
0.246416 -0.358197 0.231435
-0.701933 0.516167 0.86574
-0.926419 -0.0938939 0.279639
-0.412939 0.180221 0.0725671
-0.016649 -0.517362 -0.934048
-0.179327 0.375582 -0.955703
0.087385 0.328031 -0.95002
0.276954 0.431615 -0.286744
-0.589594 -0.50741 0.545706
-0.55886 -0.55677 0.267425
0.262151 -0.00523703 0.250051
-0.652897 -0.674545 0.287813
0.228003 0.432612 -0.252468
-0.591259 0.753898 0.773709
-0.186082 0.042436 0.75142
0.384458 0.356587 -0.233441
-0.732953 0.172084 0.494387
-0.27128 -0.564073 -0.143114
-0.613681 0.163258 -0.00306087
0.023577 0.298693 -0.988993
-0.274933 -0.534152 -0.072195
0.06513 -0.65459 -0.913806
0.960437 -0.02076 -0.682956
-0.64925 0.014436 0.624289
-0.632005 -0.169818 -0.644254
0.239412 0.235422 0.0700001
0.538671 0.314261 -0.357084
-0.873042 -0.672322 0.116253
0.518 -0.410842 -0.951075
0.666304 -0.505959 -0.459415
0.674506 0.026624 -0.934536
-0.167729 -0.498641 -0.649318
-0.853697 -0.102199 0.494208
0.0385399 0.276626 0.766449
0.508826 0.179411 0.011763
0.851236 0.078087 -0.669415
-0.443004 -0.546606 -0.977987
-0.580959 0.69726 0.809646
0.311037 -0.58374 -0.924665
0.360603 0.405606 -0.564057
0.845244 -0.351545 -0.618048
-0.120743 -0.283246 0.177762
0.263343 0.117575 0.178185
0.699118 -0.466664 -0.494865
-0.581275 0.21798 0.560671
0.704367 0.126196 -0.634078
-0.65586 0.330444 0.783708
-0.623118 0.129443 0.0597503
-0.80113 -0.506091 -0.274934
-0.057697 -0.628392 -0.984688
0.784161 0.0200621 -0.380858
0.445787 0.314498 -0.799404
-0.708142 0.656251 0.867182
-0.514863 -0.388612 -0.618261
-0.659861 0.11069 0.44435
-0.134007 -0.691911 -0.875501
0.532753 0.313654 -0.563492
-0.12611 0.265632 -0.984733
0.0117951 0.484259 -0.535145
-0.69644 0.0779205 0.268759
-0.913696 -0.0434949 0.23014
-0.688604 -0.633787 0.0248048
-0.769587 0.017696 0.485204
0.421229 0.382351 -0.583278
-0.302409 0.130188 -0.6662
0.11437 -0.11158 0.254404
-0.592766 0.077369 0.455895
-0.406422 -0.18191 0.508866
-0.156929 0.0457381 0.819955
0.800175 -0.238989 -0.279856
-0.434276 -0.351143 0.368404
0.195903 -0.576324 -0.102378
-0.0258 0.326114 -0.974676
0.280996 -0.717211 -0.261205
0.554002 0.000681888 -0.974537
-0.732032 0.467307 0.85263
0.740044 -0.158031 -0.066487
-0.0825689 -0.233031 0.203929
-0.830282 -0.468725 -0.308842
-0.684954 -0.239258 -0.617859
-0.838449 -0.262522 -0.460626
-0.660514 -0.723212 0.110437
-0.210512 -0.534572 -0.579596
-0.93679 -0.283283 -0.133287
-0.494513 -0.541128 0.141871
0.684583 -0.423772 -0.132809
0.109071 -0.733642 -0.530003
-0.601592 0.209484 0.50235
-0.631243 0.0937929 -0.531616
0.81128 -0.08753 -0.394307
-0.598338 -0.082529 -0.983106
0.669859 -0.299276 -0.936745
0.690097 -0.34571 -0.0323748
0.606621 0.269318 -0.479954
-0.648907 -0.192182 0.612791
-0.494405 -0.007181 -0.9844
-0.480958 -0.0149109 0.474278
-0.473643 0.0776773 -0.758908
-0.572567 0.298902 0.624938
-0.433037 -0.237512 0.469667
-0.32107 0.147718 0.137146
-0.0190001 0.349417 -0.905934
0.679735 -0.466022 -0.658852
-0.551038 -0.433104 -0.976688
-0.161037 0.197976 0.773237
-0.618909 0.256066 0.723903
-0.121157 -0.359184 -0.936395
-0.850334 -0.436737 0.548611
-0.4167 0.226428 -0.396447
0.395433 -0.684504 -0.586408
-0.174001 0.26049 -0.0362252
-0.911591 -0.0759309 -0.129127
0.740992 0.076441 -0.573827
-0.671053 -0.0863079 -0.613454
-0.0625251 0.07954 0.612912
-0.270657 0.111746 0.807697
-0.149756 -0.64887 -0.823389
-0.710678 -0.432002 0.588704
0.080131 0.00489106 0.227064
0.791431 -0.068817 -0.200311
-0.0666049 0.0143949 0.189898
-0.581991 0.0785414 0.210591
0.472091 0.127973 0.1048
0.322432 -0.00912389 0.246327
-0.888679 -0.396516 -0.137224
-0.733769 0.0935711 0.469932
0.4592 0.210298 -0.00269901
-0.935718 -0.443794 0.305471
0.57602 0.287894 -0.535593
-0.266909 -0.586845 -0.361481
0.883886 -0.322831 -0.582442
-0.459847 -0.364635 -0.981688
-0.539903 -0.49573 0.347617
0.638719 0.227045 -0.513503
-0.711012 0.525724 0.702591
0.99597 -0.126502 -0.626669
-0.729998 0.453559 0.537395
0.0723949 -0.512193 0.0753212
0.769163 -0.313323 -0.201516
0.81216 0.0772968 -0.803759
-0.164226 -0.570351 -0.371267
-0.927134 -0.371498 0.406606
-0.935229 -0.141247 -0.273392
-0.630199 -0.599006 0.445397
-0.787879 0.135407 -0.258704
-0.314876 0.261394 -0.321302
-0.748702 -0.728499 0.219058
-0.20206 -0.00255695 0.675348
-0.208607 0.0308109 0.553474
-0.502 0.115899 -0.981945
-0.474213 -0.498958 -0.557977
-0.921772 -0.102997 0.339069
-0.678081 0.670019 0.819291
-0.749558 -0.370592 0.602113
-0.380613 -0.144925 -0.964992
-0.303505 -0.15912 -0.965842
0.257839 -0.591175 -0.13408
-0.990994 -0.245305 0.190822
-0.717581 0.170231 -0.190348
0.169621 0.352707 -0.154927
0.06377 -0.495341 -0.933719
-0.854743 -0.693247 0.233223
0.638898 -0.287635 0.0742198
0.58268 0.260704 -0.654204
-0.196991 0.430859 -0.386994
-0.00582093 -0.706107 -0.536942
-0.558134 -0.583898 -0.403924
-0.19045 -0.525248 -0.771783
0.201123 -0.449381 0.166689
-0.633008 -0.2552 -0.637525
-0.639128 0.0787971 0.277222
-0.688247 -0.461678 -0.50807
-0.394882 -0.504474 -0.61256
0.322571 0.330831 -0.871707
0.674678 -0.504501 -0.258917
0.013773 0.347536 -0.852647
-0.370541 -0.0583231 0.264862
-0.433784 -0.0687991 0.703879
-0.464907 -0.312666 -0.750419
0.151452 -0.263066 -0.939
0.590778 -0.285992 -0.962773
0.391388 -0.155007 -0.984056
-0.755999 0.141064 0.551693
0.327826 -0.718392 -0.403965
-0.25262 -0.001043 0.528687
-0.361907 -0.0324259 0.474578
0.362999 -0.513481 0.00593399
0.238347 -0.737262 -0.52041
0.055506 0.40639 -0.178432
-0.630111 -0.543124 0.523624
0.489175 0.179083 -0.872617
-0.071014 0.401349 -0.194977
0.36637 0.252782 -0.04651
0.428998 0.291691 -0.885745
-0.966125 -0.496991 0.184434
0.578858 -0.588118 -0.416858
-0.0955004 0.0925803 0.889779
0.317692 0.024401 -0.995307
-0.25237 0.245622 -0.0443839
0.27466 0.0600079 -0.973916
0.219238 -0.552056 0.022007
0.202646 -0.0115779 -0.945217
0.067053 0.225612 0.790648
0.792619 0.042097 -0.858484
0.978617 -0.230686 -0.696402
-0.482907 -0.33569 -0.656908
-0.182698 0.321681 -0.230066
0.555544 0.310724 -0.452139
0.141202 -0.524017 0.0713299
0.542428 -0.325298 -0.961998
0.489512 -0.436607 0.102329
0.290851 0.273959 -0.07079
-0.5151 0.0495295 0.278371
-0.436078 -0.605366 -0.967131
-0.314023 0.00149309 0.503174
0.350647 -0.237383 -0.990725
-0.540757 -0.219705 -0.672193
0.160168 0.327371 -0.943868
-0.347347 -0.527072 -0.735781
-0.31269 -0.360202 -0.981813
0.724674 -0.437156 -0.323974
-0.272724 -0.553108 -0.62241
-0.556612 -0.279181 -0.654493
-0.201255 -0.456349 -0.956074
-0.455598 -0.602981 -0.856461
-0.0810169 0.208073 0.928583
0.166556 0.217741 0.0640126
-0.144905 -0.041664 -0.932142
-0.407531 0.256578 -0.22357
0.647602 -0.0909879 -0.977387
-0.0944411 -0.67815 -0.831758
0.365799 -0.213063 0.256958
0.586404 -0.531776 -0.157723
0.692622 -0.476957 -0.400759
-0.621227 -0.561754 0.034631
0.723813 -0.00883788 -0.931174
0.384374 -0.354537 0.216707
-0.415681 0.214036 -0.979959
-0.868817 -0.614843 0.37942
0.081875 0.028659 -0.930499
0.103634 -0.441823 -0.931462
-0.756766 -0.667785 0.0497498
-0.408955 -0.119537 0.407491
0.730068 0.152847 -0.373976
-0.983344 -0.204764 0.141946
0.068053 0.350314 0.946997
0.916976 -0.093172 -0.824236
-0.713703 0.00108095 -0.539139
-0.198897 -0.497245 -0.709141
0.375295 0.208783 0.0683068
-0.11815 -0.613942 -0.786746
-0.664249 -0.0598851 -0.827801
-0.625618 -0.170312 -0.978798
-0.456702 -0.225269 0.573371
-0.743944 -0.111143 -0.920924
-0.378589 -0.511836 -0.978507
-0.529457 -0.516808 0.0751757
-0.126027 0.366234 -0.934501
0.593477 -0.469433 -0.787449
0.430608 -0.475823 -0.992588
-0.320203 0.283259 -0.828631
-0.597117 -0.0475231 -0.805364
0.463619 0.120869 -0.935724
-0.718767 -0.72485 0.111792
-0.951401 -0.513949 0.244773
-0.317141 -0.105567 0.609411
0.872204 -0.366277 -0.675457
0.456086 -0.584702 -0.107513
-0.788496 -0.702655 0.333777
0.723596 0.130077 -0.561565
-0.479225 -0.431383 0.39278
-0.935766 -0.584023 0.0771609
0.112258 0.280232 -0.989066
0.092831 0.482754 -0.314507
-0.551105 -0.560027 0.108883
-0.085464 0.186641 0.071574
-0.553284 -0.547641 -0.975403
0.720518 -0.430159 -0.57421
0.431035 -0.063464 -0.983092
-0.574896 -0.619021 0.211181
-0.293444 -0.528134 -0.780647
0.427764 0.198605 0.0483079
-0.718317 -0.559636 -0.303764
-0.0894381 -0.172476 0.211532
-0.518486 0.202717 0.00652299
0.493383 -0.07361 -0.998649
-0.770161 0.0867119 0.6124
0.486204 0.331841 -0.311524
0.22408 -0.205963 -0.992322
0.213073 0.198939 -0.965329
-0.146315 -0.179036 -0.944678
-0.704191 0.186056 -0.344107
-0.736023 -0.71542 0.31563
-0.682565 0.643032 0.677711
0.407262 0.374333 -0.641796
-0.817354 -0.0324074 0.476608
0.37195 -0.352015 -0.992479
0.321144 -0.361355 -0.960495
0.194039 0.467869 -0.347209
-0.263579 0.15963 -0.780025
0.291617 0.216418 0.0870972
-0.255546 0.055565 0.848597
-0.932809 -0.633243 0.151785
-0.100848 0.226827 0.784824
0.158996 0.182914 -0.932166
-0.119764 0.479571 -0.332429
-0.98922 -0.340338 0.229954
0.0455589 0.323906 0.830759
0.205791 0.254435 0.018367
-0.618347 -0.320885 0.61333
-0.276264 -0.466762 0.0582432
-0.204347 0.311121 -0.988034
-0.860372 -0.423167 0.0324415
-0.0834409 -0.369469 0.150368
0.297285 0.31029 -0.947811
-0.822344 -0.477834 -0.221411
0.611421 0.266845 -0.34368
0.529145 -0.494369 -0.828433
0.0129039 0.226684 0.944464
-0.0898482 -0.610321 -0.525513
-0.986181 -0.36124 0.151803
-0.01263 -0.279726 -0.9377
-0.862938 -0.016021 0.302822
-0.663898 0.475177 0.827907
-0.0279381 -0.664834 -0.823066
-0.356672 -0.309297 0.248958
0.685889 0.098818 -0.735055
0.691518 -0.0584119 -0.957241
0.0396539 0.236604 0.720012
0.797687 -0.00901706 -0.889568
-0.57522 -0.198304 0.609105
-0.133033 -0.260331 -0.94033
-0.740803 -0.681337 0.379415
-0.425079 0.125208 -0.856505
0.05144 -0.554655 -0.00718795
-0.0756159 -0.519186 -0.938092
0.870554 -0.0304861 -0.535521
-0.857569 -0.029417 -0.40067
0.990913 -0.152874 -0.576395
-0.768336 0.397968 0.716812
-0.398472 0.116638 -0.798075
-0.171955 0.119688 -0.927387
-0.323956 -0.547165 -0.826276
0.478817 -0.221843 -0.984367
0.618158 0.00557811 -0.959788
0.229048 0.318604 -0.956607
0.737103 -0.407331 -0.506574
0.0642989 -0.734858 -0.487334
0.272384 -0.51629 0.078337
0.664518 -0.519678 -0.349025
-0.368718 -0.137706 0.63276
-0.956665 -0.415214 0.126877
0.298472 0.440928 -0.462166
-0.348842 -0.589909 -0.286426
0.467281 -0.603881 -0.160204
-0.293438 -0.014904 0.804754
0.162227 -0.57792 -0.052284
-0.826299 0.0864621 -0.279392
-0.909164 -0.373155 -0.229994
-0.702151 -0.575516 -0.221633
-0.518675 0.125432 -0.927475
-0.696951 -0.178828 -0.962143
-0.148438 -0.607086 -0.9818
0.475653 -0.154598 -0.979828
0.808898 -0.373243 -0.656295
-0.573928 0.128172 0.096652
-0.911186 -0.564089 0.349801
-0.56974 0.0753899 -0.568301
-0.158237 -0.588346 -0.268059
0.664433 0.0939871 -0.043147
-0.444774 0.2633 -0.157996
-0.446905 -0.544439 -0.0350759
0.251111 -0.564684 -0.991664
-0.577052 -0.13846 -0.982985
0.030112 -0.661497 -0.97341
0.222593 -0.452778 -0.941559
-0.873783 -0.100906 0.428062
-0.616665 0.503026 0.789998
-0.210149 0.324851 -0.560661
-0.25814 0.297488 -0.311033
0.060305 -0.070178 0.240073
0.353102 0.296812 -0.136287
-0.605571 -0.278549 -0.967075
-0.385953 0.032313 0.544216
0.0379832 0.0395927 0.201081
0.850773 0.00536708 -0.844832
-0.357694 -0.540219 -0.570542
-0.0294329 -0.747323 -0.34481
-0.551459 -0.338646 -0.631984
0.378579 0.321587 -0.865969
0.797808 -0.26728 -0.522295
0.138857 0.0174789 0.234527
-0.771901 0.512133 0.795024
-0.278743 0.129266 0.753626
0.070012 0.412497 -0.765177
-0.331207 -0.11155 0.255266
-0.640518 -0.249574 0.615694
0.548113 -0.536421 -0.112752
-0.267827 -0.0808199 0.628381
-0.104263 0.114326 0.782497
0.53486 -0.554088 -0.723208
0.339098 0.393442 -0.245333
-0.584024 0.297073 0.566667
0.620472 -0.548756 -0.375741
-0.0355231 0.342583 -0.166863
-0.462452 -0.136895 -0.9782
-0.962764 -0.584831 0.172784
-0.320512 0.0465991 0.222554
0.698872 0.00481415 -0.0321557
-0.219246 -0.457859 0.0533012
-0.019297 0.190297 0.90929
0.364775 -0.013807 -0.997563
-0.729644 -0.474392 -0.4654
-0.478862 -0.300085 -0.982395
0.69704 0.165974 -0.485424
0.29819 -0.725295 -0.622241
-0.184604 -0.168792 0.215408
-0.385088 -0.577709 -0.972906
0.905169 -0.152879 -0.841285
-0.300639 -0.250698 -0.967109
0.215288 -0.0398691 0.257405
-0.684784 0.696066 0.946536
0.290035 -0.658731 -0.810168
0.175356 0.466428 -0.40385
-0.187933 0.343937 -0.617797
-0.338066 -0.302087 -0.970601
-0.532781 0.252508 -0.211306
-0.803528 -0.681959 0.13356
-0.495394 -0.569735 -0.976594
0.324416 -0.117714 -0.990874
-0.597307 0.0633901 0.330877
-0.893779 -0.644247 0.254143
-0.204482 -0.552972 -0.451471
-0.773414 -0.517821 -0.331823
-0.255155 -0.0722573 0.569332
-0.153796 0.100045 0.142739
-0.897611 -0.0910459 -0.060615
-0.222054 0.237875 -0.603125
-0.764822 -0.491501 -0.03793
-0.78525 -0.413091 0.583128
0.248606 0.188626 0.112853
-0.56797 -0.516145 0.021993
0.728334 0.112097 -0.220382
0.684962 0.153549 -0.187018
-0.578503 -0.436983 -0.819728
-0.809015 -0.00612401 -0.468243
0.390013 -0.47653 0.0778359
0.066113 -0.649288 -0.796938
-0.085941 -0.091857 0.208868
-0.073105 -0.185953 -0.936412
-0.782792 0.128024 -0.335002
-0.697648 0.583601 0.645496
0.945951 -0.0345529 -0.738713
-0.487551 -0.594175 -0.171821
0.545086 -0.420636 0.06778
-0.043457 0.255605 0.928765
0.316194 0.258303 -0.019854
-0.115672 0.130244 -0.927396
-0.89411 -0.153285 0.501611
-0.131634 -0.630101 -0.313115
-0.373444 0.254051 -0.984396
-0.427109 0.0274269 0.659832
-0.937411 -0.208615 -0.273696
-0.097175 -0.57639 -0.972541
-0.313186 0.242768 -0.050047
-0.981571 -0.290237 0.265765
0.480498 0.342788 -0.622215
0.154889 0.106624 -0.926521
-0.750057 0.105768 -0.0532561
-0.0658602 0.143532 0.876433
-0.518185 -0.456542 0.561418
0.071254 0.311458 -0.132892
0.811269 -0.238795 -0.894411
-0.594674 0.220378 -0.266967
-0.623731 0.141343 -0.498512
-0.199365 -0.00984823 0.818349
0.384157 -0.615845 -0.793745
0.148557 -0.68078 -0.168189
0.107987 0.350951 -0.151447
-0.879321 -0.00958103 0.153689
-0.245496 -0.342311 0.182365
-0.292661 0.232804 -0.98007
0.734217 -0.334971 -0.892937
-0.306349 0.333831 -0.854714
-0.169028 -0.0970279 -0.939018
-0.421191 -0.249968 -0.973319
-0.345595 -0.085004 -0.988293
-0.258922 0.065186 -0.926273
-0.533348 0.0212828 -0.778167
0.698735 -0.39353 -0.787051
-0.459474 -0.176142 0.607642
0.91517 -0.0295261 -0.803387
-0.58059 -0.604286 -0.944013
0.426662 -0.574417 -0.804993
0.482586 0.225112 -0.0651119
-0.864793 0.0381137 -0.260627
-0.680335 0.569646 0.881749
0.20775 0.0469081 0.223666
-0.378568 0.056375 0.226823
-0.447717 -0.356151 0.424198
0.068057 -0.673536 -0.743143
0.954017 -0.154022 -0.782559
-0.0993249 0.44951 -0.242554
-0.858481 0.054546 -0.203247
0.563604 0.292914 -0.305008
-0.884839 -0.45775 0.506868
-0.593219 0.636552 0.714267
-0.708274 0.523738 0.639672
-0.618598 -0.58595 -0.180212
0.342984 -0.617977 -0.833436
-0.254971 0.316557 -0.814951
-0.615453 -0.651565 0.0711642
0.711207 0.151475 -0.430134
0.611521 -0.530261 -0.516518
-0.420142 -0.605848 -0.906084
0.295302 0.292986 -0.145807
-0.496608 -0.598769 -0.403086
-0.424082 -0.437491 0.286018
-0.660053 -0.712935 0.226503
-0.756546 -0.290023 0.611497
-0.754164 0.077239 0.54174
-0.630868 0.606909 0.621381
-0.718541 -0.049629 -0.975186
0.878067 -0.298041 -0.815195
0.00315808 0.0699779 0.659507
-0.028386 -0.712778 -0.464254
-0.376162 -0.386855 0.173383
-0.131526 0.404493 -0.224163
-0.382153 -0.603056 -0.339746
-0.150334 0.105212 0.911305
-0.737878 0.447685 0.714789
0.614846 0.249308 -0.602361
-0.386983 -0.543543 -0.035294
0.610811 -0.552973 -0.247939
0.60815 -0.5312 -0.583532
-0.613424 -0.218316 -0.876097
0.443959 -0.657556 -0.280365
-0.554011 -0.566736 -0.0677731
0.433752 0.299579 -0.150417
-0.256023 0.266844 -0.106094
-0.0124819 0.180578 0.969835
-0.245995 -0.253366 -0.985421
-0.864197 -0.43352 -0.210088
-0.018838 0.475671 -0.59625
0.751224 -0.232141 -0.107669
0.629023 -0.521093 -0.196835
0.323156 -0.688312 -0.231027
-0.173279 0.297786 -0.174189
0.583353 -0.441135 -0.854748
-0.103582 0.478643 -0.516737
0.795308 -0.293822 -0.333154
0.101868 -0.226159 -0.938242
-0.578206 -0.281864 -0.907679
0.161145 0.21833 -0.979254
-0.241013 0.139498 -0.667679
-0.191219 0.409069 -0.305092
0.418478 -0.543681 -0.978522
-0.770433 0.0577861 0.212118
-0.323637 -0.57389 -0.173266
0.0421969 -0.617063 -0.155435
0.479042 -0.204868 0.209391
0.331847 -0.650964 -0.184225
0.973598 -0.079338 -0.570647
0.075286 0.487168 -0.403714
0.326162 -0.496335 0.0853671
0.645917 -0.237387 -0.96509
-0.190417 0.281955 -0.761139
-0.736003 -0.0651009 -0.56173
-0.353065 -0.026893 -0.986194
-0.775121 -0.421475 -0.463483
-0.709153 0.101859 0.00843505
-0.028476 -0.578589 -0.106774
-0.701797 0.0677781 0.109984
-0.968798 -0.152744 0.194497
-0.288075 -0.557425 -0.882226
-0.788807 0.232771 0.669067
-0.379693 0.16263 0.122721
-0.64801 0.200008 -0.38192
-0.585861 -0.605871 0.0887669
-0.637886 -0.240134 -0.931487
0.177261 -0.207569 -0.957017
0.789885 0.018727 -0.438305
-0.867045 -0.236507 -0.417756
-0.0799338 0.411401 -0.704439
-0.411119 -0.00581684 0.264679
0.783119 -0.307398 -0.269952
-0.469577 0.246825 -0.0911339
