4.50747 5.20071 -5.36819
3.96292 6.5145 -19
-4.60414 1.86344 -5.72522
-4.45504 -9.99965 4.48747
1.39158 9.82608 -5.98349
5.77872 5.75678 -13.5251
11.7995 5.66337 -5.59709
-2.482 5.53944 17.3321
6.58526 -9.99947 9.79893
-8.19954 -1.14454 8.07116
-6.39374 6.29907 -9.99939
-6.10112 8.16379 9.99947
2.57338 5.12057 5.94784
-4.19652 8.00014 0.0893279
7.91355 3.40664 -11.8188
11.7994 1.99709 -7.82212
-8.04631 -9.99942 -5.35088
-2.44773 6.24558 -4.26045
-4.9884 -1.74541 17.2446
2.34217 -5.1698 19
11.7995 -6.24394 -4.47778
-6.49519 1.00123 -5.91997
5.64856 6.20884 -4.61488
1.40477 -9.74598 -9.99953
6.53226 9.85899 -3.6795
-8.19931 -6.67185 9.85761
5.2535 -9.8451 -4.90963
11.7996 6.13617 -0.727634
-8.19948 -3.47213 5.09366
1.5989 -6.43216 -5.99791
-0.499589 6.62458 -17.1027
-8.1995 7.96542 1.68926
7.68074 4.15502 -10.0002
8.13203 -9.99936 -9.87084
7.24521 2.53822 5.43401
11.7995 6.44218 4.65887
1.50665 0.715072 19
-4.44067 -8.44148 9.99951
10.2349 5.71293 9.99942
7.27521 4.36136 18.8464
-2.26924 9.99931 4.71576
-4.03178 -8.01753 1.43218
4.79774 -6.32476 15.4523
8.53124 2.00013 15.3996
4.7182 -3.23812 5.26874
11.7995 0.0726112 6.17986
5.68387 5.6361 -18.9998
3.68574 -6.74174 -10.1787
3.60394 -5.75574 5.74706
-8.1995 3.23349 -9.73664
7.94519 -3.36297 -16.7878
-8.19954 -7.91357 -2.37391
9.79212 -9.99957 -1.03424
2.21198 6.81004 18.9994
7.951 3.07421 -19.0001
-1.17838 8.31006 5.20631
6.73773 -4.96968 -17.0209
-6.35017 -7.77775 9.99938
0.944743 2.60375 19.0001
-8.19941 9.81873 -6.13354
11.7994 7.63581 -6.20301
2.9015 0.760283 -5.97794
1.27859 -8.0448 5.97573
-8.19966 -1.19159 -6.11937
11.5515 -9.79859 -9.99893
-3.73142 -7.97293 -9.9995
4.30591 -6.54586 -15.5253
11.7995 -1.24754 9.80166
-3.15153 7.93531 -3.38261
-8.19951 5.95802 -7.80475
-0.648585 -6.56208 -14.3156
9.8406 -2.06716 -5.64902
7.69045 5.72389 -1.81413
7.80459 5.83005 1.43589
11.7995 -7.75342 3.48551
11.4384 9.99955 9.79538
-4.30208 -9.99963 -0.974831
2.98728 6.90042 -11.8051
7.47858 -4.10821 13.5024
-6.60781 9.99953 -4.87826
4.3146 9.68909 -9.99947
-8.19954 -8.23158 5.58401
6.97414 4.94569 -3.4219
-4.15947 3.67599 12.3888
-4.91793 -1.53675 18.9993
5.03945 6.20327 17.1357
-4.31552 -9.9995 0.736383
-8.19955 -9.87795 2.52031
-6.20491 4.59613 3.88843
-8.19951 -2.69592 -7.86633
11.7995 6.88565 2.70144
-8.19992 6.07829 1.11376
-8.19956 -8.46922 3.58052
-3.44645 2.42776 5.49559
-2.49995 -5.52415 -15.4422
11.7994 -6.12898 -0.793237
1.22961 -9.99948 9.82929
-1.02175 -6.40651 -18.7935
8.49861 -1.58316 -18.9999
4.41975 -3.23208 -19
-4.67085 -2.69467 15.4915
-2.37876 3.84882 4.60378
0.275213 -9.99954 -8.01938
4.16124 6.43656 18.9999
4.34621 6.53813 12.0483
9.90785 -3.66958 -4.74634
-8.1995 -5.85342 8.23782
11.7998 0.895657 -9.835
-4.72002 2.58401 16.7495
-4.4051 -3.247 18.8482
-6.35226 6.39243 9.99945
-4.20724 3.60652 18.7909
-6.1107 -9.99963 -2.21129
11.5909 -4.50683 -3.97574
9.5371 -5.563 2.29172
-5.76692 4.70098 -9.99956
11.7995 0.10856 -7.87597
-4.9497 1.87113 12.0306
-1.86843 9.81365 -4.7475
-3.16948 -4.93043 18.8464
4.56321 7.81364 -5.35222
-0.434736 9.99958 -5.8398
10.218 9.99952 -4.5496
-4.3183 6.33464 -9.99952
-1.77721 7.86708 -4.81444
-4.79073 1.0117 5.91911
10.1121 -3.08875 9.99957
0.942147 6.96879 -11.8476
6.48218 8.22256 3.76383
-3.8952 -9.99935 2.47646
0.447112 4.73059 5.86543
6.43389 -8.24891 3.8214
6.41487 -6.45167 3.86307
-7.98148 9.99966 -9.69805
2.41506 -6.991 18.797
1.90352 7.01396 -13.528
8.29601 -9.99969 -4.50657
-4.38337 9.99949 -5.40284
11.7994 -7.8917 -8.22742
-6.27613 2.78876 -5.31855
7.10507 4.56228 -18.8583
8.44124 1.56647 -18.9996
-4.46766 4.06291 4.42733
-8.19948 -3.63361 -9.76041
11.7995 -2.9264 7.59039
8.79225 -0.252794 15.6275
-0.690222 6.03595 -5.48364
-5.08831 1.23283 15.4573
9.10666 -9.99952 -6.5181
-8.19949 8.14603 5.74631
-8.19955 8.06597 -0.282084
-8.19953 7.84629 3.55247
11.5431 2.57025 -9.99945
-0.0495375 -0.714845 -19
4.99166 -6.92407 5.07688
8.33662 -2.49737 13.2703
1.88198 9.99951 8.02844
-8.19944 8.24697 7.92791
-5.05736 -1.42762 13.7224
5.02295 8.25982 5.06267
1.18881 -6.97116 -15.4597
9.84476 -5.72938 -1.86007
1.80126 -7.00716 12.1486
8.05043 -3.15737 -18.8187
-4.03511 -6.01623 1.41964
6.06866 -5.56047 -15.3168
11.6721 5.9217 1.02216
-4.04367 -3.85352 17.1461
-3.51746 -5.51742 2.81964
9.44703 9.99964 2.79104
-1.36799 -6.25926 13.4624
9.91285 3.78998 -4.6667
-8.19969 5.586 2.78097
-6.1917 9.9996 0.356938
4.04365 1.64865 5.77726
-2.73954 2.43044 -18.9998
11.7995 -1.04145 7.92071
-0.983284 -9.99945 9.81542
0.475136 -8.48949 9.99958
-1.63974 -8.14689 -9.9995
0.0675291 9.99962 -7.93819
1.12156 -3.9325 19
11.7995 -1.61493 -8.17271
0.53533 -4.5877 5.89007
10.2359 -1.14374 9.99964
-1.5834 -6.12515 18.8283
2.1266 6.83341 -18.9996
-8.04367 9.99931 -0.786525
2.58944 -1.05975 -5.95929
-1.19868 -5.07825 5.19425
-3.88385 -9.99941 -2.60449
-4.13379 3.71992 -15.4149
0.690714 -6.93031 13.6697
9.08128 4.90655 -3.45964
-2.56885 -5.46851 17.0571
9.812 5.67935 -1.96811
2.0545 9.99966 -7.91688
-4.75978 1.92824 18.9999
8.31176 2.56113 -15.4347
-2.6197 -5.21999 -18.9997
-8.04166 -4.78197 9.99955
4.63687 -0.641839 -5.99226
0.888538 9.83181 -9.99946
9.14059 0.693591 -10
6.86614 -9.99962 3.51202
11.6613 -9.99938 -8.1279
-8.19955 -8.04989 -0.348721
-6.1606 5.59538 2.16995
-0.725016 -6.5297 -16.263
11.7998 -4.45287 4.30115
0.32034 6.67721 18.9997
-3.78085 4.24364 16.9093
8.6245 2.35915 -9.99985
-7.92864 1.46664 -9.9996
7.04393 -9.99965 -5.9541
9.87233 6.00493 -0.0923648
-6.09341 -2.78948 5.3117
-5.75451 -5.40948 2.59034
-1.54922 0.558212 -18.9999
-8.19948 -5.3063 -8.16675
7.54702 -4.017 -15.1529
1.81269 -6.12833 6.00976
-2.19149 -5.7624 -13.6649
11.7994 -8.09024 9.80418
-3.44567 -9.99964 6.20221
6.26739 -5.40022 16.7196
8.06204 -3.17132 -13.5894
11.6633 8.31494 9.99926
-2.20684 -6.02806 -10
11.4953 -0.806971 -9.9995
11.613 -1.53948 5.79887
-5.19066 -0.271474 -18.8543
5.24311 -5.65078 -4.90209
2.18212 1.60854 6.01013
8.55271 -9.99961 3.72097
5.19133 9.8423 -4.94997
11.7998 4.47736 4.36653
8.69838 -1.19207 -13.6023
-6.05572 -9.9996 1.78628
1.32726 5.40118 -5.97521
7.76448 -9.99947 7.88106
3.94843 6.65561 5.5984
-5.78121 5.83173 -1.42913
-1.48163 6.18923 18.8182
-0.223274 -9.99882 -5.88697
7.82601 9.99954 1.42742
2.1751 -9.99943 -8.05952
11.5514 0.508107 9.99951
-1.47157 -9.8881 5.06248
11.7996 9.82346 -6.15869
6.09506 -2.98761 -18.9999
-2.52157 5.50653 15.5417
2.22679 -9.99994 6.14954
-6.75633 -1.16069 -9.99974
11.7995 7.9464 -0.177188
8.57937 -1.0606 18.9997
11.7995 6.46658 9.82474
-0.952268 -6.43285 -12.1999
-1.10416 9.86304 -9.99929
1.33236 9.99951 9.89216
-5.20191 -0.233779 11.8588
5.87013 5.69393 18.8361
9.82718 2.04166 -5.6622
7.79814 -8.04678 0.115212
11.6236 0.637248 -5.96659
11.7995 -7.77486 1.51383
3.89075 9.9996 -8.31824
11.6323 -8.19555 -9.99965
11.7995 8.17616 -9.82126
4.46429 -6.48971 13.5832
6.09541 9.99957 -8.4095
3.81931 -4.26461 -5.66315
11.7997 -9.75409 2.74724
-4.97022 4.98922 -3.3329
-8.19954 9.7076 -4.21207
-2.05881 6.71891 4.58938
-4.81182 -2.28744 11.8754
2.22015 -9.99963 8.01183
9.00139 -1.13849 -9.99997
3.29018 4.75415 18.9999
0.538425 -1.5913 -5.87984
-8.19957 5.60569 -5.81609
-2.76036 5.3122 -12.0312
9.79666 -9.79166 -9.99943
-5.82568 2.85276 5.29106
11.7998 2.26673 -5.74358
-8.19949 9.83083 4.67589
-8.07503 -0.250513 6.00246
-6.45533 4.23422 -4.24843
11.7995 -5.59867 -2.58552
-4.01542 3.89435 -11.9889
7.99032 -9.99946 -0.0324268
-6.34337 -2.82971 -5.295
-0.274095 8.31659 -9.99958
-8.0612 -9.99945 -1.37046
11.7995 -6.68078 -6.39723
1.50393 -4.84883 -19
-2.01065 -5.87584 -17.3047
2.51453 -0.197763 5.99985
-3.62305 4.4395 -17.1981
-0.291283 -6.57896 5.63379
1.63752 -1.09702 -19
-1.8687 -3.42601 4.93072
-6.64851 0.462494 9.99964
5.46189 -3.75027 -4.74834
-3.1727 9.99948 -3.73116
-5.96602 -7.86978 -9.99943
-2.92093 9.8445 -9.99925
8.16706 9.99952 -8.00666
7.11396 -4.55231 -18.8196
7.23838 9.9994 9.86248
6.24453 7.97062 9.99944
11.7994 5.89621 -7.74789
-4.75259 -6.25118 9.99965
-5.3967 -0.148915 -9.9996
-3.24849 -6.8778 -3.23954
-5.17713 -0.708333 15.5313
9.49928 9.99952 -6.26821
-2.24051 -5.73314 11.8682
7.86207 -3.34737 -4.97715
4.89691 -6.27488 -13.6476
9.41691 9.99935 9.85862
5.79059 6.45053 4.48363
-8.19952 0.27191 9.79218
4.06561 -6.40586 18.9998
5.50448 -1.44621 5.81796
-4.10824 -3.75176 -11.8453
-8.19952 -6.67158 6.50834
6.12981 -5.51572 14.0583
-4.64491 2.74646 -17.0834
-8.19955 -6.51092 -4.24376
-2.93749 5.16308 13.5614
-4.49406 -3.05933 -17.072
-2.89863 4.90118 18.9997
6.02769 4.05385 -4.43806
8.80032 -0.175245 17.3897
10.187 -9.99955 -3.13431
-5.992 -5.41473 -2.57325
-2.02313 7.99878 9.99944
-1.54068 -1.45131 -19
4.00102 -9.99946 5.81492
-6.16611 -0.902666 5.95686
-6.29197 -5.42876 9.99945
9.83496 3.80156 -9.99959
8.00714 -2.87852 19.0001
-8.19939 6.72329 -9.80736
-6.46948 -3.43254 -9.99969
-5.12718 1.04571 10.1679
6.33933 2.32554 -18.9999
-5.091 -1.94309 -9.99995
-1.0931 6.37969 -11.8142
6.4838 -7.82398 9.99942
6.83298 6.66834 -3.27376
3.07413 8.28359 5.87233
-5.20426 0.50514 17.2441
10.047 9.99948 8.01798
-4.93304 -9.99951 -9.83202
5.95949 4.28164 4.3234
11.5907 5.25937 2.91231
-4.58637 2.87026 -13.65
6.10721 -5.53595 -11.9165
11.7996 -9.75593 9.79895
7.84413 6.19086 -9.9996
-8.19942 -8.4625 -9.82484
4.09002 -2.3946 -5.54928
-3.83688 -9.9995 -7.97809
2.55157 9.99975 6.14697
8.26331 2.68204 13.6158
7.1036 -4.56438 18.8233
6.04336 5.5793 11.7851
11.7996 9.8344 4.79445
9.68422 -0.0690598 -5.99724
-0.245815 8.19584 -5.65831
-8.09074 -3.91924 -4.55809
6.77845 -4.72464 -3.73003
3.45819 -1.16991 -19.0001
-8.19949 1.5441 5.98905
-8.19946 -8.02222 7.82148
-5.16877 0.787201 -17.1564
6.95118 -1.18848 -18.9999
-1.34273 6.26725 14.1421
7.41802 -7.72993 2.11716
-8.19952 1.72029 -7.99138
7.55671 -5.57457 -2.22623
0.300947 -6.82985 10.1673
4.96002 6.24309 -11.8119
6.17836 9.99952 8.21152
-2.38591 5.61382 -10.159
-5.20184 0.231578 -11.839
5.10298 3.91937 18.9998
7.53402 -9.83915 1.762
9.75478 -7.67727 -9.99945
-8.19958 -6.15789 1.05017
8.61635 1.60771 -11.8045
11.7995 9.75331 8.12258
-8.19943 0.477654 -6.18645
10.0868 0.799849 5.96693
-4.10706 9.85319 1.08135
6.54798 2.22456 18.9999
-3.71103 9.99952 8.20192
8.10029 1.1687 -5.8843
6.76315 -4.94098 11.8524
7.57254 -9.99948 -8.00257
-4.24449 -3.99122 10
6.1735 5.47172 -10.1435
-3.62463 4.43918 -10.1492
-8.19962 -2.6265 -5.59553
8.57763 -1.78865 -17.2963
8.18657 8.40225 9.99952
-1.78686 4.09775 -4.80938
7.449 9.86734 -2.03591
11.7995 -6.33314 4.94981
5.1458 -5.03116 4.98557
11.7995 -4.7989 8.33245
11.7994 8.31398 -4.376
4.97307 -9.99947 9.7686
1.23781 -6.9767 15.5503
8.05706 3.9499 4.53834
8.33554 2.49762 -13.6368
-3.80505 -4.19996 11.8475
-2.94802 -5.15532 10.1467
2.91071 -6.91225 -14.3685
3.0155 4.29122 -5.87684
1.34894 4.67574 19
8.69109 -9.9997 -2.76155
4.24359 9.9993 5.64531
6.61938 -6.53346 -3.57799
6.54013 -9.89436 -3.66905
7.63726 8.0853 1.4311
-6.39997 -4.34176 -4.14457
-5.87349 9.99953 2.24672
6.72711 -4.97991 -13.5926
-4.59491 2.84773 10.1849
9.77538 -9.99932 -8.15438
-1.90685 -3.28592 -18.9999
-8.19952 -0.474208 -8.04423
-3.43975 -4.64037 -17.1676
-4.23381 6.29607 9.99955
5.16231 -1.0286 -19.0001
7.82307 9.83172 -0.324565
2.13589 -4.82827 -6.0232
-8.04374 9.99931 1.01249
-3.96098 7.95961 -1.7725
-2.42796 7.82936 -9.99945
-3.97251 5.41531 2.6139
-8.19952 0.979044 7.93088
-1.66636 -9.83786 -4.89719
-3.48432 4.59236 -13.7918
4.79565 3.15178 -5.20299
11.7995 -8.08284 -4.46946
6.59256 9.99965 -6.65791
1.88137 2.8819 -6.01884
8.17092 2.64916 18.9998
11.7995 7.99911 -2.19869
11.6174 -9.99926 -0.544497
-8.19949 6.10033 9.78565
9.15967 -4.8525 -3.53834
2.24936 -7.26146 -10.0001
11.7994 -4.78432 -6.17329
2.30964 6.98618 11.9657
-8.05099 -9.99946 0.649294
-8.19952 -6.81207 3.89678
-4.19671 -7.92183 -0.444503
4.47483 -6.48061 -11.8329
8.52634 -1.99539 17.0837
4.79531 6.32542 13.9453
9.9255 7.8089 9.99939
-2.59809 -8.22928 -4.07927
-2.18348 -5.77136 15.235
-4.97668 1.79507 -18.8542
11.7997 4.2757 9.85821
10.1309 -4.58861 3.89224
11.7995 3.14907 5.25033
-8.19952 3.11463 6.96575
8.05272 3.43936 -4.91386
-3.67085 9.99916 2.85306
3.04674 6.89066 17.3336
-6.23931 -9.99964 -0.207718
-8.00927 -9.99956 6.41191
-1.88288 9.99956 -8.092
7.51179 -7.85458 -1.82533
2.78014 -6.92841 -12.2743
9.36712 -5.4214 -9.99945
3.35522 9.99929 -5.97052
-8.01832 -4.98889 -3.32086
-8.19954 6.39859 4.91083
0.383911 -6.61985 18.9997
3.8714 6.68398 -13.5548
9.59064 2.61379 5.40025
7.65456 9.84891 -9.99952
-5.12481 1.01315 -13.616
0.515224 0.541871 5.99522
-3.94627 -3.99613 -15.2917
-4.72209 -1.75278 -5.75024
11.7994 7.59755 8.00391
-3.05111 2.90729 -5.25268
11.5707 -9.99918 -6.28128
8.56205 -1.85274 -15.3242
-4.35218 -3.34911 13.6102
-2.54927 2.74255 18.9999
3.03575 -9.80182 -9.99948
-2.40165 -9.99951 8.21997
11.7995 -9.87878 8.18059
-3.3514 -1.19461 18.9998
3.32124 -1.94328 5.82418
8.00572 -7.27416 -9.99941
11.7997 -2.60214 -9.84598
-4.35901 8.11947 -9.99938
2.60062 9.74147 -9.99951
11.7995 -5.81384 -8.1318
0.855399 9.99965 6.16402
4.4396 6.50215 -15.3327
-4.18722 6.16249 -0.638548
-4.34524 9.99951 -0.598226
-0.507822 -8.40271 5.55819
11.7995 6.44385 -9.82211
11.7995 -8.12579 -0.525221
0.613115 -8.15245 -5.91107
-8.19939 -9.83417 8.20982
11.7994 6.73525 -3.99112
-0.858558 1.37181 19
5.24254 2.93294 5.23042
3.22432 6.86678 -17.2173
-0.413908 -2.62446 19.0001
-8.19958 7.18433 -4.09481
11.7995 -2.81146 -6.89214
-6.27979 8.13505 -9.99931
5.36872 -6.04085 11.9327
5.90366 0.439778 19
-4.41471 9.99955 4.4785
-6.09859 9.99957 5.89245
6.75365 4.95528 16.9866
1.70243 3.42649 6.00584
-0.173385 -0.353418 19
-2.72263 -9.99965 -6.27049
5.94784 9.78646 -9.99938
11.7995 1.01787 8.03502
-2.92727 4.96495 3.71815
7.21183 -5.57358 2.60699
-2.34348 5.65323 10.1513
-3.54763 -4.52086 -13.5296
9.32939 -4.65677 9.99953
11.7992 -5.54853 2.78659
6.3512 5.60291 9.99988
-4.5965 -2.84596 -13.5493
3.0808 9.99951 9.82267
4.61186 -6.41813 17.3774
-1.98319 5.89184 -13.7149
10.0346 -9.99939 9.77779
6.75355 -1.1442 18.9999
-1.69687 -8.33313 9.99951
-8.19952 -4.16968 -6.63994
2.40432 -3.03061 -19.0001
3.9614 4.65851 -18.9998
-2.1923 5.76654 -17.3112
8.30249 -2.58214 15.2286
8.32545 -9.99942 9.82181
8.34269 -8.10678 9.99946
2.17776 -2.87911 -6.01658
11.7995 -8.44339 -6.37832
-5.19564 0.579399 13.6706
-3.43446 0.491106 -18.9998
4.99561 6.22674 -17.2138
1.33434 6.98425 -17.0272
8.77693 0.813404 13.7609
-8.01551 9.99968 6.57366
11.7995 8.25087 3.88792
0.265303 2.33995 5.80588
11.7995 8.09884 6.04268
9.69437 -9.99946 7.58423
-7.92839 9.70558 9.99977
0.524789 -3.93264 -5.88002
-7.70884 -9.99955 9.81835
5.70514 -5.52824 -18.9997
2.61183 0.776216 -19
4.13141 -6.5997 -18.8202
11.6148 9.99919 2.90537
8.93036 -0.360671 10.0002
10.0731 3.13142 9.99954
-8.19963 2.1718 -5.82402
0.129761 4.07023 -5.76428
-4.86081 -2.14542 -15.3031
5.96739 5.62899 15.4288
-8.19957 -5.52327 5.24875
-8.19952 -8.41579 9.82601
7.94476 -5.96644 -0.683063
6.39236 -8.06162 -9.99937
-2.86134 5.2284 -15.5723
7.8843 -5.92347 0.9876
-3.32469 -7.76987 3.11176
-4.63746 3.0952 -10
-1.38882 -9.99962 6.8528
-8.07937 -4.71677 3.73064
5.99323 -5.80428 9.99981
-7.92201 -1.40112 9.99942
10.1091 9.99952 4.55385
11.6263 9.99922 1.12115
-1.95705 -6.27471 -4.6726
3.52078 6.78713 10.1997
8.26784 2.66414 11.7893
8.1426 9.9995 8.08315
4.63221 -1.32957 19.0001
5.46636 -7.6175 -4.77637
-4.9746 1.79169 -15.4065
3.19332 -9.99948 9.81396
-5.63518 -9.99939 9.84461
-1.00686 -2.69682 -5.352
2.91128 -6.91352 -16.8548
4.89011 -8.57851 5.14206
-2.96646 5.14124 11.7681
1.02906 -6.96596 -13.483
-8.19864 -9.82406 -7.51881
-8.0155 9.99961 -7.87158
-5.1363 -0.956826 -13.5256
2.60524 6.95047 -15.3824
8.74797 -0.943803 13.9144
2.78615 -6.92768 14.2423
-6.69081 5.35954 -2.68345
7.54499 4.02023 14.9629
9.74462 -9.99954 5.41406
9.83948 -5.99305 0.263332
8.06059 -1.28814 -5.8567
-5.02951 0.174802 18.9997
-8.1991 8.40043 -9.82789
-8.19952 2.06485 9.87306
6.22084 -2.12098 -5.64749
8.59504 1.68779 -17.1611
-3.96239 9.9991 -2.2367
-8.00417 -9.99849 -9.55517
11.5939 9.99938 6.46133
-4.72943 2.55461 14.1175
-8.04085 9.9994 2.78268
-4.63398 -4.72172 -3.72253
0.317878 6.84521 -18.8376
-8.1995 4.53663 4.16947
0.985164 6.96197 17.2437
11.7995 -7.64747 -2.54304
6.70774 4.99239 -11.8564
9.72422 5.78512 -9.99947
-8.1996 8.00049 -2.32293
-8.19946 4.91091 -9.81246
-8.19963 6.14111 -0.650632
-0.279208 9.99953 8.07646
7.36097 4.25367 -15.4267
3.47808 3.40623 5.79801
-1.38387 6.05901 -19
8.12743 9.99963 4.46382
-4.41941 -1.07841 5.90904
11.7996 9.86346 -4.14659
-6.27396 6.00641 0.310092
-0.192095 6.7215 -13.4731
0.388789 -9.9998 6.01246
-6.57025 1.0341 5.9078
11.7995 3.98635 -6.64085
-8.19954 -3.68021 8.47821
-4.05056 8.16186 9.99937
5.62246 9.99962 6.60481
7.30818 8.07201 -2.40121
-7.98518 9.99968 8.30586
0.493912 1.93091 -5.86708
2.7443 -0.962397 19.0001
-8.1995 6.61916 7.31436
11.7994 -8.16258 5.63066
9.52369 9.827 -9.99966
-0.562188 -6.59651 15.1976
11.7997 -9.82323 1.09223
-6.56916 3.01762 -9.99958
11.6345 2.19701 9.99946
-8.0136 -1.82455 5.73666
-1.28763 3.97968 -19
-8.1995 -8.35125 -4.34702
-3.92965 -3.74887 -18.9996
-4.06254 -2.98797 5.22133
1.18156 7.37585 -5.96739
-0.757741 3.32523 19
7.89043 -6.23366 9.99954
-5.38217 -0.955623 10.0004
11.7995 3.8778 -8.39239
7.98 5.99784 -0.171958
-4.22294 3.56784 -18.8443
-6.43836 -9.99959 -5.99894
-4.46573 -9.99945 8.00718
-3.08346 -9.99989 -3.95863
-3.7759 -8.22268 -2.20275
3.60963 -6.35714 -5.74541
11.7995 3.03259 8.0835
-2.96316 4.90518 -18.9992
-1.04765 -8.0234 -5.27615
11.7991 -3.12105 5.36793
7.32898 4.29275 -13.626
6.41854 -9.99939 -9.79078
-3.24658 -1.53428 -18.9999
7.12137 6.87926 2.8032
11.7991 -3.09301 -5.2841
11.7998 1.81156 5.97657
8.21771 0.93071 5.93971
-1.24421 5.09134 5.16888
-8.19947 -8.00681 -6.2254
5.9142 7.86778 -9.99947
11.5953 -4.59837 -9.99934
8.50265 0.821181 18.9998
-5.81735 -9.99957 5.92231
5.05804 -6.19533 -17.1871
10.0432 -2.99786 5.22339
-0.937561 6.44112 16.9027
3.61264 2.22438 -5.74203
1.6625 -9.99964 -6.17488
-0.467162 -4.62462 -18.9999
-8.19963 -5.87226 -2.03207
3.89177 6.67814 15.6177
-7.9851 -9.99945 4.5721
-4.85348 2.16423 -11.7926
9.50938 -1.00648 5.91935
11.7994 -8.17945 7.75458
2.43207 -8.16628 -5.9704
6.56655 5.12388 -17.1163
-1.11 2.5478 -5.43728
-7.99266 -5.51853 2.36795
-4.47612 -3.58072 -10.0002
0.882297 -6.96415 -11.6751
-8.19966 4.97549 -3.73855
10.0478 9.99944 -8.10778
-8.05819 -2.94643 9.99954
6.41833 -4.42067 4.05151
-1.17426 6.34153 -15.4036
-0.21244 6.67935 5.65761
5.6075 -9.99958 -7.36471
4.1804 -9.99962 7.87307
4.13535 -8.28368 -5.53466
7.68354 -9.99967 5.76872
8.1278 6.48426 9.99958
-0.403907 9.71906 9.99945
5.81532 -5.73612 18.8236
8.19337 2.87929 10.121
7.2367 -4.40601 15.357
-0.215688 -9.76709 -9.99947
11.7995 6.09845 6.44491
3.08983 6.38689 -5.86642
11.6466 -1.12596 -5.89903
8.79254 0.532832 -15.192
-3.97591 9.99959 6.33876
-0.148012 -6.13869 -5.67527
4.5766 4.93689 5.33706
6.00293 9.99953 4.56657
1.2625 -1.79753 19.0001
11.7997 -2.99924 9.77452
-4.28629 5.90269 1.05109
8.9839 1.29401 9.99992
8.34592 -4.416 4.06563
8.39899 9.99967 -4.01865
-3.98269 -5.89948 -1.70408
0.956061 -1.26738 5.96442
-2.0008 9.99958 7.23422
11.4943 9.79304 -9.99813
-2.40147 -6.28652 4.29978
5.18351 9.99946 9.84636
-0.489737 -2.58883 5.5556
2.78054 8.29201 -5.91539
-8.19954 7.79555 -5.88596
0.626494 -6.71107 -18.9993
2.85025 2.73329 19
-4.53107 3.72049 -4.71165
-5.97211 -9.99942 -7.8578
-4.46355 -3.41772 -4.92816
9.71347 -9.99953 1.11019
6.03659 5.57901 -15.3355
4.7584 -8.38656 9.99945
-7.95392 3.12277 5.12736
11.7997 -9.78736 -2.32679
0.378674 4.91482 -19
-0.735604 -6.52273 17.0687
-3.35319 -9.83417 -9.99946
-8.19951 4.90602 8.10925
-6.49404 2.66866 9.99972
-3.10369 -7.1848 9.99963
3.13281 -2.98404 19.0001
-2.36092 -3.16048 19
0.308943 -2.78833 -19
-2.44664 -4.0555 -4.43702
7.31581 4.31573 10.2332
11.7994 -4.75425 6.37889
-1.99974 -7.94346 4.6397
2.75636 -8.44281 9.99961
-0.787433 0.588305 -5.99527
2.87229 6.91552 13.7367
-8.1995 -5.94305 -6.08606
6.65481 -5.40441 -9.99978
-6.15394 -9.99961 3.67196
6.85819 5.19366 3.22749
-8.19963 5.84106 -2.1941
11.7995 8.21071 1.64772
11.7997 9.82899 -0.626995
8.60595 1.64527 17.172
4.36617 -0.132368 5.99404
-2.81104 8.48636 3.83704
-8.19946 -7.47355 -8.02109
-8.1995 -1.90416 -9.79928
-2.83737 -4.44466 4.02963
-6.53562 -4.36152 4.11929
6.14437 8.17122 -4.1502
8.84695 5.11251 3.14054
3.61452 -9.99941 -5.95861
-3.27448 -9.99941 9.86325
4.77877 6.50167 -9.9997
-6.34013 9.99956 3.99053
9.3832 9.99959 6.27305
5.68382 -9.99935 4.90726
-8.19954 4.93094 6.14291
10.1252 -8.20883 9.99931
3.58424 -6.77381 11.8764
6.41974 5.25713 13.6326
6.10418 0.822215 5.96439
5.06807 3.38251 -18.9998
-3.69032 4.36454 10.1698
7.50332 -4.07703 -11.9004
-4.74955 -4.3754 4.10434
8.80068 -0.17789 -16.8509
11.5708 4.83002 -3.55085
-3.16911 -5.16993 -3.35124
4.68646 2.10613 18.9999
11.7997 -9.84091 -4.25094
7.78023 7.87636 -0.598056
-4.96186 -1.83502 -11.7412
2.2338 4.81908 -19
-1.11347 3.09227 5.24992
0.751803 1.01941 -19
4.27442 -8.29764 -9.99955
-7.99247 -6.82987 -9.99957
8.79104 -0.361428 -11.7058
7.41273 9.99965 6.22085
-1.84028 -9.99949 -9.78948
-2.88385 -2.42895 -5.48532
1.12472 0.257854 -5.99381
9.54825 9.99954 -2.64139
-1.04949 -4.64318 -5.28066
3.19666 -7.89597 5.84316
-8.19954 3.03543 8.59658
-1.63248 -9.99955 -7.81146
8.77898 0.816396 11.8869
-5.82953 4.61697 9.99961
-7.98858 9.99932 -2.55336
-0.730641 2.26072 -19
11.5651 -4.78964 9.99935
3.61386 0.660065 19
4.85246 -9.99943 -9.80114
-8.19954 3.6625 -5.03484
1.78745 6.68771 6.01092
-5.82554 9.99945 7.85019
-4.37984 -5.99723 -0.16014
2.19812 -6.99883 10.1734
8.95037 4.67979 9.99962
-4.26953 9.99943 9.85309
-4.86881 -2.1324 -18.8289
-8.0041 -9.99941 -3.34357
10.0908 -9.99948 3.02923
-8.19957 -4.5789 6.78713
11.6855 9.99902 -8.04472
11.7994 7.96615 -7.98613
-2.74613 -9.80678 3.91081
7.69431 -3.77317 17.1012
8.7992 0.624164 -13.4252
0.17427 -9.99957 8.05214
4.00945 8.44604 9.99954
11.7994 -6.50205 7.27614
0.499588 7.30758 9.99976
-4.02382 9.99952 -7.81695
4.99707 6.43735 9.99972
-8.19963 -2.71345 7.08894
7.40165 -0.920088 5.94709
-4.5239 -9.99958 -5.79434
11.6187 -9.99924 6.37884
1.8903 7.01041 15.4383
7.62633 9.99966 -5.55025
6.59792 2.26364 -5.57398
-1.06578 -0.594537 5.99527
11.6046 -5.90381 1.09181
7.84133 3.53281 -17.1582
9.90948 -6.37351 9.9994
8.0294 8.0219 -9.99951
-5.98948 9.99951 -6.6195
-3.09451 -5.0145 13.5445
-6.2015 -5.93466 -0.971118
8.29705 -2.69781 5.35508
-0.689884 -4.6227 19
-1.31292 6.27806 12.1318
1.17399 -6.97692 17.3525
11.6131 9.99921 -2.4012
-2.8973 4.75648 -3.74307
-2.57876 -1.7652 5.74427
4.81155 9.99968 -6.89634
-0.716167 9.99908 5.67325
11.6395 -9.99922 4.48633
-1.16881 6.51824 -10
-8.19948 7.88617 9.8374
-5.51854 9.99954 -3.50067
-2.97927 0.334546 5.99484
3.03459 -6.89172 16.5034
-6.50285 -0.979013 -5.92751
-8.19955 3.83553 -7.45828
-3.62176 -4.44349 15.3557
11.7996 -6.49736 9.7291
7.4935 -4.30719 10.0003
11.7996 5.79174 -2.25283
-8.05696 -6.0064 -0.496933
-2.57678 9.9997 -6.36062
-0.0381784 6.75393 15.3853
-1.41949 -0.983225 -5.93112
-8.0201 -5.21218 -9.9995
-3.71396 5.75966 -2.387
5.76956 -3.0094 19
10.0916 -9.99953 -5.0262
2.08472 7.33757 9.99984
-3.93943 4.00613 14.8718
10.0241 -3.16888 -9.99955
-5.99674 9.99943 -8.32242
11.7996 -3.89459 -8.25265
11.7996 5.28859 8.20686
6.7292 -8.31973 -3.43181
7.53776 -9.79096 -1.76826
-3.20743 -0.595295 -5.99658
-4.88055 0.121239 -5.99758
11.7997 4.69836 -9.87636
9.91343 5.70383 1.86823
1.46492 -2.94086 5.98657
-2.26246 9.9995 9.7825
3.52867 -4.89403 -19
11.6543 3.67679 -4.75937
0.694695 6.93224 -15.1411
-6.0819 -5.50916 -9.99961
-1.68123 -1.1842 19
-3.35163 6.84801 3.07094
-6.48851 -9.99947 -9.848
3.93524 -9.99954 -8.0222
0.263773 6.82906 -10.1725
7.91044 3.42104 16.9824
4.57844 1.06141 -19
-4.4215 -6.25124 -9.99972
-8.19951 -0.0370537 -9.84014
-4.90755 -2.45687 10
8.39897 -2.3535 10.1398
-8.19958 -7.96307 1.73026
9.74761 9.99954 0.92854
7.40949 4.2013 12.4479
0.818601 -6.94964 -17.3216
0.478294 6.87982 11.5886
8.79329 0.0116201 -18.8177
-0.951574 6.59486 10.0001
7.95816 -3.32961 11.6742
3.05644 2.70594 -19
3.96876 9.99951 7.92397
7.68407 -4.20069 -10.0001
2.41915 -6.98308 -18.8413
-2.69671 1.12167 -5.89723
8.23388 -2.77665 -10.158
-8.19944 8.01712 -7.84908
-6.38499 -9.99943 7.86628
3.4152 7.17926 -9.9999
8.44459 -2.24326 -11.8624
-0.628861 4.87341 18.9999
-0.258041 -6.70063 11.9089
-1.49882 1.38341 5.83479
-3.34876 -4.74109 -10.1581
-5.19907 -0.202791 -15.3571
5.06631 1.15325 -5.89107
5.95183 -9.99962 7.25378
-4.6367 9.87211 -9.99935
0.876777 8.34223 5.93935
-6.32782 -3.32893 9.99962
5.28697 -6.30415 -10.0001
0.643293 6.92231 13.4959
-5.32342 1.38984 -9.99955
-1.44029 -6.21445 10.1635
6.56487 -0.0627601 -5.99505
-3.89242 8.05254 1.9119
-7.98635 4.23228 9.99959
-2.84934 0.713555 18.9998
8.70055 -1.15516 11.8661
9.99945 7.78274 -9.99946
4.39101 -4.36196 19
-6.134 9.99961 -1.66241
11.7995 4.19001 6.5326
4.26657 -6.70708 10
2.82679 -4.08783 5.90677
-5.70301 -9.99961 -4.07895
-6.37311 9.99943 -9.88449
-5.09547 -1.19412 -17.0804
-6.23777 -5.94634 0.865177
6.62705 0.566851 -18.9999
9.7965 9.99953 -0.922184
-6.09646 9.99946 9.82556
-0.684818 -6.55014 -10.1948
7.09537 9.8164 2.82088
10.0674 4.21154 4.2719
1.07647 3.03101 -19.0001
0.646428 -7.29972 -9.99985
-2.67088 -5.38403 -11.8366
11.5909 -6.40582 -9.99931
1.79236 7.30333 -9.99991
6.57525 -2.94778 5.22314
