4.60726 5.55563 -5.32951
3.95881 6.63882 -18.9998
-4.66984 1.99731 -5.68918
-4.78746 -9.99963 4.1211
1.0598 9.96295 -5.95943
5.54255 5.92026 -13.6418
11.7994 5.73033 -5.72677
-2.32378 5.66882 17.2176
6.476 -9.99947 9.95111
-8.19955 -1.24366 8.05266
-6.36618 6.08751 -9.9994
-5.45461 8.24153 9.99944
2.52647 4.98609 5.95504
-4.19661 7.97485 0.102798
7.70417 3.76441 -11.8511
11.7994 1.99121 -7.86877
-8.14868 -9.99942 -5.46516
-2.82022 6.52109 -3.83174
-5.06351 -1.38111 17.1611
2.68329 -4.89434 19
11.7995 -6.3679 -4.52031
-6.41148 0.933205 -5.9358
5.80086 6.35053 -4.46864
1.78101 -9.91739 -9.99951
6.25872 9.99953 -4.09964
-8.19929 -6.56788 9.9628
4.67626 -9.99956 -5.3578
11.7996 6.04379 -0.493754
-8.19939 -3.50012 4.95881
1.91123 -6.77383 -6.02072
-0.363101 6.67377 -17.1705
-8.1995 7.79952 2.12226
7.59209 4.06258 -10.0005
8.42965 -9.99934 -9.96266
7.09142 2.62818 5.39261
11.7995 6.35133 4.83166
1.46472 1.01671 19
-4.76425 -8.27458 9.99948
9.97963 6.01551 9.99944
7.23986 4.40235 18.9613
-2.38468 9.99925 4.41285
-4.04397 -7.98674 1.37124
4.16996 -6.58774 15.3331
8.37557 2.40654 15.3346
4.88386 -3.14733 5.15832
11.7995 0.0953863 6.06209
5.49511 5.91736 -18.9999
3.86345 -6.75148 -10
2.98734 -6.1774 5.88015
-8.1995 3.27138 -9.94231
7.66696 -3.81985 -17.089
-8.19954 -7.85819 -2.32438
9.7841 -9.99956 -0.956135
2.1506 6.98265 18.999
7.77846 3.59714 -18.9999
-1.31046 8.20456 5.13594
6.47309 -5.20931 -17.1328
-6.45389 -7.42843 9.99938
0.699238 2.88973 19.0001
-8.19915 9.95666 -6.48786
11.7994 7.80494 -6.00186
2.61313 0.711928 -5.98261
1.19088 -7.82388 5.96853
-8.19951 -0.914297 -6.00239
11.7389 -9.9328 -9.99863
-3.47366 -7.97319 -9.99951
4.02897 -6.63391 -15.3213
11.7995 -1.26678 9.95021
-3.11453 8.27873 -3.44462
-8.19951 5.93515 -7.84283
-0.181448 -6.71843 -15.1154
9.87235 -2.16419 -5.605
7.63404 5.77377 -1.67751
7.62661 5.75971 1.68087
11.7995 -7.84047 3.84221
11.6849 9.99958 9.94048
-4.20186 -9.99963 -0.884337
2.69904 6.93947 -11.86
7.07048 -4.6107 13.7749
-6.57185 9.99954 -4.08796
4.60919 9.96784 -9.99943
-8.19954 -8.09712 5.62775
6.87244 5.03917 -3.27162
-4.33374 3.40015 11.9722
-4.98863 -1.63875 18.9992
4.98909 6.22844 17.1239
-4.22131 -9.99943 0.702287
-8.19954 -9.96631 2.52791
-6.46135 4.32878 4.15688
-8.19951 -2.51839 -7.9432
11.7995 6.95786 2.91448
-8.19998 5.97501 1.04954
-8.19956 -8.53782 3.65463
-3.50257 2.47268 5.47257
-2.24626 -5.73081 -15.4842
11.7994 -6.01927 -0.736768
0.51306 -9.99947 9.9559
-1.16712 -6.34681 -18.9587
8.62097 -1.4482 -18.9998
3.94872 -2.36186 -19.0001
-4.76935 -2.42928 15.3984
-2.12218 3.82683 4.62365
-0.174294 -9.99958 -7.7829
4.01155 6.63832 18.963
4.04403 6.63446 11.8735
9.9592 -3.91099 -4.57298
-8.19949 -5.75456 8.3175
11.7998 0.925522 -9.96814
-4.6438 2.74235 17.1037
-4.42662 -3.20182 18.9633
-6.52631 6.68983 9.99946
-4.17818 3.65013 18.9565
-6.09256 -9.99963 -2.15697
11.7522 -4.57301 -3.90918
9.52385 -5.57471 2.26639
-6.07643 4.1931 -9.99956
11.7995 0.0429894 -7.94432
-5.02417 1.59045 11.929
-1.917 9.95794 -4.70617
-3.37118 -4.70681 18.9604
4.13576 7.9039 -5.52301
-0.517432 9.99897 -5.61501
9.96233 9.99955 -4.40504
-4.42231 6.16679 -9.99953
-1.65929 7.94505 -4.90705
-4.88995 0.878277 5.9498
10.1339 -2.3081 9.9996
0.705753 6.9267 -11.8894
6.33652 8.2752 3.95645
-3.80463 -9.999 2.33157
0.59655 4.5495 5.9134
6.24282 -8.19278 4.05442
6.26134 -6.31672 4.02693
-8.13714 9.99968 -9.92942
1.85859 -7.01284 18.9631
1.74005 7.00457 -13.6345
8.17787 -9.9997 -4.42976
-4.01487 9.99949 -5.71699
11.7994 -8.08043 -7.92005
-6.33084 2.84423 -5.29347
6.73241 4.97462 -18.9592
8.50179 1.981 -18.9995
-4.49026 4.18091 4.30472
-8.19948 -3.52974 -9.94132
11.7995 -2.69388 7.73508
8.80255 0.507498 15.3995
-1.22612 5.82843 -5.1727
-4.94793 1.87246 15.3924
8.46739 -9.99957 -6.39723
-8.19949 7.74591 5.97722
-8.19953 8.07 0.0715636
-8.19951 8.39649 4.00641
11.7686 2.76554 -9.99944
0.148007 -0.827248 -19.0001
4.73304 -6.82144 5.24441
8.2014 -2.83676 13.7375
1.7446 9.9995 7.99654
-8.19944 8.34823 7.8718
-5.05991 -1.41112 13.6563
4.8364 8.17147 5.17774
1.98761 -7.02347 -15.266
9.80242 -5.74111 -1.80588
1.71121 -7.00167 11.9145
8.05913 -3.13587 -18.9627
-3.99739 -5.85188 1.61294
5.89243 -5.6803 -15.3288
11.7998 5.94756 1.17962
-4.31184 -3.44132 17.1306
-3.45306 -5.24946 2.95044
9.31886 9.99962 2.91822
-1.19997 -6.32981 13.6395
9.93187 3.97598 -4.50575
-8.19971 5.4728 2.60431
-6.23848 9.9996 0.0714588
3.73649 1.50945 5.81853
-2.76344 2.21643 -18.9998
11.7995 -0.681851 8.01951
-1.60084 -9.99942 9.95503
-0.58346 -8.29594 9.99956
-1.23102 -8.22246 -9.99952
-0.276663 9.99961 -7.86148
0.78308 -4.83655 19
11.7995 -1.78979 -8.1711
0.697206 -3.8545 5.93223
10.3152 -0.093146 9.99965
-1.90362 -5.94549 18.9551
2.27999 6.96898 -18.9995
-8.1579 9.99929 -0.968527
2.50298 -1.12121 -5.97322
-0.866672 -4.96755 5.39038
-3.80435 -9.9994 -2.36644
-4.22651 3.58435 -15.3578
0.850923 -6.95587 13.6617
8.2803 4.68002 -3.78391
-2.96803 -5.14589 17.1219
9.77977 5.31809 -2.8037
1.66987 9.99965 -7.94884
-4.91036 1.9123 18.9998
8.54908 1.90227 -15.3052
-2.7722 -5.26282 -18.9997
-8.15674 -4.77925 9.99955
4.51406 -0.748866 -5.98415
1.00711 9.96294 -9.99945
8.83397 0.891733 -10.0002
6.60082 -9.99968 3.70069
11.7583 -9.99933 -8.29622
-8.19955 -8.08896 -0.326759
-5.86281 5.35359 2.72592
-0.563799 -6.59689 -16.9448
11.7997 -4.32372 4.25404
0.300811 6.81788 18.9994
-3.64992 4.40939 17.0824
8.32908 2.69948 -9.99986
-8.16661 1.48094 -9.9996
6.57935 -9.99966 -6.10027
9.77538 5.95151 -0.812231
-6.04021 -2.59496 5.40297
-5.94041 -5.29188 2.85646
-1.29085 0.73378 -19
-8.19948 -5.2242 -8.18559
7.39516 -4.21606 -15.3203
0.991866 -5.72504 5.95399
-1.46521 -6.20539 -13.7532
11.7994 -8.34934 9.96212
-3.69591 -9.99964 5.9682
6.39013 -5.28667 16.9818
8.03438 -3.22032 -13.6367
11.7627 8.37193 9.99926
-1.90322 -6.03309 -10.0002
11.7216 -0.824226 -9.99948
11.7593 -1.53328 5.79584
-5.19109 -0.118762 -18.9624
5.38307 -5.92796 -4.8089
2.00257 1.26418 6.01398
8.35519 -9.99964 4.19761
4.72591 9.95151 -5.22873
11.7995 4.44994 4.13776
8.69576 -1.20475 -13.5965
-6.02181 -9.9996 1.96187
1.95562 4.79778 -6.02527
7.53675 -9.99948 8.09844
3.85808 6.56518 5.63379
-6.03181 5.92002 -1.06989
-1.55342 6.14706 18.9637
-0.47735 -9.99854 -5.63466
7.66064 9.9991 1.53502
1.85396 -9.9994 -8.04014
11.7722 0.819602 9.99949
-1.58402 -9.99972 5.02821
11.7996 9.94928 -6.74144
5.1814 -3.91034 -18.9999
-2.40928 5.59914 15.3751
2.13473 -9.99996 6.05596
-6.69543 -0.622238 -9.99971
11.7995 8.02719 -0.138417
8.70454 -1.01536 18.9997
11.7995 6.56744 9.95648
-0.740057 -6.52099 -12.1094
-0.997301 9.96206 -9.99929
1.08631 9.99951 9.97206
-5.204 -0.445869 11.8798
5.77504 5.75556 18.9619
9.87839 2.11168 -5.63006
7.76451 -8.0075 0.700562
11.7593 0.523841 -5.97495
11.7995 -7.77211 2.05457
3.51374 9.9996 -8.22332
11.7543 -8.23858 -9.99967
11.7995 8.22613 -9.96349
5.22478 -6.11304 13.5038
5.7811 9.99958 -8.30007
3.76297 -4.42627 -5.68718
11.7997 -9.95193 2.74254
-4.83515 5.00551 -3.31015
-8.19955 9.93348 -4.70556
-2.05283 6.46253 4.5946
-4.75263 -2.46834 11.8654
1.51726 -9.99962 8.01781
8.88403 -0.648 -10.0001
3.56184 4.84019 18.9999
0.4914 -1.75279 -5.86971
-8.19957 5.66036 -5.68709
-2.96617 5.14706 -11.8115
10.0901 -9.95329 -9.99916
-5.70922 2.90578 5.26719
11.7998 2.09894 -5.69703
-8.19949 9.96176 4.91338
-8.16576 -0.225025 5.9993
-6.3905 4.25881 -4.22348
11.7994 -5.53057 -2.52179
-4.24244 3.56217 -11.8132
7.85681 -9.99938 0.409056
-6.30654 -2.89677 -5.26386
0.188395 8.43184 -9.99958
-8.15859 -9.99944 -1.36087
11.7995 -6.72528 -6.48344
1.38139 -5.02451 -19
-2.09344 -5.82647 -17.3275
2.55876 -0.446292 5.99075
-3.61753 4.44589 -17.1521
-0.680559 -6.77217 5.47429
1.93793 -1.16111 -19
-1.42596 -3.20219 5.10218
-6.66283 -0.149366 9.99961
5.45182 -3.74244 -4.75632
-3.02607 9.9995 -3.67438
-5.95511 -7.82516 -9.99943
-3.01098 9.95683 -9.99925
7.77427 9.99954 -7.92683
7.09342 -4.57579 -18.9616
7.13732 9.9994 9.96639
6.06287 7.94308 9.99945
11.7994 5.96274 -7.83431
-4.83012 -6.11609 9.99966
-5.2074 -0.788315 -9.99971
-3.22743 -6.64718 -3.27609
-5.19714 -0.328624 15.408
9.95109 9.99946 -6.41792
-2.17617 -5.77357 11.8705
7.88649 -3.44552 -4.90517
5.12114 -6.16488 -13.6034
9.39757 9.99935 9.96712
5.84012 6.41946 4.43448
-8.19952 0.259394 9.94481
3.85225 -6.66728 18.9997
5.85614 -1.29149 5.8569
-3.81445 -4.19561 -11.8971
-8.19951 -6.65648 6.76592
6.12102 -5.52119 15.2293
-4.64248 2.75134 -17.167
-8.19954 -6.5746 -4.26354
-3.26569 4.83054 13.607
-4.49219 -3.06432 -17.169
-3.01082 5.02776 18.9998
5.98713 4.13396 -4.37394
8.79323 -0.487013 17.1173
9.63507 -9.99961 -3.01756
-6.286 -5.51166 -2.37252
-0.759365 8.33422 9.99953
-1.59963 -1.28376 -19
3.86054 -9.99943 5.71823
-6.34468 -0.720417 5.98168
-6.22148 -4.86198 9.99951
10.1172 2.59349 -9.99961
8.09268 -3.00179 19
-8.19927 6.74083 -9.95143
-6.39651 -3.22168 -9.99971
-5.17837 0.781836 10.0393
6.64035 1.66149 -19
-4.90384 -2.20705 -10.0003
-1.28222 6.30094 -11.8616
5.93633 -7.85692 9.99939
7.00669 6.97319 -2.99323
2.9613 8.25774 5.88833
-5.1694 0.726865 17.1406
10.0982 9.99947 8.19354
-4.78538 -9.99951 -9.95873
5.95927 4.22071 4.32315
11.7998 5.37156 2.78073
-4.68656 2.66506 -13.5679
6.13533 -5.51393 -11.8622
11.7997 -9.93952 9.93393
8.36132 6.19238 -9.99957
-8.1993 -8.41844 -9.95517
4.08704 -2.42565 -5.55014
-4.21683 -9.99948 -7.73473
2.38529 9.99978 6.04585
8.01044 3.25935 13.5623
7.0024 -4.68832 18.9661
5.91569 5.66475 11.8407
11.7996 9.96226 4.65861
9.89855 -0.102122 -5.99714
0.00650169 8.02717 -5.72759
-8.19979 -3.77145 -4.76107
6.66617 -4.80777 -3.63054
3.5418 -0.351333 -19.0001
-8.19944 1.61721 5.86457
-8.19946 -8.03074 7.96362
-5.16359 0.816682 -17.1645
6.32878 -2.28134 -19
-1.40682 6.23974 13.7244
7.24368 -7.68947 2.52576
-8.19952 1.88874 -7.94269
7.51766 -5.67056 -1.99824
0.694278 -6.90391 10.0456
4.62669 6.41392 -11.8524
6.07026 9.99952 8.30357
-2.36617 5.62875 -10.0314
-5.19514 -0.396903 -11.8517
5.10345 3.75339 18.9998
7.41933 -9.95885 2.12956
9.60973 -7.73287 -9.99945
-8.19966 -6.03747 0.594383
8.56925 1.86049 -11.8183
11.7995 9.94631 8.18087
-8.19943 0.669201 -6.03589
10.0156 0.824556 5.96211
-4.12817 9.96147 0.985657
6.59908 2.39586 18.9999
-3.7935 9.99952 8.17347
8.21575 0.934481 -5.93843
6.54845 -5.14025 12.0234
7.59136 -9.99947 -8.13881
-3.95237 -4.11327 10.0004
6.46142 5.21895 -10.0279
-3.78731 4.29911 -9.99998
-8.19964 -2.34184 -5.59409
8.43912 -2.25915 -17.2247
8.03444 8.24112 9.99952
-1.79006 3.71549 -4.80775
7.49279 9.96859 -1.89238
11.7995 -6.18857 5.00055
4.74406 -5.05106 5.25972
11.7995 -4.70875 8.31346
11.7994 8.39381 -4.02808
4.7365 -9.99946 9.94215
2.01326 -7.01652 15.3928
8.10435 4.08346 4.41113
8.19505 2.8545 -13.5618
-3.72329 -4.31887 11.8852
-2.82023 -5.25906 10.0432
3.18079 -6.87634 -13.5974
3.50954 4.10421 -5.78366
1.69862 4.84376 19
7.23097 -9.9995 -2.70749
4.09208 9.99921 5.60968
6.7302 -6.58468 -3.41087
6.13611 -9.96004 -4.17472
7.74004 8.02779 0.882171
-6.33096 -4.3717 -4.11514
-5.93238 9.99953 2.12069
6.78894 -4.92413 -13.609
-4.71903 2.58396 10.0381
9.80424 -9.99934 -7.82246
-1.97024 -3.30951 -18.9999
-8.19952 -0.336386 -8.01512
-3.43138 -4.64956 -17.1591
-4.53729 6.25267 9.99951
5.24519 -0.624136 -19.0001
7.86706 9.9993 -0.205179
2.00962 -5.03948 -6.02441
-8.15682 9.99929 1.01813
-3.93879 7.7877 -1.82284
-2.06799 8.00239 -9.99945
-3.67316 5.41229 2.62443
-8.19952 0.741249 7.87364
-1.933 -9.96219 -4.72811
-3.6537 4.40916 -13.5887
4.88933 3.13917 -5.1437
11.7995 -7.97472 -3.50861
6.46455 9.99968 -6.24555
1.93853 2.8117 -6.02283
8.26879 2.65648 18.9997
11.7995 7.85965 -2.07264
11.7603 -9.99922 -0.777777
-8.19949 5.84677 9.96151
9.01967 -4.93001 -3.42155
2.44803 -7.08371 -10.0001
11.7994 -4.88634 -6.17007
1.93456 7.01821 11.8706
-8.15778 -9.99945 0.682121
-8.19952 -6.8416 3.60095
-4.19698 -7.94044 -0.520273
4.4338 -6.50066 -11.8375
8.41615 -2.31397 17.2324
4.99225 6.22808 13.6058
9.9308 7.98934 9.9994
-2.61261 -8.17961 -4.06288
-2.13297 -5.80173 15.3774
-4.9492 1.88069 -18.9645
11.7997 4.5735 9.96033
9.99698 -4.6856 3.75988
11.7994 3.10854 5.20478
-8.19951 3.62258 6.68564
8.01446 3.14429 -5.13017
-3.62172 9.99915 2.71108
3.09527 6.88368 17.1251
-6.25751 -9.99964 -0.11233
-8.15683 -9.99958 6.56309
-2.19868 9.99955 -8.39577
7.67608 -7.86762 -1.23401
2.58258 -6.9543 -11.8872
9.77546 -5.11525 -9.99943
2.92741 9.99959 -5.957
-8.16152 -4.71579 -3.72898
-8.19957 6.54718 4.14916
-0.101288 -6.71652 18.9996
3.67328 6.74871 -13.6256
9.45731 2.61039 5.4019
8.29754 9.94094 -9.99964
-5.18019 0.673832 -13.5912
0.252072 0.557625 5.99518
-3.83197 -4.16577 -15.3929
-4.67837 -1.91284 -5.71305
11.7994 7.82443 8.11254
-2.97072 2.73697 -5.3349
11.7558 -9.99913 -6.50629
8.42538 -2.28501 -15.3691
-4.32127 -3.41232 13.6364
-2.76127 2.43219 18.9998
3.30033 -9.93001 -9.99944
-2.75622 -9.9995 8.27238
11.7995 -9.96624 8.24658
-3.3059 -1.21261 18.9998
3.73117 -2.03468 5.69788
8.14821 -6.23163 -9.9995
11.7997 -2.72316 -9.95725
-3.97483 8.02267 -9.99936
2.7434 9.92131 -9.99949
11.7995 -5.94981 -8.20003
0.661384 9.99939 5.9739
4.6245 6.41109 -15.4121
-4.19017 6.02827 -0.609569
-4.23094 9.99946 -0.636633
-0.491871 -8.50297 5.56589
11.7996 6.46562 -9.96172
11.7995 -8.00212 0.175097
0.637189 -8.22008 -5.91726
-8.19927 -9.95636 8.30848
11.7994 6.63747 -3.9385
-0.788711 1.24765 19
4.93946 2.92844 5.23306
3.59808 6.77407 -17.1594
-0.255754 -2.62548 19.0001
-8.19957 7.40538 -3.93366
11.7995 -2.93717 -6.82864
-6.06172 8.01603 -9.99933
5.16185 -6.14271 11.6042
6.50855 0.490792 19
-4.62093 9.99955 4.29548
-6.06689 9.99957 5.99028
6.63982 5.05812 17.1282
1.82401 3.13744 6.01497
0.574872 -0.752627 19.0001
-2.4136 -9.99963 -6.50434
6.49904 9.94844 -9.9994
11.7995 1.35725 7.99712
-2.8909 4.7605 3.76757
7.19094 -5.34729 2.76805
-2.67813 5.48408 10.0002
-3.14003 -4.96861 -13.7115
9.5914 -4.25877 9.99954
11.7991 -5.40603 2.76457
6.22495 5.49926 9.99994
-4.38038 -3.29577 -13.6385
2.85874 9.99951 9.95884
4.82123 -6.31302 17.1091
-2.16109 5.78553 -13.6026
10.1289 -9.99939 9.94912
6.86173 -1.32282 18.9999
-2.55598 -8.53905 9.99941
-8.19952 -4.03093 -6.72814
2.11157 -3.16581 -19.0001
4.05163 4.70016 -18.9998
-2.15339 5.79086 -17.1832
8.58224 -1.73892 15.4364
8.42964 -9.99941 9.9536
7.76988 -8.20372 9.9995
2.20629 -3.02142 -6.01223
11.7996 -8.30674 -5.57725
-5.17276 0.73992 13.6934
-3.27048 0.260228 -18.9998
5.51342 5.94098 -17.172
1.64835 7.00412 -17.1523
8.69093 1.22892 13.548
-8.15255 9.99972 6.61921
11.7995 8.3087 3.98219
0.205018 2.10924 5.78645
11.7995 8.20917 6.02272
9.59716 -9.99944 7.69937
-8.13339 9.9108 9.99982
0.611031 -3.90004 -5.90693
-8.09928 -9.99961 9.94261
5.6648 -5.81371 -18.9992
2.54893 1.20057 -19
4.06989 -6.61993 -18.9589
11.7455 9.99915 2.68767
8.7802 -0.965469 10.0002
10.1494 2.17039 9.99958
-8.19962 2.23553 -5.64356
0.206762 4.16486 -5.79019
-4.8095 -2.30578 -15.3827
5.87466 5.69207 15.3405
-8.19955 -5.85273 5.15055
-8.19945 -8.37145 9.96153
7.85772 -6.009 -0.355772
7.19659 -7.95616 -9.99937
-2.94847 5.15764 -15.3709
7.71924 -5.85743 1.29875
-3.38421 -7.68407 3.01833
-4.71237 2.70051 -10.0001
-1.72903 -9.99962 6.73929
-8.15673 -4.77541 3.64298
6.04383 -5.65093 9.99981
-8.15846 -1.45329 9.99939
10.1304 9.99952 4.56502
11.7595 9.9992 0.665772
-1.87037 -6.23849 -4.74306
3.20305 6.87766 10.0419
8.46836 2.18785 11.8167
8.14106 9.99949 8.17813
4.81236 -0.888087 19.0001
5.81873 -7.98847 -4.45845
-4.99432 1.73038 -15.3656
2.67447 -9.99948 9.94969
-6.101 -9.99938 9.96264
-0.952932 -2.66554 -5.3674
3.12014 -6.88618 -17.0803
4.75537 -8.45534 5.22817
-3.28461 4.80974 11.7288
0.903056 -6.9591 -13.5133
-8.19865 -9.95141 -7.70551
-8.1609 9.99963 -8.22523
-5.06704 -1.3618 -13.6101
2.66584 6.94242 -15.3846
8.78478 -0.76027 13.7066
3.10477 -6.88508 13.7215
-6.46046 5.36372 -2.6771
7.37861 4.23581 15.3158
9.78992 -9.99954 5.57554
9.8319 -5.99267 0.353634
8.15735 -1.3691 -5.83673
-5.17899 0.0958078 18.9997
-8.199 8.38977 -9.95888
-8.19952 1.90028 9.95906
6.25339 -2.15497 -5.62957
8.73322 1.06596 -17.0554
-3.87905 9.99901 -2.16172
-8.14133 -9.99783 -9.88508
11.7472 9.99935 6.46675
-4.57089 2.89969 13.7213
-8.15841 9.99939 2.80289
-4.80346 -5.00036 -3.32307
0.483001 6.88767 -18.9629
-8.19947 4.49892 4.08053
1.0389 6.9685 17.0862
11.7995 -7.83381 -1.72758
6.36131 5.31455 -11.8574
9.8499 4.94241 -9.9995
-8.19961 7.95802 -2.01358
-8.19946 4.93972 -9.94472
-8.19963 6.04296 -0.585878
-0.308741 9.99953 7.98938
7.71322 3.74569 -15.3461
3.45484 3.35165 5.80173
-1.34681 6.22142 -19
8.08445 9.99965 4.62587
-4.47799 -1.10577 5.90303
11.7996 9.9602 -5.05866
-6.26053 5.95871 0.806994
-0.316462 6.69221 -13.6384
0.325418 -9.99981 5.89475
-6.61587 1.38213 5.83424
11.7995 3.96837 -6.68589
-8.19955 -3.60997 8.40178
-3.07755 7.9053 9.99936
5.46134 9.99962 6.62394
7.01992 8.68937 -2.98288
-8.14366 9.99961 8.35618
0.601033 1.54065 -5.89354
2.57609 -1.02692 19.0001
-8.1995 6.59907 8.02154
11.7994 -8.08114 5.88709
10.0738 9.94601 -9.99967
-0.209544 -6.7137 15.3892
11.7997 -9.95643 0.994159
-6.55345 2.0415 -9.99963
11.7681 2.80058 9.99943
-8.18168 -1.82121 5.73494
-1.70995 3.96409 -18.9999
-8.1995 -8.38863 -4.29185
-4.05483 -3.81378 -18.9995
-3.97879 -3.02959 5.20138
0.678287 6.24568 -5.93406
-1.38099 3.50368 18.9999
8.00068 -6.27047 9.99953
-5.15924 -1.14067 10.0006
11.7995 3.93802 -8.39702
7.86883 6.00316 0.0591605
-4.13376 3.70437 -18.9629
-6.18134 -9.99957 -6.22347
-4.65709 -9.99944 7.87915
-3.10357 -9.9998 -3.58799
-3.74824 -8.1015 -2.27301
3.64427 -6.35606 -5.73148
11.7995 3.29058 7.78561
-2.92728 5.1462 -18.9987
-1.09179 -8.01361 -5.25206
11.7988 -2.94835 5.31457
7.08977 4.58714 -13.6246
6.59558 -9.99939 -9.95872
-3.31243 -1.77623 -18.9999
7.18172 7.49982 2.66329
11.799 -3.12178 -5.19078
11.7998 1.76962 5.81231
8.12257 0.942541 5.93684
-0.997124 5.01389 5.31763
-8.19946 -8.0948 -6.25463
4.6508 8.28057 -9.99956
11.7541 -4.59401 -9.99934
8.72564 0.832095 18.9998
-5.98046 -9.99957 5.93632
4.91299 -6.26744 -17.0992
10.0543 -3.141 5.12418
-0.770313 6.51113 17.1252
3.69887 2.05259 -5.70688
1.27384 -9.99982 -6.04589
-0.525195 -4.65343 -18.9999
-8.19963 -5.58082 -2.38806
3.98719 6.64675 15.3497
-8.15877 -9.99942 4.78345
-5.0128 1.67849 -11.803
9.78719 -0.996667 5.91964
11.7994 -8.06941 8.00278
2.63833 -8.32208 -5.93906
7.09711 4.5777 -17.1322
-0.79006 2.48259 -5.47524
-8.15444 -5.63863 2.11013
-4.20283 -3.74714 -10.0002
0.860808 -6.96333 -11.6759
-8.19967 4.87993 -3.6198
9.69134 9.99946 -8.22612
-8.16305 -3.07043 9.99953
6.17488 -4.31216 4.17463
-1.29186 6.29254 -15.3904
-0.180697 6.59724 5.66679
5.58071 -9.99955 -7.80273
3.60419 -9.99963 7.94931
4.43117 -8.06945 -5.42304
7.46052 -9.99967 6.05901
8.0336 6.26652 9.9996
-0.693643 9.97174 9.99941
5.61938 -5.86308 18.9536
8.25925 2.82582 9.99982
7.71203 -3.74859 15.5267
0.29169 -9.93792 -9.99947
11.7995 6.46913 6.73758
2.94324 6.36992 -5.89048
11.7595 -1.2146 -5.87386
8.79889 -0.279238 -15.2994
-3.84835 9.99961 6.15952
0.105176 -6.24254 -5.75156
4.61517 4.95506 5.32095
5.80355 9.99956 4.57166
1.69021 -2.89363 19.0001
11.7997 -3.14718 9.9511
-4.16161 5.87953 1.15471
8.78119 0.995791 10
8.24961 -4.24116 4.24935
8.07749 9.99964 -3.82628
-3.96976 -5.80968 -1.74667
0.849364 -0.945154 5.95628
-2.05325 9.99958 7.29506
11.7357 9.9317 -9.99756
-2.40119 -6.22771 4.29881
5.00893 9.99946 9.96122
-0.28006 -2.14776 5.65477
2.05965 8.10873 -6.02245
-8.19954 7.83212 -5.90035
0.50363 -6.86543 -18.9991
2.87429 2.80957 18.9999
-4.47454 3.75311 -4.68826
-6.21159 -9.99942 -8.17153
-4.35866 -3.67533 -4.73993
9.74392 -9.99953 1.16476
6.36505 5.31016 -15.4108
3.88108 -8.4004 9.9995
-8.14239 3.16398 5.09723
11.7997 -9.95978 -2.54524
0.143704 4.75427 -19
-1.19789 -6.3316 17.1517
-3.07669 -9.95837 -9.99946
-8.19951 4.72601 8.18158
-6.53037 2.40093 9.99974
-3.1435 -7.01118 9.99965
3.68862 -2.77425 19.0001
-2.31818 -2.8664 19
0.153891 -2.80208 -19
-2.19612 -3.94882 -4.53155
7.40025 4.21391 10.0316
11.7995 -4.55092 6.371
-2.16978 -8.13137 4.50913
1.63009 -8.50965 9.99964
-1.07463 0.758065 -5.98453
2.97789 6.90292 13.5832
-8.1995 -5.9489 -6.13415
6.78183 -4.99224 -9.99981
-6.6122 -9.9996 3.86922
6.915 5.1846 3.1317
-8.1996 5.68584 -2.15396
11.7995 8.22218 1.72066
11.7997 9.95647 -1.25327
8.61457 1.60472 17.1918
4.40543 -0.3399 5.99318
-2.86688 8.39049 3.77378
-8.19946 -7.51114 -8.05499
-8.1995 -1.81491 -9.9544
-2.50786 -4.23294 4.25069
-6.48568 -4.1095 4.37719
5.75116 8.19417 -4.52083
9.37647 5.24868 2.93371
3.08114 -9.99908 -5.94486
-3.95799 -9.9994 9.95571
5.23583 6.18156 -9.9999
-6.49954 9.99955 3.9827
9.47697 9.99958 6.36896
5.41375 -9.99933 4.90522
-8.19952 5.58721 6.05852
9.74563 -7.97859 9.99934
3.51836 -6.79397 11.9311
6.71752 4.98857 13.5669
5.97883 0.877191 5.95216
5.54714 3.36399 -18.9998
-3.8729 4.09597 10.0673
7.5139 -4.05963 -11.8622
-4.66686 -4.34808 4.13228
8.80001 -0.669469 -17.1063
11.7562 4.75649 -3.64561
-3.03746 -4.90544 -3.54665
4.80921 1.74439 18.9999
11.7997 -9.96282 -4.37684
7.69514 7.90732 -1.11945
-4.77721 -2.402 -11.8463
2.12064 5.018 -19
-1.04364 2.92003 5.28834
0.763237 0.961128 -19
4.9548 -8.19856 -9.9995
-8.14525 -6.72428 -9.99958
8.79222 -0.243919 -11.843
7.32342 9.99964 6.35738
-1.33429 -9.99948 -9.95536
-2.83056 -2.41052 -5.49483
0.821357 -0.175939 -5.99195
9.64416 9.99951 -2.45273
-0.827062 -4.74521 -5.41315
3.09486 -8.11796 5.85979
-8.19954 2.60166 8.18534
-2.11145 -9.99952 -8.23908
8.79351 0.137373 11.8222
-6.09337 4.57911 9.99959
-8.16519 9.99928 -2.86293
-0.510442 2.57281 -19
11.7503 -4.90407 9.99934
3.44032 0.672265 19
4.93766 -9.99942 -9.94752
-8.19949 3.64389 -4.86727
1.82715 6.596 6.01357
-5.90116 9.99945 7.94074
-4.26509 -5.99698 -0.0420011
2.6007 -6.95265 10.0396
9.64165 4.20461 9.99955
-4.42754 9.99943 9.96331
-4.90062 -2.0204 -18.9552
-8.14666 -9.9994 -3.33554
9.83066 -9.9995 3.14385
-8.19957 -4.65146 6.63748
11.7577 9.99914 -8.36543
11.7994 7.9569 -7.98763
-2.8264 -9.95305 3.8032
7.55465 -4.00212 17.3512
8.77278 0.815539 -13.5878
-0.470807 -9.99954 8.12054
3.77963 8.43034 9.99956
11.7994 -6.38078 7.34222
0.317226 6.90521 10
-4.20866 9.99951 -7.84926
4.81112 6.38797 9.99975
-8.19963 -2.80289 6.96358
7.64179 -0.764556 5.98524
-4.21066 -9.99964 -5.41054
11.7531 -9.99922 6.49813
1.93996 7.01341 15.3301
8.21782 9.99963 -5.79632
6.52118 2.09712 -5.65534
-1.29409 -0.627554 5.99568
11.7559 -5.90044 1.0838
8.15678 2.9347 -17.1364
9.94582 -6.05619 9.9994
6.99692 7.80561 -9.99948
-6.0461 9.99951 -6.0552
-2.99167 -5.12315 13.6362
-6.15748 -5.99159 -0.722546
8.49103 -2.40824 5.49295
-1.06658 -4.41828 18.9999
-1.92978 5.92155 11.9576
0.799473 -6.94915 17.16
11.7546 9.99915 -3.06061
-2.80502 4.66645 -3.85203
-2.62555 -1.86179 5.72148
4.64231 9.99968 -6.92761
-0.920796 9.99893 5.43728
11.7556 -9.99919 4.57721
-0.929184 6.50726 -10.0001
-8.19948 8.00064 9.96262
-4.8735 9.99952 -3.92414
-3.12891 0.386291 5.99486
2.91633 -6.9071 17.1241
-6.37775 -0.92052 -5.94151
-8.19955 3.91277 -7.43401
-3.72144 -4.32406 15.3725
11.7996 -6.65817 9.93815
7.36437 -4.35247 10.0005
11.7996 5.68925 -2.08872
-8.19967 -6.00362 -0.933572
-2.25923 9.99967 -6.6294
-0.338222 6.68029 15.3309
-1.178 -0.893294 -5.95405
-8.15184 -5.08295 -9.99948
-3.7617 5.62814 -2.26197
5.82306 -2.92464 19
10.0777 -9.99951 -5.32468
1.72308 7.1189 9.99984
-3.98399 3.94021 15.3
10.0712 -2.78296 -9.99956
-6.188 9.99944 -8.00882
11.7996 -4.00439 -8.21252
11.7996 5.40555 8.25383
7.01753 -8.24841 -2.96475
7.74513 -9.99971 -1.20816
-3.00133 -0.734611 -5.98485
-4.6647 0.141424 -5.99678
11.7997 4.66152 -9.96553
9.83624 5.89985 1.1642
1.99344 -2.48874 6.02362
-2.44244 9.99949 9.94665
3.42734 -4.77412 -19
11.7993 3.61263 -4.85499
0.659123 6.92387 -15.398
-6.12515 -5.39195 -9.99961
-1.40006 -0.799891 19
-3.27914 6.80962 3.19013
-6.50575 -9.99943 -9.96881
3.80181 -9.99954 -7.86409
0.580305 6.89634 -10.0402
7.89134 3.45302 17.146
4.71357 1.3784 -18.9999
-4.42943 -6.29839 -9.99971
-8.19951 -0.0379667 -9.95183
-4.65877 -2.83555 10
8.23662 -2.74215 10.0415
-8.19958 -7.91204 1.68588
9.82401 9.99953 1.20803
7.45124 4.15284 11.8408
1.14808 -6.9716 -17.0525
-0.184744 6.7154 11.9238
8.80061 0.31107 -18.9584
-1.33875 6.32743 10.0009
7.75323 -3.68057 11.9214
3.38958 2.98368 -18.9999
3.83301 9.9995 7.96292
7.84288 -3.68967 -10.0001
2.33732 -6.99518 -18.9604
-2.82837 0.994672 -5.92812
8.4549 -2.15884 -10.0407
-8.19943 7.96111 -7.90513
-6.4663 -9.99943 7.94585
3.56474 6.83966 -9.99989
8.45476 -2.21908 -11.8805
-0.166064 4.83497 18.9999
-0.315675 -6.68667 11.8635
-1.67219 1.3271 5.84842
-3.1165 -5.00637 -10.0406
-5.19964 -0.303523 -15.3704
4.99194 0.886711 -5.95585
5.57182 -9.99961 7.44593
-4.80797 9.96026 -9.99936
0.735414 8.27585 5.92656
-6.47198 -2.67613 9.99963
5.48235 -6.0444 -10.0006
0.767644 6.95034 13.6462
-5.21186 0.83383 -9.9995
-1.23645 -6.36495 9.99982
6.57863 -0.207392 -5.99445
-3.89914 8.02359 1.89535
-8.15631 3.8774 9.9996
-3.0044 0.65796 18.9998
8.56724 -1.87251 11.9164
9.58524 7.7443 -9.99945
4.57199 -4.4781 19
-6.10104 9.99959 -2.0232
11.7995 4.63565 6.26009
4.3868 -6.56925 10.0004
2.98198 -4.1954 5.88104
-5.86459 -9.9996 -4.08797
-6.52333 9.99945 -9.96072
-5.0996 -1.16726 -17.1499
-6.1459 -5.90097 1.0743
6.9922 -0.244009 -18.9999
9.83818 9.99954 -0.669691
-6.40772 9.9995 9.95901
-0.441192 -6.65811 -10.0442
6.98008 9.95409 3.02166
10.0697 4.14195 4.34396
1.40648 3.0475 -19
0.981366 -7.0832 -9.99999
-2.40843 -5.59971 -11.9151
11.7423 -6.49206 -9.99931
2.09193 7.10156 -9.99997
6.851 -2.89573 5.25352
