-0.726421 -0.0786722 0.604517
-0.710414 -0.196678 -0.605348
-0.0617334 -0.661461 -0.22595
0.412683 -0.699122 -0.460017
-0.725162 -0.130527 -0.591831
0.0989224 0.370781 0.884379
-0.0603447 -0.519597 0.0193338
0.143931 0.416828 -0.189193
-0.6253 -0.0996103 -0.811008
-0.86097 0.030097 -0.14399
0.934445 -0.0393535 -0.545572
0.783548 -0.318595 -0.581163
-0.618599 -0.0315457 0.585432
-0.334029 0.082777 0.753819
0.654045 0.151373 -0.0872897
-0.599788 0.628065 0.825118
-0.33057 -0.231678 0.242367
0.0669808 0.435601 -0.681727
0.105303 -0.572586 -0.0635884
0.668744 0.219272 -0.274442
-0.201345 0.255779 -0.702541
0.5955 0.198833 -0.091735
0.242522 -0.437862 0.173373
0.676285 0.212123 -0.408271
-0.167471 0.0395028 -0.929402
0.240593 -0.557517 -0.00792735
-0.427832 -0.575457 -0.459884
0.0585443 -0.652151 -0.972415
0.464816 -0.271337 0.204879
-0.611582 0.56202 0.643722
0.77875 0.0999984 -0.713568
0.576608 -0.552299 -0.661928
0.0575633 0.154395 0.673961
-0.922545 -0.334034 -0.25995
0.530129 -0.454531 -0.922845
-0.824565 -0.234319 0.598255
-0.578635 0.761478 0.851217
-0.708851 0.567804 0.751347
0.810897 0.0716642 -0.653346
-0.82788 0.00665659 0.114791
-0.684832 0.0653984 0.357096
0.405421 0.382318 -0.306924
0.0623369 0.284408 -0.0450058
-0.06799 0.233328 0.025762
-0.269388 0.238882 -0.798273
-0.100356 -0.709619 -0.959257
-0.35291 -0.116455 0.496451
-0.239695 0.289946 -0.193869
0.397357 0.34445 -0.784269
-0.20539 -0.566522 -0.116158
0.958248 -0.0210066 -0.610053
-0.347199 -0.451002 0.0789264
0.720173 -0.440912 -0.454902
0.359074 -0.464186 0.130301
-0.4902 0.247784 -0.36544
-0.0436046 -0.698164 -0.959019
-0.451441 -0.225631 -0.774211
-0.887103 -0.109911 -0.396102
-0.794694 -0.550728 0.00223713
0.827603 -0.15461 -0.89807
-0.396039 0.0565468 0.613491
0.91386 0.0274435 -0.723175
-0.935198 -0.149271 -0.189965
0.0226495 0.264282 0.999371
-0.448668 -0.470456 0.0816773
-0.203886 0.163498 0.819335
0.742392 0.108004 -0.488161
-0.276173 -0.0995022 0.242468
0.0417749 0.238677 0.85465
0.742229 0.0576713 -0.638933
-0.716077 -0.549682 0.524142
-0.256267 0.177702 -0.577943
0.43509 -0.0435399 0.221569
-0.639405 -0.163772 -0.844974
-0.609048 -0.340891 -0.8995
-0.846043 -0.0327178 0.36879
-0.547065 0.246909 -0.315952
0.48468 -0.331257 0.176654
0.768684 0.0249283 -0.592246
0.363242 -0.0251579 0.24332
0.148197 -0.560478 -0.000168683
0.80612 -0.0769975 -0.267047
-0.601269 -0.580031 -0.110954
0.730951 -0.354892 -0.14073
-0.387453 0.0178456 0.748657
0.283164 0.143024 -0.947335
0.0842529 -0.742093 -0.271052
0.0204678 -0.665592 -0.72603
0.526307 0.0954899 -0.889019
-0.0706514 -0.585239 -0.695448
-0.413944 -0.0611787 0.438017
-0.729643 0.108931 -0.45002
-0.898515 -0.357118 0.0457432
0.56822 0.108966 -0.84488
0.0915096 0.202799 0.710479
-0.945467 -0.113418 0.212037
0.457244 -0.386521 0.153405
-0.956642 -0.288685 0.320623
0.359625 0.156881 0.140838
0.645098 -0.48164 -0.156968
0.310897 -0.723782 -0.52949
-0.507125 -0.473228 -0.573108
0.180606 -0.172823 0.265731
-0.544678 -0.36417 -0.979186
0.401365 0.247951 -0.958762
-0.109184 -0.598084 -0.486533
0.759555 0.0512592 -0.218097
-0.242198 -0.0464696 0.773481
-0.681905 0.161628 -0.43824
-0.785298 -0.108921 0.588342
0.0783957 -0.58281 -0.129244
-0.215998 0.172283 0.747488
-0.856765 0.00961669 -0.356385
-0.194081 -0.568038 -0.315152
-0.637458 -0.643434 0.327621
-0.0511519 -0.47843 0.07461
-0.0256781 0.136679 0.738271
-0.473741 0.175193 0.0797412
-0.622524 -0.396218 -0.866018
-0.0305114 -0.00714281 -0.932528
0.306125 -0.686214 -0.707172
-0.388134 0.191286 -0.861617
0.379888 0.0854352 0.181151
-0.286139 0.237649 -0.395909
-0.728721 -0.547261 -0.153486
0.126843 -0.404675 0.195161
-0.0918465 0.12686 0.131175
0.657591 -0.496564 -0.573372
-0.776095 -0.172056 0.60352
-0.590701 0.587713 0.764894
0.898916 -0.34771 -0.718356
-0.939845 -0.289616 0.0520359
0.419129 -0.622677 -0.738423
0.364007 -0.509658 -0.996093
0.395441 0.249344 -0.0642102
-0.0514525 0.21425 -0.932596
0.742198 -0.379608 -0.579324
0.732767 -0.41787 -0.264726
-0.598039 -0.386454 -0.598178
-0.811985 -0.470543 -0.361373
-0.52356 -0.574847 -0.0795174
-0.381289 -0.393274 0.231756
0.211114 0.398419 -0.737391
0.371241 0.299823 -0.917694
0.382074 0.238337 0.00938342
-0.464298 -0.578606 -0.119236
-0.824417 0.032677 -0.41579
0.515656 0.315131 -0.283226
0.777513 -0.207616 -0.917517
0.942208 -0.299109 -0.69499
-0.0760387 -0.716426 -0.327856
-0.650997 -0.411969 0.597785
-0.256063 0.0584282 0.200508
-0.575547 0.223513 0.632878
0.0173456 -0.736862 -0.268016
-0.191678 0.0542564 0.169934
0.734756 0.0691349 -0.151628
0.476189 -0.645049 -0.338937
-0.889124 -0.300278 0.00443033
0.125543 0.449774 -0.638923
0.904978 -0.211089 -0.507188
-0.611578 0.19703 -0.0677309
-0.250365 -0.603437 -0.971191
-0.928775 -0.226709 0.436999
-0.641925 0.0791049 0.226872
0.192728 0.447667 -0.598825
-0.614964 -0.527844 0.0176878
-0.129239 0.0378906 0.586218
-0.430934 -0.600853 -0.235398
-0.286236 -0.0770405 0.731725
-0.706408 0.0631624 -0.499307
-0.253991 -0.184887 -0.984009
0.0820237 0.212388 0.0599187
0.743366 0.137723 -0.336444
0.261565 -0.152307 -0.997163
-0.80858 0.0136861 0.33744
-0.644194 0.724875 0.74113
-0.105331 0.0822786 -0.929293
0.241313 -0.134777 0.269158
-0.528697 0.00527035 -0.700132
-0.645222 0.736743 0.869325
0.588492 0.220517 -0.714195
-0.373794 0.327719 -0.970908
0.33892 -0.659724 -0.779936
0.651311 -0.536898 -0.292353
-0.843529 -0.0835742 -0.456782
-0.108945 -0.471456 0.0467647
-0.871042 -0.352162 -0.0259562
0.664916 -0.489922 -0.639187
0.685839 -0.367799 -0.878339
-0.53892 -0.145974 0.610202
0.628645 -0.546485 -0.455946
-0.913625 -0.0829529 -0.209863
-0.447375 0.0964927 0.183226
-0.344835 -0.342148 0.177995
-0.0211746 0.497504 -0.469751
-0.560825 -0.503858 -0.806604
-0.760497 -0.540421 -0.222124
-0.494266 -0.205774 0.600138
0.752798 -0.0558629 -0.929606
-0.102481 -0.546317 -0.631136
0.327315 0.422249 -0.407252
-0.708166 -0.378389 -0.543697
-0.900081 -0.24187 0.0033727
-0.552049 -0.0153625 -0.642001
0.638443 -0.00524265 0.0631788
-0.246404 -0.61536 -0.900654
-0.691779 -0.117908 -0.848595
-0.957089 -0.471165 0.0988204
0.0901475 0.337393 -0.871232
0.272339 0.259904 -0.991775
0.598258 0.158436 -0.0342517
0.619308 -0.33703 0.0747812
-0.323181 0.0806321 0.206709
0.467253 -0.621293 -0.63643
0.749868 0.100953 -0.410162
-0.272808 -0.0220411 0.233128
-0.915718 -0.290605 -0.0666054
-0.129356 0.38917 -0.681327
-0.601223 0.681815 0.880017
-0.446575 -0.618101 -0.314459
0.799171 -0.0192081 -0.317971
0.571024 -0.574003 -0.482223
-0.504413 0.068506 -0.66842
0.116592 -0.6195 -0.834953
0.435253 0.370768 -0.447812
-0.805831 0.41104 0.760096
-0.77361 0.0527014 -0.467547
-0.00363482 0.453134 -0.670098
-0.897781 -0.277995 0.572208
-0.928641 -0.501889 0.301228
0.629772 -0.194529 0.0925958
-0.589621 0.431471 0.623403
0.801508 -0.389691 -0.790753
-0.209859 0.309423 -0.262243
-0.28526 -0.538532 -0.675838
-0.65401 0.652042 0.920325
-0.079291 -0.0569946 0.204927
0.736916 0.0153891 -0.10057
-0.170947 0.372028 -0.88422
0.70403 -0.261 -0.0151254
-0.735974 -0.729029 0.172417
-0.754003 0.0396657 0.376836
-0.542897 -0.419512 -0.807415
-0.472996 -0.0594588 -0.985706
0.565179 -0.555161 -0.54386
-0.0572085 0.153572 0.806889
0.0483086 0.239005 0.0187784
-0.39747 -0.183498 0.378608
0.723776 -0.0404401 -0.0486741
0.619352 -0.340377 -0.920695
-0.764606 0.204334 0.715209
-0.206143 0.373822 -0.500023
-0.696573 0.0762155 0.168691
0.508541 0.339359 -0.436827
0.881823 -0.191276 -0.858541
-0.723262 0.4389 0.599742
0.349059 -0.705942 -0.591275
0.0141491 -0.510317 0.0545291
-0.210841 -0.0653881 0.218796
0.0970478 0.115059 -0.926855
-0.364847 -0.58791 -0.228629
0.0540634 0.487279 -0.465507
-0.39253 -0.0757305 0.305197
0.671825 0.185237 -0.601742
0.0505362 -0.628522 -0.823978
-0.397814 -0.440463 -0.97798
-0.843784 0.0193612 -0.0552574
-0.75898 0.235076 0.542313
-0.453302 0.10685 -0.831043
0.117348 0.180742 0.111653
-0.607508 0.742229 0.914553
-0.217052 -0.52435 -0.633125
-0.822969 0.0630839 -0.104371
-0.529024 -0.434219 -0.97714
-0.328897 -0.107045 0.678194
-0.465433 -0.351299 0.565477
-0.893852 -0.432302 0.0518646
0.635292 0.205817 -0.665457
-0.0678721 0.2977 -0.102929
0.717727 0.161061 -0.273363
0.500611 -0.481038 0.00309251
-0.35031 0.245013 -0.358914
0.205068 -0.654655 -0.81142
-0.351199 0.13517 -0.795261
0.250575 -0.0661994 0.26395
-0.484433 -0.541404 0.199419
0.318888 -0.073546 0.261691
-0.693235 0.321686 0.796911
0.179645 -0.0364699 -0.939454
-0.90148 -0.185994 -0.378149
0.348755 -0.722243 -0.33841
-0.137437 -0.247052 0.193125
0.541389 0.228626 -0.820687
-0.705745 -0.149883 0.610476
-0.0176625 -0.0949403 0.225536
0.0265173 0.0980132 0.677597
0.313679 0.103823 0.186307
-0.300154 -0.0995225 0.553095
-0.00523336 0.282558 0.821112
-0.227699 -0.360903 -0.981096
-0.587303 0.661863 0.747617
0.348804 0.384606 -0.733878
-0.860046 -0.564764 0.0211
-0.143555 -0.01694 0.187666
0.693431 0.136006 -0.147494
0.248149 0.35876 -0.173263
-0.0488043 -0.371981 -0.935082
-0.144102 0.455506 -0.288412
0.208731 -0.70201 -0.191604
-0.299003 -0.0534432 0.507093
0.3231 0.392452 -0.660166
-0.661899 -0.585027 -0.330188
0.235353 0.432719 -0.542471
-0.113748 0.0522961 0.167813
-0.946686 -0.161162 0.0676612
0.564351 0.271536 -0.228611
-0.227537 -0.413452 0.122058
0.41426 -0.67956 -0.322533
-0.974954 -0.230971 0.270927
-0.685626 -0.528381 -0.429445
-0.688895 0.0223516 -0.548357
0.47609 -0.581096 -0.773709
-0.746674 0.193544 0.582596
-0.0621091 -0.603776 -0.619041
-0.8051 0.00451069 0.420785
0.36309 0.401208 -0.459857
-0.315332 0.183104 -0.537966
-0.846329 -0.48806 0.0181486
0.272563 -0.525375 -0.995638
0.370029 -0.294211 0.242708
-0.444928 0.163102 -0.518528
-0.942806 -0.282731 0.391474
-0.300174 -0.57152 -0.21347
-0.144863 -0.510618 -0.586625
-0.0696784 -0.665438 -0.489496
-0.433213 -0.0477127 0.380741
-0.0504239 0.48588 -0.534596
-0.0713303 0.00619041 0.642148
-0.918408 -0.269129 -0.297055
0.0284463 -0.690449 -0.65311
-0.545317 -0.588503 -0.1475
0.382387 -0.697752 -0.393063
-0.888682 -0.124005 0.0138088
-0.0141205 0.192925 0.851815
-0.0142166 -0.22172 -0.9377
-0.814344 -0.670278 0.364359
-0.200658 -0.283698 0.197685
-0.244527 0.204595 -0.937392
-0.486883 0.211484 -0.435749
-0.470467 -0.405105 -0.62613
0.138472 0.422884 -0.706487
0.214596 -0.49643 0.117632
-0.0916565 -0.424356 0.111892
-0.323478 0.367657 -0.9377
-0.883724 -0.0675679 -0.346092
0.0956936 0.132518 0.154977
0.144677 0.301451 -0.129785
0.0014301 0.253697 -0.00882916
-0.662034 0.174154 -0.117286
-0.525594 -0.412492 0.583102
0.401068 -0.628575 -0.184132
0.278685 -0.233037 -0.997264
-0.241864 0.380435 -0.895864
0.234199 -0.59736 -0.863623
-0.406437 -0.108522 0.372205
0.163188 -0.749656 -0.395244
-0.961784 -0.370564 0.293133
0.0133428 0.201593 -0.929712
-0.862842 -0.664159 0.315101
-0.670496 -0.650253 0.398449
0.207419 0.413175 -0.19987
0.00713094 -0.698526 -0.210751
-0.74111 0.397335 0.534029
0.428766 0.166155 0.0976257
0.27442 -0.687635 -0.768445
-0.290861 -0.567144 -0.473137
-0.897199 -0.185804 0.00839748
-0.23091 0.00564382 -0.932791
0.00214335 0.39201 -0.799696
0.217939 -0.426915 -0.932438
0.0620807 -0.656408 -0.165272
-0.506887 0.108174 -0.87541
-0.390871 0.260876 -0.181165
-0.843666 -0.159737 0.580835
-0.639287 0.0680848 0.41817
0.918411 -0.235813 -0.815843
-0.040111 0.0683935 -0.92967
-0.743591 -0.227565 0.613277
0.567198 0.30228 -0.44066
0.809879 -0.24035 -0.455375
-0.611991 0.0112696 -0.982888
0.551013 0.0952683 0.0776038
-0.867363 -0.0705825 0.0345442
0.645797 0.0963265 -0.853566
-0.890046 -0.355697 0.561783
0.725369 -0.313407 -0.0734635
-0.439109 -0.193429 -0.9728
-0.684267 0.0450095 -0.972843
-0.065135 -0.704473 -0.879951
0.265709 -0.200682 0.270278
-0.227484 0.11646 0.13311
-0.68156 -0.0277301 0.623507
-0.355963 -0.568151 -0.494914
0.401981 0.291259 -0.115877
-0.615197 -0.534408 -0.471175
-0.0986945 0.490601 -0.478293
0.125349 -0.314339 -0.9377
-0.897516 -0.0213351 -0.17394
0.550096 0.148857 0.019376
-0.60477 -0.11432 -0.645206
-0.693484 -0.537698 -0.0855549
0.807445 -0.339192 -0.844215
0.649932 0.107503 -0.767612
-0.264067 -0.251111 0.223272
-0.627509 0.555426 0.82671
-0.251094 0.147991 -0.64095
-0.446054 0.112512 -0.678884
0.789538 -0.30688 -0.461063
-0.937599 -0.376373 0.497498
0.0458098 0.318033 0.974945
-0.668275 0.00767243 -0.861006
0.987304 -0.218244 -0.600978
0.310096 -0.334637 0.240608
-0.452002 -0.231183 -0.712129
0.505818 -0.517443 -0.803436
-0.476341 -0.412703 0.545868
0.268667 0.424162 -0.600361
0.216423 -0.729695 -0.646717
0.10033 -0.183931 0.255033
-0.881951 -0.395821 -0.278232
0.467847 0.332865 -0.766784
-0.5732 0.0976074 -0.909266
0.57458 -0.50607 -0.749447
-0.41709 -0.00476954 0.487284
-0.0817929 0.459493 -0.588462
0.275921 0.198107 -0.986858
-0.177656 0.218918 -0.927629
0.0265051 0.0563396 -0.928741
0.523684 0.291356 -0.718661
-0.95896 -0.227575 0.0619317
0.136167 0.378899 -0.831243
0.428605 -0.564273 -0.900856
-0.570497 0.100953 -0.973374
-0.48125 -0.470255 0.32584
0.960427 -0.28579 -0.626946
-0.767648 0.3718 0.800648
0.693085 -0.377289 -0.0855362
-0.607154 0.00468163 -0.826866
-0.0749472 0.49625 -0.407066
-0.472046 -0.255963 -0.82846
-0.511328 -0.0852203 0.641336
-0.209302 0.416771 -0.428585
-0.172284 -0.337205 -0.941572
-0.320622 0.196875 -0.979933
0.482495 -0.00161684 0.18349
0.82394 -0.130033 -0.498782
-0.162421 0.389676 -0.24224
-0.450123 -0.427427 -0.695018
-0.305388 0.210954 -0.464978
-0.65581 -0.461257 -0.958659
0.756681 0.102256 -0.274822
-0.492437 -0.342438 -0.80918
-0.174526 -0.490538 0.0152308
-0.699447 0.244714 0.766287
-0.73352 0.348475 0.593495
0.151197 -0.736402 -0.541911
-0.748204 0.039734 0.458541
-0.0789118 0.348433 -0.967443
-0.882357 -0.14443 0.527646
0.458164 0.360166 -0.384093
0.0494249 -0.289623 -0.937703
-0.644426 -0.601504 -0.265118
-0.801599 -0.689427 0.160867
-0.193931 -0.407193 -0.940251
-0.425543 0.191692 -0.461516
-0.806722 0.474842 0.794248
0.670122 -0.150599 0.0443202
0.839929 0.0899197 -0.719895
-0.791678 -0.729794 0.229183
0.163714 -0.46162 -0.935252
-0.521952 0.174385 -0.495337
-0.912301 -0.156282 -0.0513145
-0.147091 0.196383 0.0507236
-0.711426 0.272865 0.497624
-0.157889 -0.386124 0.126935
-0.840614 -0.0918279 0.546693
-0.9092 -0.1343 -0.327415
0.146324 0.404334 -0.771978
-0.678023 0.103014 0.0436643
-0.727959 0.628081 0.86198
0.133722 0.457603 -0.247033
-0.0113247 -0.0818458 -0.934527
-0.108263 0.104653 0.842427
0.333859 0.356476 -0.813921
0.453747 0.0613194 0.165755
-0.577116 -0.628043 0.127268
-0.65833 0.120453 -0.493374
-0.666173 -0.573001 -0.144178
-0.385331 0.263374 -0.880659
-0.31647 -0.406675 0.126045
0.0582818 -0.567481 -0.983038
0.303276 0.413287 -0.547342
-0.826272 0.0697449 -0.343196
0.412114 -0.23855 0.238876
0.412679 -0.641838 -0.670563
0.207341 -0.084203 -0.987227
-0.586844 0.365851 0.587379
-0.721519 -0.0367154 -0.889191
-0.123411 0.362089 -0.746001
-0.211504 0.220091 0.0107764
0.666519 -0.298728 0.0359263
0.153519 0.0397736 -0.929391
0.346051 -0.566768 -0.984559
-0.661508 -0.494663 0.561858
-0.599394 0.71748 0.707712
-0.525319 -0.129977 -0.733483
0.649915 0.250482 -0.352662
-0.594956 0.0397786 0.567523
-0.216683 -0.596952 -0.243097
-0.604454 0.454958 0.759906
0.284132 -0.742836 -0.348571
-0.543686 0.163389 0.0678521
0.432095 -0.162479 0.23338
-0.858148 -0.155722 -0.440988
0.861009 -0.336176 -0.793884
0.202144 -0.736721 -0.583573
0.0417714 0.173127 0.110565
0.808613 -0.208346 -0.384155
-0.784596 0.110525 -0.126427
-0.675533 -0.496496 -0.48517
0.801289 -0.276332 -0.388941
0.428709 -0.445964 0.117103
-0.775097 0.0242165 0.0694658
-0.215864 -0.597876 -0.835101
-0.11112 0.222481 -0.933067
-0.501904 0.130107 0.130919
-0.170302 0.440711 -0.4865
0.398308 -0.410212 0.174338
-0.925111 -0.0831886 -0.283311
0.468665 0.367267 -0.565808
-0.574969 0.376602 0.659436
-0.584483 -0.54441 0.394527
-0.649118 0.0842324 0.105373
-0.816003 -0.137705 -0.498973
0.443994 0.338263 -0.260368
-0.126981 -0.135959 -0.936796
-0.901331 -0.263242 -0.369453
0.409953 -0.605488 -0.117199
-0.78525 -0.504668 -0.156162
0.482444 -0.522464 -0.940518
0.0390229 -0.0186835 -0.932593
0.157481 -0.700156 -0.7037
-0.912663 -0.402344 0.369795
0.438453 -0.269621 -0.9948
-0.933617 -0.151928 -0.11419
-0.827918 -0.205711 -0.49493
-0.369249 -0.37737 -0.984719
-0.140736 -0.530777 -0.95766
0.174154 -0.607479 -0.851004
0.536739 0.168978 -0.84776
-0.78005 0.0887496 -0.398222
-0.88806 -0.333156 -0.326224
0.53172 0.200292 -0.0433666
-0.649227 0.55517 0.573514
-0.537225 -0.575044 0.171851
-0.70017 0.589448 0.592158
-0.106616 -0.656888 -0.2857
-0.85648 -0.410389 -0.0740356
0.420098 0.119772 0.14398
-0.543351 -0.268277 0.607366
-0.505139 -0.181156 -0.791905
-0.739792 0.266145 0.611859
-0.74915 0.0560943 0.304852
-0.384635 0.171219 -0.56556
0.528921 -0.367923 0.137024
-0.473292 -0.278761 0.582317
0.125448 -0.752599 -0.470509
0.0585773 -0.750211 -0.337829
-0.672088 -0.522806 -0.00884173
-0.599403 -0.580336 -0.8983
-0.237881 0.343659 -0.440651
-0.498424 0.0965785 -0.601314
-0.108936 -0.600773 -0.220039
0.134771 0.480136 -0.38129
0.410943 -0.54751 -0.0590871
0.915438 -0.297255 -0.772927
-0.175876 -0.0180473 0.58152
-0.457893 -0.355025 0.490989
0.173853 0.143957 0.146294
-0.768332 0.0536625 0.142898
0.635585 -0.45896 -0.749017
0.808966 -0.0860707 -0.340489
0.607416 0.113252 -0.8001
0.618541 -0.505978 -0.691495
-0.206932 -0.663938 -0.890809
-0.807511 -0.364769 0.590464
-0.196651 0.29225 -0.63595
0.410763 -0.329628 -0.994613
-0.569671 -0.0820042 0.593593
-0.322166 0.152155 -0.605517
0.652408 -0.438725 -0.0961273
0.715501 -0.184569 -0.948472
0.22332 0.170847 -0.935757
-0.433392 0.208673 0.0248104
0.309078 0.247351 0.0359779
0.62557 0.256489 -0.429477
-0.446893 -0.483629 0.243075
0.0686476 -0.0881339 -0.93511
0.364667 0.0366824 -0.996809
-0.20802 -0.350669 0.166504
-0.629801 0.368414 0.52891
0.132805 -0.492776 0.118621
-0.0834512 -0.0719867 -0.933899
0.345651 0.283329 -0.976565
-0.804481 -0.623993 0.0260634
-0.959932 -0.163377 0.282494
-0.825 0.0902081 -0.184521
0.757116 -0.376891 -0.456447
-0.753168 0.312135 0.53945
-0.951832 -0.582508 0.216397
-0.860092 -0.515928 0.488026
0.492721 0.35317 -0.503561
0.673246 -0.222174 0.0377615
-0.0262119 0.234032 0.749631
-0.68851 -0.687516 0.333373
0.418552 0.311476 -0.195336
-0.350285 -0.566327 -0.852596
0.505891 -0.0696319 0.187475
-0.113402 -0.526115 -0.696785
0.0145374 0.191339 0.788297
0.0821858 0.299895 0.891122
0.629452 0.160981 -0.727556
-0.0275365 -0.168192 0.227566
-0.618199 -0.520365 -0.863978
0.341 0.406957 -0.333528
0.906679 -0.342653 -0.642482
0.549126 0.0495026 -0.944611
0.0948686 -0.718376 -0.659277
0.730392 -0.262078 -0.926338
0.149025 -0.625366 -0.90935
0.656809 -0.0760479 0.0567428
-0.443137 -0.456005 -0.609195
0.637527 -0.372636 0.0261014
-0.500059 -0.547827 -0.804105
-0.899951 -0.020717 -0.244627
-0.4779 -0.000432378 0.367867
0.752163 -0.287683 -0.133026
-0.620096 0.196975 -0.151375
-0.576549 0.0398464 0.497217
-0.776847 0.147493 0.606256
-0.173972 -0.591922 -0.981689
-0.442775 -0.303629 0.436433
-0.38094 0.225315 -0.0180088
-0.474284 -0.0349654 0.667689
0.759853 -0.0537827 -0.113324
-0.126863 0.057725 0.9005
0.410448 0.021876 0.208315
0.426684 0.386909 -0.512947
0.533627 0.235889 -0.104405
-0.307349 0.116527 0.694577
-0.50266 0.0685909 -0.805107
0.703431 -0.10412 -0.957528
-0.577074 -0.17191 -0.827106
0.609007 0.110294 0.0181857
-0.753531 -0.508442 -0.0887282
-0.500079 0.12747 -0.546113
0.683236 -0.0268319 0.00901975
0.803497 -0.229088 -0.319402
-0.495175 -0.243808 -0.983586
-0.0662104 0.249614 0.821194
-0.0645979 0.38591 -0.777093
-0.605996 0.165864 0.659528
0.497594 0.152404 0.0697506
-0.248984 -0.501702 -0.00623871
-0.294956 0.0268156 -0.953642
-0.249134 -0.586399 -0.349196
-0.368835 -0.214133 0.306296
-0.771069 0.143039 -0.190229
0.274772 -0.422861 -0.937104
-0.944959 -0.283101 -0.217854
-0.730989 -0.647158 0.428438
-0.883538 -0.0220529 -0.0972427
-0.190853 -0.532401 -0.0501566
-0.214772 0.197771 -0.762753
-0.748316 0.0696484 0.0244876
0.770283 -0.341351 -0.518648
-0.646004 0.300666 0.499925
-0.628071 0.0653012 -0.882012
-0.535616 -0.512005 0.495656
-0.139125 0.233377 0.00658213
0.544943 -0.025366 0.147704
0.820312 -0.0685336 -0.510937
0.147782 -0.734572 -0.236384
-0.836255 -0.577406 0.45224
0.177785 0.275513 -0.989289
0.0811738 0.190927 -0.930566
0.207682 -0.705993 -0.756962
-0.615938 -0.147271 0.604951
-0.914941 -0.505612 0.0444237
0.315671 0.360135 -0.196594
0.891236 -0.0814532 -0.513104
-0.576937 -0.620795 -0.2665
-0.13764 0.208059 0.82144
0.0263724 0.103323 0.148925
-0.340212 0.0221038 0.790712
0.388207 -0.0976354 0.24765
-0.467749 -0.356956 -0.72662
-0.449137 -0.510854 0.0137006
0.58412 -0.241711 0.133894
0.699643 -0.102127 -0.0017924
0.238179 -0.746339 -0.404341
-0.122189 0.348488 -0.818689
-0.751663 0.523491 0.881144
0.275733 -0.556774 -0.0806194
0.45027 -0.679682 -0.401185
0.272566 0.379213 -0.783636
-0.274576 -0.375028 0.164279
-0.559137 -0.35308 -0.845776
-0.836526 -0.406224 -0.396259
-0.894914 -0.0194591 -0.309143
-0.246001 -0.528445 -0.808429
0.26568 -0.659575 -0.166008
-0.34613 0.255852 -0.13003
0.76752 7.08153e-05 -0.165858
-0.793515 -0.540775 0.512149
0.239576 -0.330068 0.244751
-0.342761 0.2119 -0.81722
-0.218992 0.177363 0.0793443
-0.636525 0.737173 0.802565
0.555882 -0.483404 -0.0295575
-0.272504 0.203964 0.0493278
-0.457875 -0.469742 -0.9767
-0.0474318 0.277582 -0.0347013
0.558871 0.257226 -0.759214
-0.228402 0.376071 -0.369026
0.692259 -0.459167 -0.207692
0.114996 -0.63361 -0.97498
0.52649 -0.580414 -0.589579
-0.673324 0.201234 -0.297687
-0.421711 -0.323559 0.363304
0.17576 -0.31522 0.248573
-0.86325 -0.678827 0.19541
-0.417526 -0.533624 -0.511196
-0.257302 0.214366 -0.51293
0.33554 -0.626936 -0.163578
0.259336 0.446505 -0.421845
-0.600396 -0.60503 -0.337644
-0.408093 -0.601833 -0.17135
-0.732467 -0.25259 -0.584279
-0.161982 0.0279976 0.870913
0.53682 -0.441341 0.045543
-0.765409 -0.596036 0.478121
0.0669695 0.38468 -0.824476
0.0376765 0.338101 -0.92065
0.097915 -0.758515 -0.395179
0.446186 0.208852 -0.923208
-0.775523 0.444272 0.828016
0.253562 0.261344 -0.0154993
0.781099 -0.251666 -0.192823
0.0506244 -0.497909 -0.93315
-0.53381 -0.144132 -0.674317
-0.613927 -0.0439284 -0.629101
-0.287868 0.160081 0.103849
-0.140253 -0.46147 -0.930017
-0.0757253 0.269816 -0.988274
-0.440495 -0.0963481 0.685502
-0.0252843 -0.400533 0.153509
-0.644495 -0.462787 -0.895158
0.0118691 0.425019 -0.735452
0.803868 -0.0381541 -0.393355
-0.199423 0.0904143 0.58548
0.60674 0.0586075 0.0602736
-0.414299 0.0015743 -0.984352
-0.439047 -0.490687 0.159024
0.00157606 -0.545536 -0.00705529
-0.296921 0.0666569 0.818339
-0.416231 0.254613 -0.329252
-0.60902 -0.697595 0.133119
0.873649 -0.11014 -0.863691
-0.612666 0.0807005 0.159873
-0.660337 -0.157606 -0.631723
0.433466 0.0621262 -0.984236
0.251301 0.0862446 -0.934157
0.370265 -0.67093 -0.723168
0.579396 -0.558359 -0.200987
-0.741794 0.169755 -0.321127
-0.738775 -0.600392 0.00729823
-0.0458423 -0.711009 -0.270782
-0.956037 -0.549176 0.0924118
0.277018 -0.707046 -0.221791
-0.577939 0.161837 0.591642
0.798322 -0.130668 -0.223655
-0.767929 -0.18796 -0.54824
-0.928898 -0.070035 0.15243
-0.614074 -0.566961 -0.961801
0.959173 -0.247992 -0.745581
-0.625402 -0.569798 -0.403646
-0.533973 0.046175 0.339302
0.597238 -0.483857 -0.0957093
-0.637313 0.205102 0.719206
-0.630698 0.1785 0.470398
-0.513168 -0.501047 -0.9767
-0.279752 0.149655 -0.928852
-0.0174614 0.179959 0.676724
-0.675199 -0.698027 0.0634857
-0.669457 -0.339593 0.613873
-0.303498 0.0944453 -0.936756
0.797269 -0.0132688 -0.546391
-0.536957 -0.627529 -0.903126
-0.134614 0.111855 0.612733
0.656052 0.0456805 0.0116176
0.139525 -0.746545 -0.31373
-0.372527 0.0687329 0.689641
-0.303959 0.23042 -0.00340259
0.00157781 0.494978 -0.402639
-0.951522 -0.291914 0.463313
0.706405 0.0700569 -0.878243
-0.465175 0.0257008 0.304745
-0.0987061 -0.31603 -0.937638
-0.429708 0.147888 0.136209
-0.405175 0.252627 -0.0879799
0.483907 0.0839278 -0.937739
0.481377 0.348198 -0.699067
-0.864496 -0.64057 0.0564482
-0.262272 -0.585478 -0.276568
-0.5077 -0.603159 -0.845973
-0.64363 0.399335 0.79489
-0.0436311 0.084334 0.163186
0.172268 0.329047 -0.869051
0.86906 0.0558352 -0.770438
-0.604647 0.0986057 0.618033
0.950456 -0.254465 -0.554156
0.333976 -0.190821 -0.991361
0.696412 0.0848043 -0.0931446
0.620303 -0.380777 -0.8631
-0.599195 -0.578247 0.31317
-0.404834 -0.0704668 -0.987942
-0.546095 -0.292214 -0.981816
-0.621534 -0.484138 -0.525839
0.313514 -0.141495 0.268615
-0.679719 0.152847 -0.0635141
-0.597644 0.113148 0.464591
-0.671128 -0.0125687 -0.594089
0.195002 0.429166 -0.666577
-0.215092 0.185379 -0.695104
0.307422 -0.472559 -0.988234
-0.825837 -0.477617 0.538186
-0.651672 -0.398602 -0.948422
-0.130803 -0.0315181 0.639634
0.686632 -0.392016 -0.753449
-0.646826 0.204643 -0.227581
-0.205474 0.264256 -0.980918
-0.00614523 -0.618779 -0.793599
-0.69885 0.349178 0.507075
0.458985 -0.616755 -0.219104
0.257279 0.343485 -0.844012
0.0306966 0.495848 -0.317615
0.195176 -0.146109 -0.983749
-0.209507 0.152251 -0.923713
-0.384723 -0.490533 0.0360659
-0.996534 -0.314433 0.18011
-0.386593 -0.609861 -0.285415
0.434951 -0.504693 0.0033244
0.111997 0.352606 0.828987
0.806068 -0.151916 -0.300725
-0.485366 -0.180085 -0.707525
-0.575772 -0.454632 -0.568411
-0.605915 -0.629245 0.263141
-0.223181 0.256852 -0.569401
0.525687 -0.603541 -0.220315
0.712785 0.10391 -0.814256
-0.0030199 -0.0261572 0.215035
-0.0108538 0.286184 0.947267
-0.272589 0.0779192 0.570408
0.523043 0.273238 -0.163565
-0.1554 0.169834 0.877009
-0.525619 -0.337157 0.596731
-0.249961 -0.0222466 0.688448
-0.840286 -0.0577267 0.429206
-0.927031 -0.338297 -0.167817
0.603584 -0.558772 -0.333154
0.812912 -0.168324 -0.442254
0.366387 -0.439754 -0.99403
-0.525049 0.248675 -0.1686
-0.694764 -0.605408 0.475599
0.654452 -0.156014 -0.977017
0.679679 0.148392 -0.668475
-0.12174 -0.523629 -0.0198754
0.27375 -0.387242 0.211329
-0.685468 0.533634 0.865196
-0.925269 -0.0921182 0.276607
-0.402032 0.178722 0.0796672
-0.00889892 -0.511667 -0.930798
-0.196912 0.375515 -0.966954
0.112309 0.333758 -0.926471
0.278598 0.431331 -0.288658
-0.589626 -0.516579 0.536804
-0.555317 -0.567134 0.248596
0.281266 -0.00409837 0.249128
-0.656936 -0.689379 0.264727
0.207509 0.442128 -0.263086
-0.582978 0.750437 0.774283
-0.206794 0.0216588 0.737842
0.381962 0.356171 -0.230635
-0.720284 0.189003 0.484771
-0.287184 -0.55836 -0.127657
-0.578604 0.18224 0.00134411
0.0453777 0.307733 -0.981261
-0.266248 -0.529729 -0.068151
0.081322 -0.649435 -0.895031
0.96216 -0.0243878 -0.68431
-0.641205 0.0277975 0.623774
-0.594807 -0.185797 -0.658257
0.237871 0.240175 0.0635071
0.527781 0.324819 -0.365908
-0.867358 -0.677693 0.125161
0.511078 -0.389635 -0.961744
0.674835 -0.499842 -0.449348
0.665847 0.0443669 -0.924401
-0.15 -0.492427 -0.659272
-0.859414 -0.109828 0.470265
0.0404895 0.275038 0.762593
0.493818 0.189499 0.0119328
0.878859 0.0691395 -0.670491
-0.461622 -0.557929 -0.978004
-0.58141 0.69386 0.812911
0.353607 -0.576492 -0.921621
0.366035 0.413101 -0.529237
0.836047 -0.349382 -0.614205
-0.142168 -0.315392 0.160329
0.231514 0.113006 0.177382
0.688711 -0.474817 -0.514427
-0.578761 0.235531 0.569733
0.712899 0.123983 -0.612078
-0.628516 0.3373 0.762839
-0.613974 0.136703 0.0558756
-0.790443 -0.516807 -0.287573
-0.0626789 -0.641586 -0.984343
0.782753 0.023437 -0.380509
0.444617 0.29073 -0.827571
-0.694138 0.68714 0.891135
-0.530086 -0.411664 -0.605217
-0.673639 0.128951 0.451498
-0.13107 -0.702342 -0.886862
0.512676 0.318426 -0.583955
-0.139124 0.262404 -0.981503
0.0248962 0.479831 -0.538888
-0.709179 0.0774009 0.24665
-0.914048 -0.0442823 0.230723
-0.672692 -0.638905 0.029961
-0.781574 0.000651612 0.500264
0.410071 0.385963 -0.590717
-0.316009 0.12879 -0.676889
0.116921 -0.115772 0.254963
-0.582328 0.0471489 0.431043
-0.400982 -0.176848 0.514926
-0.158006 0.0609312 0.798315
0.791436 -0.276938 -0.260069
-0.446473 -0.404649 0.352972
0.222522 -0.581423 -0.123404
-0.0168724 0.330262 -0.9708
0.278886 -0.726381 -0.285502
0.545783 -0.00857428 -0.980167
-0.717018 0.465672 0.849228
0.748454 -0.17133 -0.084863
-0.0765327 -0.214683 0.209998
-0.838938 -0.459417 -0.292537
-0.656073 -0.234665 -0.633402
-0.825477 -0.274066 -0.479568
-0.675015 -0.72895 0.118652
-0.210968 -0.539042 -0.565407
-0.938553 -0.277227 -0.136195
-0.49065 -0.530278 0.120527
0.694066 -0.419865 -0.148657
0.0699446 -0.720715 -0.525548
-0.586186 0.172144 0.519967
-0.634915 0.0750848 -0.542783
0.811072 -0.093359 -0.434429
-0.608552 -0.0749679 -0.982139
0.677574 -0.307198 -0.929521
0.687293 -0.336449 -0.0193517
0.606394 0.264356 -0.499568
-0.663079 -0.205665 0.614783
-0.486949 0.00308059 -0.984393
-0.468776 -0.0193248 0.449106
-0.495012 0.0609405 -0.735359
-0.572554 0.29956 0.626715
-0.433662 -0.241905 0.478669
-0.291104 0.120633 0.166212
-0.0349147 0.352894 -0.907434
0.677599 -0.44743 -0.696627
-0.59806 -0.417842 -0.976114
-0.157265 0.19685 0.750411
-0.637508 0.272915 0.748794
-0.119136 -0.391111 -0.934712
-0.854591 -0.413378 0.558647
-0.425038 0.227174 -0.395719
0.414592 -0.67184 -0.597145
-0.177803 0.264477 -0.0423514
-0.918545 -0.0848397 -0.1399
0.740319 0.0951064 -0.559145
-0.674051 -0.0857027 -0.611986
-0.0675643 0.0744666 0.610311
-0.250331 0.110851 0.834444
-0.161083 -0.656384 -0.838952
-0.708708 -0.443266 0.585045
0.0683203 0.00669062 0.224193
0.787886 -0.070593 -0.185267
-0.0619153 0.0130915 0.19159
-0.571757 0.0746109 0.223618
0.485576 0.106951 0.116588
0.338263 0.0393568 0.223002
-0.885611 -0.404332 -0.146841
-0.731659 0.113553 0.476342
0.454027 0.222262 -0.0361148
-0.929562 -0.436966 0.320522
0.570047 0.274725 -0.57409
-0.292381 -0.579118 -0.405925
0.914738 -0.309169 -0.578569
-0.465356 -0.394598 -0.978
-0.562252 -0.526464 0.325876
0.644529 0.22627 -0.54864
-0.715329 0.515229 0.707517
0.995314 -0.160748 -0.6517
-0.728854 0.468199 0.540833
0.0872838 -0.528538 0.0520067
0.765513 -0.320363 -0.19907
0.801852 0.08738 -0.792579
-0.179521 -0.554832 -0.380275
-0.935987 -0.347076 0.425654
-0.939529 -0.148356 -0.258189
-0.632351 -0.599906 0.446684
-0.781428 0.142084 -0.255648
-0.27827 0.272215 -0.334731
-0.713259 -0.725259 0.236841
-0.184683 0.00358097 0.674142
-0.21013 0.0325681 0.553085
-0.508887 0.107977 -0.982428
-0.454309 -0.502211 -0.55262
-0.897592 -0.0688767 0.334716
-0.675996 0.677837 0.827644
-0.731104 -0.372964 0.604387
-0.393664 -0.127234 -0.965248
-0.31445 -0.154839 -0.964859
0.283294 -0.594976 -0.137167
-0.990924 -0.247767 0.194886
-0.69273 0.176725 -0.183082
0.173464 0.358585 -0.158401
0.116523 -0.50917 -0.95747
-0.850749 -0.697756 0.255899
0.63093 -0.267238 0.0882752
0.574746 0.264207 -0.657352
-0.176212 0.455078 -0.369251
-0.0312008 -0.689817 -0.543019
-0.555371 -0.586619 -0.388138
-0.210867 -0.503648 -0.766098
0.174344 -0.453214 0.166026
-0.587596 -0.253247 -0.651739
-0.661658 0.0754512 0.298786
-0.696347 -0.440275 -0.518076
-0.395621 -0.507839 -0.591342
0.315365 0.326101 -0.881036
0.693631 -0.484532 -0.26935
0.014415 0.342886 -0.859443
-0.348136 -0.051607 0.252275
-0.421044 -0.0309448 0.72069
-0.460314 -0.295061 -0.765457
0.178833 -0.25702 -0.941937
0.608055 -0.280503 -0.961292
0.406929 -0.204411 -0.984404
-0.761934 0.139759 0.541361
0.312453 -0.721182 -0.408504
-0.236204 -0.0408387 0.548499
-0.3609 -0.0533353 0.469848
0.372077 -0.511904 -0.00408408
0.234071 -0.736352 -0.527595
0.0770296 0.429175 -0.196417
-0.645973 -0.557085 0.514474
0.479581 0.151824 -0.890386
-0.0475107 0.411929 -0.194795
0.330866 0.271156 -0.0999543
0.43841 0.279846 -0.891665
-0.970267 -0.51739 0.158945
0.591086 -0.576051 -0.405286
-0.0839277 0.0994745 0.936376
0.312065 -0.0103564 -0.996626
-0.248231 0.246175 -0.0451551
0.272848 0.0390629 -0.984415
0.208965 -0.541435 0.0478529
0.216434 0.0273541 -0.937389
0.0819791 0.226999 0.778643
0.768788 0.0644762 -0.85338
0.980397 -0.235026 -0.675133
-0.480573 -0.350534 -0.652625
-0.167992 0.317285 -0.211257
0.551946 0.315483 -0.512899
0.150991 -0.524965 0.0668919
0.552953 -0.328207 -0.957233
0.501236 -0.425858 0.108674
0.262477 0.280471 -0.0833628
-0.521085 0.0517772 0.26967
-0.420558 -0.613891 -0.957443
-0.277405 0.0189956 0.523123
0.358641 -0.266892 -0.992913
-0.524654 -0.223869 -0.677035
0.176264 0.325907 -0.949288
-0.351827 -0.526326 -0.716675
-0.305088 -0.36963 -0.983744
0.722156 -0.440707 -0.32808
-0.279662 -0.555728 -0.609151
-0.530244 -0.292786 -0.660863
-0.200893 -0.475435 -0.961285
-0.434426 -0.584609 -0.845141
-0.0999771 0.169563 0.935504
0.154775 0.226075 0.0518289
-0.167138 -0.0288983 -0.931305
-0.411483 0.261276 -0.256668
0.639154 -0.0770242 -0.977347
-0.0874416 -0.666247 -0.815931
0.337598 -0.224633 0.262711
0.59222 -0.52518 -0.147387
0.698036 -0.470046 -0.39276
-0.668223 -0.578333 0.0153493
0.734149 0.0104424 -0.911185
0.358269 -0.370194 0.214283
-0.405382 0.229061 -0.98174
-0.864573 -0.612289 0.38859
0.0900562 0.0422924 -0.929991
0.0962357 -0.446618 -0.9313
-0.741667 -0.668229 0.0424067
-0.402998 -0.126459 0.442853
0.720863 0.162548 -0.392465
-0.981289 -0.202881 0.131323
0.0796897 0.353999 0.941677
0.918156 -0.069131 -0.817217
-0.746598 -0.00263734 -0.509817
-0.215286 -0.506687 -0.698329
0.367925 0.205099 0.0786745
-0.131988 -0.614198 -0.790996
-0.6694 -0.0529267 -0.832365
-0.636883 -0.176919 -0.977968
-0.439256 -0.225316 0.548491
-0.732581 -0.113825 -0.896789
-0.404781 -0.527072 -0.978
-0.503554 -0.498046 0.0539538
-0.136787 0.365854 -0.961273
0.562712 -0.479225 -0.8085
0.432245 -0.485076 -0.991485
-0.32569 0.280747 -0.830727
-0.573892 -0.0514174 -0.796662
0.44207 0.135573 -0.956973
-0.744864 -0.716174 0.10288
-0.956061 -0.509899 0.23063
-0.332761 -0.110076 0.609117
0.841218 -0.375595 -0.667523
0.475057 -0.568011 -0.0964715
-0.80269 -0.712753 0.305981
0.705289 0.164827 -0.537783
-0.491905 -0.440741 0.404833
-0.91456 -0.58071 0.0525287
0.113972 0.303706 -0.980577
0.095746 0.486093 -0.323147
-0.553413 -0.556377 0.101294
-0.0820878 0.181465 0.0779052
-0.539384 -0.558629 -0.976709
0.706807 -0.447809 -0.579594
0.433401 -0.0804689 -0.98258
-0.574454 -0.6233 0.199227
-0.278188 -0.523166 -0.740833
0.434773 0.201709 0.0368075
-0.720028 -0.56358 -0.287228
-0.143882 -0.172478 0.203932
-0.507362 0.20258 0.0151771
0.48829 -0.0510021 -0.9974
-0.767239 0.080315 0.623015
0.467906 0.347747 -0.324364
0.212314 -0.211786 -0.987616
0.204627 0.217983 -0.98558
-0.135105 -0.197629 -0.940766
-0.686047 0.188647 -0.368606
-0.73818 -0.723232 0.295829
-0.661493 0.695658 0.68451
0.393941 0.37566 -0.660777
-0.824928 -0.0468556 0.493846
0.379349 -0.384573 -0.992232
0.324343 -0.395405 -0.949323
0.219165 0.45161 -0.341434
-0.285815 0.172802 -0.789519
0.301645 0.204786 0.0983114
-0.238365 0.0406236 0.8538
-0.922766 -0.627485 0.100853
-0.0956971 0.222777 0.765662
0.150927 0.180783 -0.930154
-0.111288 0.485084 -0.347304
-0.981812 -0.37773 0.222116
0.0521224 0.326226 0.824714
0.191604 0.259855 0.00497628
-0.599 -0.326933 0.611653
-0.228719 -0.460208 0.0497951
-0.238933 0.325554 -0.986989
-0.844203 -0.400205 0.0102108
-0.0870647 -0.360756 0.154002
0.295725 0.309666 -0.955274
-0.812209 -0.48686 -0.222333
0.586139 0.276786 -0.37332
0.531272 -0.494688 -0.875674
0.0394106 0.259234 0.931829
-0.0711295 -0.631174 -0.549147
-0.98205 -0.372808 0.14966
-0.0269825 -0.294701 -0.9377
-0.869844 -0.0186366 0.295569
-0.652528 0.473508 0.819373
-0.0168954 -0.668014 -0.833153
-0.364654 -0.334397 0.251011
0.682083 0.0973707 -0.724279
0.685404 -0.0259499 -0.952837
0.0322283 0.221648 0.707938
0.798192 -0.00477649 -0.88694
-0.577013 -0.207154 0.610309
-0.152976 -0.268404 -0.944323
-0.747544 -0.688443 0.368766
-0.431465 0.135624 -0.90417
0.0679586 -0.557195 -0.00816049
-0.0828157 -0.501501 -0.929682
0.862863 -0.0204235 -0.542906
-0.856978 -0.0369997 -0.407928
0.991629 -0.147913 -0.580929
-0.754906 0.396532 0.704793
-0.395053 0.127888 -0.833614
-0.172802 0.102913 -0.927376
-0.317925 -0.533745 -0.796486
0.481703 -0.224412 -0.987399
0.614944 0.00709735 -0.959906
0.23341 0.309294 -0.975034
0.733902 -0.411661 -0.518462
0.0139246 -0.721015 -0.511086
0.268831 -0.521991 0.0695238
0.681912 -0.499528 -0.336232
-0.388008 -0.14007 0.646206
-0.943558 -0.407697 0.0986102
0.29456 0.438841 -0.480482
-0.321246 -0.572862 -0.293087
0.472321 -0.601492 -0.156041
-0.281652 -0.0096625 0.811995
0.194325 -0.576436 -0.0564936
-0.823944 0.0840596 -0.259678
-0.904776 -0.383031 -0.212262
-0.695839 -0.577948 -0.214911
-0.508534 0.133391 -0.938386
-0.696323 -0.185404 -0.958421
-0.10926 -0.593435 -0.981186
0.463477 -0.14964 -0.980491
0.755823 -0.355075 -0.643286
-0.576205 0.114267 0.111172
-0.915037 -0.550964 0.353705
-0.562428 0.0819937 -0.564286
-0.150434 -0.590397 -0.268854
0.65657 0.100687 -0.0354467
-0.449395 0.262018 -0.145603
-0.459583 -0.551543 -0.0474762
0.291699 -0.584775 -0.975604
-0.584797 -0.142869 -0.981978
0.00521244 -0.669667 -0.97427
0.231316 -0.48109 -0.968732
-0.889451 -0.0961775 0.400039
-0.605748 0.517878 0.777974
-0.206489 0.333926 -0.569073
-0.238987 0.312684 -0.325332
0.0574835 -0.0651662 0.238779
0.354428 0.30772 -0.169295
-0.604334 -0.284937 -0.965503
-0.347048 0.00856416 0.499342
0.01197 0.0423036 0.191649
0.837712 0.032735 -0.834451
-0.347063 -0.546695 -0.561866
-0.00830303 -0.754291 -0.336482
-0.550301 -0.346522 -0.628767
0.386406 0.321717 -0.852471
0.803605 -0.265241 -0.532417
0.137316 0.0325223 0.229018
-0.746097 0.570677 0.82589
-0.273867 0.129617 0.766627
0.0798812 0.417627 -0.757933
-0.345603 -0.111001 0.262521
-0.622014 -0.264474 0.614723
0.538017 -0.516385 -0.0897518
-0.28577 -0.0612136 0.651078
-0.103075 0.110165 0.764862
0.531669 -0.553496 -0.728743
0.341707 0.399364 -0.25844
-0.591776 0.30408 0.548448
0.649002 -0.532158 -0.384185
-0.0485006 0.319285 -0.162034
-0.464548 -0.129152 -0.981594
-0.961176 -0.589108 0.149192
-0.327921 0.0177122 0.23333
0.695169 0.0291248 -0.0431047
-0.16596 -0.440774 0.0799627
-0.00802006 0.202622 0.921764
0.362446 -0.0524461 -0.986533
-0.736475 -0.465775 -0.46707
-0.482368 -0.320388 -0.983584
0.65693 0.201848 -0.483637
0.294116 -0.721797 -0.649235
-0.208607 -0.137721 0.223851
-0.354873 -0.589045 -0.958716
0.921792 -0.147756 -0.824799
-0.309157 -0.235792 -0.965416
0.20219 -0.0129336 0.250137
-0.659662 0.716415 0.94326
0.274658 -0.645576 -0.828732
0.191322 0.46255 -0.40647
-0.176523 0.361642 -0.632105
-0.352663 -0.297794 -0.971906
-0.529419 0.255704 -0.245012
-0.801367 -0.669215 0.0889511
-0.495704 -0.619972 -0.962022
0.326055 -0.118692 -0.990736
-0.603751 0.0628258 0.359226
-0.900754 -0.637646 0.251082
-0.231075 -0.560684 -0.425528
-0.759223 -0.522602 -0.343673
-0.25922 -0.0944564 0.612836
-0.156258 0.101483 0.141594
-0.898008 -0.0903963 -0.0641684
-0.220346 0.219661 -0.634402
-0.776888 -0.485205 -0.0220153
-0.781391 -0.430527 0.578073
0.237361 0.178211 0.12023
-0.567265 -0.512849 0.0469364
0.721555 0.113529 -0.210239
0.673946 0.170003 -0.213584
-0.606579 -0.453353 -0.831244
-0.811398 -0.0128083 -0.466462
0.395304 -0.48183 0.0620212
0.0654544 -0.661689 -0.77735
-0.0851876 -0.131635 0.212219
-0.0580062 -0.15543 -0.936452
-0.791285 0.121775 -0.323545
-0.698006 0.572685 0.664981
0.944837 -0.0420123 -0.752373
-0.479169 -0.596358 -0.181169
0.568936 -0.387741 0.0806574
-0.0544184 0.225679 0.952054
0.324154 0.258604 -0.0336764
-0.127837 0.156645 -0.925249
-0.889472 -0.159362 0.446912
-0.144511 -0.611441 -0.339163
-0.338579 0.268539 -0.984392
-0.427007 0.0225937 0.67592
-0.916907 -0.204937 -0.310393
-0.0566299 -0.559786 -0.962117
-0.325233 0.245529 -0.0671318
-0.986124 -0.306855 0.253986
0.46308 0.352575 -0.636196
0.176855 0.108237 -0.926935
-0.745098 0.119897 -0.073063
-0.0595059 0.146778 0.886594
-0.514953 -0.472601 0.545718
0.0758382 0.312101 -0.133467
0.836291 -0.228367 -0.884396
-0.598045 0.219748 -0.275341
-0.583962 0.136219 -0.524386
-0.203328 -0.0119566 0.821932
0.397231 -0.604022 -0.794792
0.133562 -0.690264 -0.17704
0.093476 0.3696 -0.159156
-0.890298 -0.0120988 0.166453
-0.269734 -0.316369 0.197853
-0.272386 0.257148 -0.983122
0.742875 -0.332721 -0.889159
-0.358057 0.320406 -0.898162
-0.158414 -0.0869528 -0.934092
-0.422266 -0.267166 -0.974921
-0.336255 -0.0993293 -0.987229
-0.241058 0.0772196 -0.926041
-0.541588 0.0110591 -0.78266
0.659675 -0.389848 -0.80809
-0.46899 -0.143391 0.637026
0.901596 -0.000824033 -0.797535
-0.565867 -0.611493 -0.955613
0.436546 -0.549004 -0.827964
0.469206 0.252692 -0.0917886
-0.861469 0.0345213 -0.288908
-0.649781 0.600365 0.877581
0.204865 0.0530604 0.220457
-0.387552 0.0600239 0.223002
-0.448951 -0.372006 0.414207
0.0877139 -0.686281 -0.716739
0.95411 -0.186362 -0.780812
-0.076683 0.474476 -0.279916
-0.871537 0.0399567 -0.217819
0.569394 0.289178 -0.307222
-0.89329 -0.439898 0.509249
-0.598361 0.611735 0.69198
-0.711602 0.51044 0.628521
-0.61838 -0.589629 -0.191412
0.338806 -0.619516 -0.834811
-0.255777 0.308642 -0.810494
-0.618875 -0.661135 0.073375
0.701379 0.156501 -0.456231
0.62492 -0.519857 -0.519179
-0.387375 -0.594627 -0.895237
0.287102 0.297795 -0.1492
-0.487213 -0.611797 -0.367344
-0.419614 -0.431839 0.285427
-0.657061 -0.726647 0.186222
-0.762899 -0.301588 0.609602
-0.758846 0.0738626 0.534503
-0.642505 0.622095 0.60999
-0.739544 -0.0692753 -0.961918
0.864592 -0.279333 -0.842412
-0.0193661 0.0476685 0.655828
-0.025122 -0.718044 -0.455318
-0.376372 -0.389263 0.147869
-0.103422 0.436099 -0.228925
-0.376504 -0.59677 -0.349885
-0.144771 0.115513 0.914148
-0.750373 0.460658 0.742741
0.617565 0.245401 -0.609716
-0.395783 -0.537714 -0.0259718
0.590045 -0.570785 -0.264268
0.604619 -0.533989 -0.601893
-0.61649 -0.224739 -0.886026
0.469984 -0.624774 -0.279919
-0.574988 -0.549561 -0.0401003
0.462472 0.294926 -0.146457
-0.272528 0.267861 -0.120445
-0.00695029 0.208437 0.994951
-0.247662 -0.249726 -0.984973
-0.859451 -0.436764 -0.2192
-0.0131215 0.474324 -0.601489
0.76199 -0.217558 -0.132082
0.640693 -0.520862 -0.220217
0.351 -0.703568 -0.275426
-0.185468 0.288397 -0.151766
0.575596 -0.439884 -0.86829
-0.124878 0.456829 -0.538021
0.79037 -0.307349 -0.325354
0.109304 -0.242053 -0.938993
-0.5765 -0.281684 -0.905821
0.128327 0.227765 -0.982946
-0.243112 0.124489 -0.703261
-0.189367 0.422303 -0.317149
0.416499 -0.552135 -0.971279
-0.767249 0.0601373 0.219168
-0.347651 -0.579195 -0.153577
0.0138019 -0.587023 -0.146593
0.476069 -0.202116 0.211135
0.340175 -0.67103 -0.211396
0.975669 -0.0832759 -0.572221
0.0675612 0.487638 -0.393586
0.332533 -0.50534 0.0663877
0.664353 -0.235643 -0.959024
-0.200984 0.267179 -0.775195
-0.730353 -0.0545615 -0.562671
-0.344238 -0.0197114 -0.986387
-0.78725 -0.432149 -0.431553
-0.710787 0.111699 -0.0145804
-0.0537402 -0.585205 -0.109601
-0.71694 0.0626922 0.0922439
-0.976913 -0.176054 0.204242
-0.284594 -0.548292 -0.860789
-0.785295 0.216062 0.641712
-0.351387 0.157947 0.127807
-0.625523 0.199996 -0.413541
-0.603734 -0.592005 0.0568633
-0.64819 -0.238309 -0.956858
0.154676 -0.185974 -0.942828
0.797619 -0.0175976 -0.464327
-0.859156 -0.227146 -0.427296
-0.0609245 0.415122 -0.716233
-0.400596 -0.00796023 0.257107
0.765936 -0.348509 -0.264237
-0.491371 0.245077 -0.100004
-0.669545 0.670395 0.758715
-0.549246 -0.0762829 -0.667177
-0.153909 0.169461 0.679342
0.0307103 -0.702505 -0.589487
-0.0910087 -0.679466 -0.432203
-0.912762 -0.174407 0.386785
0.0917536 0.466947 -0.522125
-0.486591 -0.479183 -0.787617
-0.194951 -0.143395 -0.968678
0.74502 -0.411743 -0.392023
-0.360525 0.223712 -0.424424
0.29569 -0.584407 -0.88005
-0.70105 0.0619948 0.423652
0.578731 0.0197107 0.10456
0.403475 0.18389 -0.984241
-0.741439 -0.138695 -0.950343
-0.398328 -0.434558 0.107634
-0.654226 0.0801454 0.664637
-0.86704 0.00589061 0.234187
-0.264704 -0.116117 -0.988574
0.979679 -0.174464 -0.717839
0.332304 0.154014 -0.991217
-0.252175 -0.424897 -0.981324
0.0602986 0.238155 -0.983543
-0.00767354 0.114071 0.63712
-0.770426 0.029412 0.569744
-0.200331 0.0996281 0.88035
-0.106997 0.273731 -0.0375159
-0.40418 0.279032 -0.962037
0.949987 -0.117255 -0.524124
-0.454928 0.0620496 -0.985069
-0.267608 -0.49303 -0.983137
-0.74982 -0.49579 -0.405409
-0.718349 0.67031 0.941536
0.602233 0.0714794 -0.905136
-0.693898 -0.276625 0.616104
-0.929769 -0.419012 0.437979
-0.47577 -0.411938 -0.772164
0.27465 -0.728627 -0.588014
-0.367713 -0.287641 0.294689
0.771484 -0.123437 -0.135027
-0.104698 0.370916 -0.194418
0.116402 -0.352917 0.226376
0.843715 -0.377781 -0.739461
0.113117 -0.0300595 -0.9326
-0.450394 0.0335821 0.239219
-0.861332 -0.340681 -0.384572
0.269622 0.0594494 0.218027
-0.593378 0.39152 0.729098
0.137948 -0.673552 -0.78044
-0.573925 -0.219937 -0.982015
-0.280992 -0.559884 -0.540594
0.584578 0.181569 -0.784848
-0.439907 0.136069 -0.597312
-0.376793 0.117744 0.177987
-0.619564 -0.342855 -0.970234
-0.55522 -0.565038 -0.458709
-0.809402 -0.440916 -0.0127651
-0.19992 -0.0653048 0.63375
0.650999 -0.398746 -0.0343453
0.0155467 -0.354857 -0.935913
-0.41913 0.207407 -0.922754
0.186804 -0.530913 -0.988533
0.357715 -0.679733 -0.654219
-0.785702 -0.0640747 -0.504258
-0.904482 -0.483585 0.450445
0.268819 -0.349729 -0.937701
0.482876 -0.533691 -0.870423
-0.323627 -0.527296 -0.0126397
0.477572 -0.631997 -0.57288
-0.94417 -0.249854 0.521751
-0.563597 -0.0209741 0.540159
-0.347557 0.275182 -0.229701
-0.767381 0.632202 0.915902
0.891749 -0.150355 -0.501485
0.0576273 -0.490542 0.107543
0.0189717 -0.563815 -0.0736926
-0.76074 0.311497 0.777197
-0.785142 -0.326924 -0.504041
-0.297684 -0.563003 -0.917121
-0.591153 -0.548048 0.46895
0.588777 -0.13593 -0.994389
0.116888 0.452743 -0.575527
-0.557757 0.228554 -0.381662
0.877836 -0.261762 -0.526615
0.235865 -0.704637 -0.697445
-0.489401 -0.614733 -0.254383
-0.304499 0.276203 -0.186326
-0.483526 -0.00639441 0.527898
-0.253048 0.296611 -0.39232
-0.54307 0.0422639 -0.984436
-0.115003 -0.671309 -0.366013
-0.733748 -0.317131 -0.549627
-0.684052 -0.294065 -0.604407
-0.839638 -0.456599 -0.151218
-0.00151634 -0.591744 -0.984529
-0.0270538 0.145636 0.114042
0.17791 -0.61338 -0.976916
-0.171026 0.316531 -0.789649
-0.0134529 -0.260935 0.219794
-0.588014 0.320476 0.70009
0.52131 0.0465292 0.134909
-0.864115 -0.041088 -0.0239463
0.125198 -0.633126 -0.142219
-0.514564 -0.175088 -0.985691
-0.534963 -0.00441602 0.471525
-0.74444 -0.00608089 0.614583
-0.519816 -0.531127 -0.00939601
0.509952 -0.646625 -0.398124
-0.162369 -0.545828 -0.448533
-0.920113 -0.0987803 0.0844724
0.10857 -0.293601 0.244365
-0.748312 0.517156 0.781958
0.238409 0.31729 -0.899715
-0.210265 -0.656606 -0.964977
0.810019 -0.141658 -0.3737
-0.964286 -0.442039 0.175682
-0.196968 0.139046 0.637536
-0.895606 -0.61028 0.324922
-0.614237 -0.310245 -0.626038
-0.0842033 0.191955 0.705504
0.21106 -0.746934 -0.334925
-0.707369 0.39712 0.823619
0.596451 -0.426045 0.0199991
-0.358571 0.0538571 -0.979855
0.720979 -0.382272 -0.697875
-0.378551 -0.522574 -0.783661
-0.457781 0.14496 -0.975076
