-0.729336 0.103527 -0.455172
-0.909677 -0.364075 0.0568216
0.572663 0.110253 -0.839059
0.093304 0.210679 0.711624
-0.938817 -0.103096 0.217302
0.453724 -0.388152 0.153977
-0.958492 -0.282435 0.317909
0.362869 0.156623 0.140306
0.642918 -0.482994 -0.154857
0.311362 -0.722757 -0.532475
-0.504602 -0.488297 -0.561167
0.181785 -0.169154 0.26603
-0.538173 -0.369998 -0.979186
0.40306 0.24033 -0.963936
-0.108917 -0.602779 -0.480294
0.761631 0.0497886 -0.222353
-0.240589 -0.0443621 0.78274
-0.689422 0.157127 -0.438027
-0.780489 -0.114392 0.59137
0.0801181 -0.583987 -0.130643
-0.214809 0.171963 0.735782
-0.848097 0.0226146 -0.364324
-0.194676 -0.56862 -0.313425
-0.643301 -0.65159 0.327038
-0.044416 -0.47803 0.0790078
-0.0185458 0.138618 0.736039
-0.474104 0.174173 0.0815087
-0.627853 -0.400648 -0.871361
-0.0299672 -0.0133413 -0.93262
0.303939 -0.687221 -0.704299
-0.38866 0.19418 -0.864015
0.381735 0.0849954 0.180745
-0.282358 0.237777 -0.399213
-0.725803 -0.549983 -0.153878
0.122814 -0.410278 0.190452
-0.0941201 0.127225 0.130482
0.647505 -0.503424 -0.575068
-0.780219 -0.184943 0.604018
-0.589527 0.587861 0.757029
0.895038 -0.351627 -0.716301
-0.959715 -0.291924 0.0679541
0.419511 -0.622707 -0.738057
0.366004 -0.512439 -0.996093
0.400834 0.247842 -0.064805
-0.054115 0.212063 -0.930787
0.742121 -0.3792 -0.580732
0.729495 -0.422821 -0.25972
-0.598803 -0.388133 -0.597294
-0.812739 -0.47126 -0.359256
-0.522672 -0.574023 -0.077188
-0.3828 -0.396449 0.232724
0.207898 0.397328 -0.742179
0.381491 0.293013 -0.923029
0.383041 0.237871 0.0101644
-0.465089 -0.579393 -0.123381
-0.820599 0.0297572 -0.4296
0.522313 0.313993 -0.288189
0.78047 -0.19892 -0.917331
0.937561 -0.308282 -0.692191
-0.0800154 -0.712969 -0.327758
-0.651069 -0.429396 0.591594
-0.257004 0.0602783 0.199732
-0.581041 0.220752 0.650066
0.0173303 -0.734416 -0.259865
-0.193559 0.0497813 0.173057
0.73684 0.0664887 -0.153817
0.460065 -0.645574 -0.324676
-0.894139 -0.306533 0.0219383
0.123335 0.450575 -0.637873
0.904429 -0.214887 -0.508095
-0.610633 0.198916 -0.0718385
-0.249998 -0.603645 -0.97132
-0.923529 -0.220875 0.442589
-0.645588 0.0791023 0.221088
0.193844 0.446874 -0.603781
-0.613734 -0.52802 0.0202892
-0.124477 0.0425493 0.587802
-0.428646 -0.601393 -0.237751
-0.280644 -0.0744134 0.729981
-0.707538 0.0572556 -0.502389
-0.255375 -0.184931 -0.982576
0.0907795 0.214936 0.0571884
0.739911 0.144461 -0.332082
0.269115 -0.165368 -0.997449
-0.806526 0.0148997 0.338282
-0.644272 0.724923 0.744035
-0.0985385 0.0862512 -0.928872
0.242946 -0.128263 0.269076
-0.525187 0.0167959 -0.710005
-0.641034 0.741016 0.868789
0.591359 0.216252 -0.718268
-0.375527 0.324996 -0.971791
0.34535 -0.659851 -0.775276
0.647566 -0.537556 -0.282222
-0.845592 -0.0844042 -0.45475
-0.102534 -0.469618 0.0486622
-0.864842 -0.360523 -0.00435782
0.667172 -0.489454 -0.633549
0.683689 -0.363886 -0.883237
-0.542106 -0.148172 0.609006
0.634927 -0.539897 -0.46279
-0.910589 -0.0788819 -0.2087
-0.442423 0.095531 0.18648
-0.345524 -0.343892 0.176657
-0.0255014 0.49654 -0.483361
-0.554779 -0.504372 -0.804094
-0.760909 -0.540054 -0.222461
-0.495053 -0.206416 0.600117
0.754727 -0.0498801 -0.927356
-0.101685 -0.547464 -0.629423
0.334426 0.41932 -0.411526
-0.716383 -0.383343 -0.536488
-0.900619 -0.247736 0.00893212
-0.545765 -0.0107965 -0.645218
0.639258 -0.00306079 0.0617317
-0.250939 -0.61109 -0.900721
-0.686496 -0.124066 -0.846121
-0.955345 -0.47138 0.0952366
0.0889819 0.337431 -0.871124
0.275787 0.265097 -0.991247
0.600636 0.156852 -0.0353517
0.62167 -0.328424 0.0774316
-0.322319 0.0783056 0.208096
0.468681 -0.620539 -0.636596
0.745964 0.106838 -0.412335
-0.287919 -0.0326168 0.238454
-0.899126 -0.297445 -0.0419418
-0.133555 0.387741 -0.678852
-0.616625 0.670405 0.895864
-0.449717 -0.617858 -0.314357
0.800734 -0.02518 -0.314635
0.570387 -0.574365 -0.482856
-0.504901 0.0671775 -0.671069
0.104471 -0.621234 -0.831826
0.44527 0.365532 -0.449496
-0.805803 0.411454 0.760063
-0.770739 0.0503559 -0.47142
-0.00649392 0.453656 -0.668556
-0.910788 -0.278353 0.565687
-0.927852 -0.504525 0.302384
0.628417 -0.189093 0.0943656
-0.590847 0.435372 0.622718
0.799596 -0.387014 -0.798708
-0.207874 0.31132 -0.263683
-0.279132 -0.540282 -0.667202
-0.673112 0.65487 0.934394
-0.086752 -0.0527233 0.202655
0.738501 0.014026 -0.102514
-0.170336 0.370465 -0.871493
0.704669 -0.258605 -0.0157202
-0.746762 -0.724805 0.192974
-0.752186 0.0402286 0.375697
-0.53999 -0.42603 -0.804621
-0.473354 -0.0522814 -0.985708
0.566409 -0.554208 -0.544996
-0.0538931 0.155111 0.803651
0.0441614 0.233674 0.0246374
-0.398204 -0.189673 0.378303
0.724561 -0.0402544 -0.0499838
0.617706 -0.33958 -0.921897
-0.766275 0.198453 0.710143
-0.20685 0.373991 -0.497949
-0.700432 0.0755595 0.164587
0.517385 0.335529 -0.441132
0.885229 -0.190747 -0.855783
-0.7222 0.442396 0.601765
0.348774 -0.70604 -0.58945
0.0171868 -0.508189 0.0583425
-0.21872 -0.0686754 0.222744
0.111114 0.109295 -0.927474
-0.359476 -0.585349 -0.240015
0.0581512 0.487041 -0.464941
-0.39646 -0.0837241 0.317842
0.670245 0.1867 -0.601664
0.0461317 -0.628029 -0.821127
-0.389188 -0.455457 -0.977985
-0.841152 0.029487 -0.070713
-0.759891 0.229228 0.543396
-0.452466 0.106461 -0.829802
0.118518 0.180848 0.111624
-0.594805 0.745837 0.901139
-0.212269 -0.523967 -0.622422
-0.814176 0.0741274 -0.110045
-0.514696 -0.438116 -0.976697
-0.330247 -0.105522 0.684659
-0.463511 -0.354591 0.561779
-0.890157 -0.431269 0.0503109
0.634772 0.206636 -0.665386
-0.0756201 0.297594 -0.101916
0.71633 0.162461 -0.27324
0.504441 -0.479996 0.00295885
-0.336742 0.245322 -0.359639
0.215322 -0.660209 -0.808082
-0.348929 0.135676 -0.795647
0.246009 -0.0584508 0.26268
-0.485152 -0.543732 0.192753
0.314379 -0.0781535 0.262947
-0.694028 0.329472 0.799855
0.177527 -0.0380551 -0.938539
-0.901708 -0.181609 -0.377109
0.347553 -0.72257 -0.344005
-0.139395 -0.245155 0.194066
0.540087 0.225496 -0.824623
-0.710438 -0.152864 0.610651
-0.0212313 -0.0914657 0.224623
0.0313169 0.101365 0.676005
0.313839 0.104069 0.186027
-0.304002 -0.11245 0.577548
-0.00727554 0.281793 0.822162
-0.225697 -0.360798 -0.980469
-0.586441 0.669665 0.751148
0.349162 0.385994 -0.731266
-0.857161 -0.568974 0.0209345
-0.15897 -0.0217226 0.18884
0.693539 0.135778 -0.1473
0.254454 0.355528 -0.173173
-0.0481662 -0.369969 -0.935073
-0.136608 0.459692 -0.289148
0.217926 -0.704416 -0.19479
-0.291907 -0.0599398 0.513011
0.317897 0.394194 -0.65581
-0.661775 -0.58582 -0.328309
0.233818 0.431431 -0.546782
-0.116315 0.048331 0.169089
-0.948518 -0.158294 0.0706267
0.564588 0.270583 -0.226094
-0.216649 -0.416242 0.115989
0.41398 -0.677594 -0.355906
-0.974106 -0.223543 0.272051
-0.688925 -0.528053 -0.427314
-0.685814 0.024692 -0.549244
0.476901 -0.582217 -0.772195
-0.747164 0.179757 0.579712
-0.0635627 -0.600661 -0.619088
-0.804027 0.00595099 0.419452
0.373419 0.398079 -0.461068
-0.31373 0.18206 -0.539972
-0.842142 -0.494435 0.0159272
0.283 -0.534481 -0.994953
0.372754 -0.295626 0.241739
-0.436817 0.162542 -0.527264
-0.941773 -0.277083 0.39044
-0.301671 -0.570309 -0.201281
-0.145207 -0.511439 -0.582994
-0.063302 -0.672535 -0.494045
-0.428718 -0.0537211 0.379097
-0.0646534 0.482841 -0.544662
-0.0667807 0.0093125 0.644262
-0.912726 -0.264805 -0.305215
0.0245762 -0.687084 -0.657911
-0.54443 -0.588543 -0.147732
0.376229 -0.702313 -0.403108
-0.890878 -0.131719 0.0137522
-0.0129919 0.193671 0.850352
-0.0199411 -0.218008 -0.9377
-0.821275 -0.666596 0.363007
-0.200997 -0.28459 0.197358
-0.235655 0.202561 -0.929904
-0.490401 0.214206 -0.43096
-0.472595 -0.399029 -0.629229
0.137167 0.422713 -0.708173
0.224153 -0.498062 0.115951
-0.0858279 -0.423049 0.114944
-0.327365 0.36649 -0.9377
-0.882023 -0.0634448 -0.347061
0.0930466 0.135681 0.151379
0.142604 0.302252 -0.130886
0.00695485 0.254664 -0.0132688
-0.670926 0.171203 -0.122835
-0.529062 -0.410325 0.584281
0.402385 -0.628546 -0.18533
0.26883 -0.243136 -0.994736
-0.237812 0.380727 -0.895451
0.214977 -0.59888 -0.86186
-0.406657 -0.118383 0.385578
0.157186 -0.751766 -0.401527
-0.957959 -0.373577 0.299168
0.0139761 0.201171 -0.929481
-0.866428 -0.661044 0.313898
-0.669939 -0.649507 0.399433
0.215476 0.410215 -0.198308
0.0114332 -0.696095 -0.205829
-0.741428 0.398711 0.535238
0.433794 0.17079 0.0895143
0.281342 -0.68615 -0.7701
-0.296687 -0.571122 -0.462435
-0.896923 -0.190745 0.00781534
-0.22244 -8.99163e-05 -0.931903
0.00269881 0.389537 -0.804115
0.217584 -0.444312 -0.933753
0.0691966 -0.657412 -0.164073
-0.502336 0.113345 -0.881047
-0.384618 0.261873 -0.189541
-0.844408 -0.161862 0.581058
-0.638887 0.0673648 0.417159
0.918418 -0.237774 -0.81487
-0.035055 0.0640722 -0.929325
-0.740817 -0.237144 0.614139
0.572184 0.3 -0.44854
0.810347 -0.239291 -0.450723
-0.619725 0.00626628 -0.983087
0.552478 0.0962073 0.0751382
-0.868208 -0.0767949 0.0218863
0.645506 0.0946588 -0.858641
-0.899957 -0.3562 0.554847
0.727016 -0.312241 -0.0762562
-0.443434 -0.193172 -0.973739
-0.686895 0.0444064 -0.971908
-0.0712471 -0.705957 -0.880482
0.258054 -0.201731 0.270155
-0.227008 0.117458 0.13201
-0.681127 -0.0257586 0.624144
-0.356295 -0.568016 -0.495157
0.394592 0.292369 -0.117605
-0.615553 -0.535855 -0.469088
-0.101248 0.487967 -0.488403
0.136617 -0.317366 -0.937396
-0.897606 -0.0209227 -0.175052
0.551779 0.14908 0.0173733
-0.608374 -0.113666 -0.64392
-0.698923 -0.533751 -0.0810029
0.806414 -0.334999 -0.848801
0.653904 0.107857 -0.758877
-0.262827 -0.2556 0.221878
-0.625456 0.552884 0.822492
-0.248132 0.147793 -0.644006
-0.44296 0.113106 -0.682179
0.789671 -0.306567 -0.461685
-0.94068 -0.373616 0.491525
0.0504761 0.326929 0.971623
-0.664807 0.00527967 -0.856612
0.985136 -0.226842 -0.601307
0.310603 -0.330593 0.242023
-0.454069 -0.225754 -0.709804
0.48699 -0.523626 -0.811457
-0.476972 -0.411414 0.550227
0.268244 0.424244 -0.600361
0.208988 -0.733259 -0.633763
0.103989 -0.178329 0.255557
-0.883666 -0.391522 -0.280338
0.46834 0.332732 -0.766556
-0.570591 0.0978907 -0.907327
0.584434 -0.502907 -0.743154
-0.410793 -0.00253333 0.489545
-0.0838869 0.457313 -0.593211
0.272964 0.20352 -0.989399
-0.173667 0.219874 -0.92782
0.0258124 0.0490112 -0.929896
0.530233 0.283486 -0.719672
-0.958082 -0.226295 0.0610926
0.143326 0.374829 -0.83336
0.426337 -0.565019 -0.900146
-0.576326 0.100645 -0.970109
-0.488649 -0.473925 0.329424
0.954839 -0.294179 -0.627754
-0.76552 0.368326 0.800936
0.694204 -0.375185 -0.0846548
-0.609463 -0.00362436 -0.824106
-0.0784155 0.496486 -0.421045
-0.465975 -0.2542 -0.821866
-0.514648 -0.0822265 0.638158
-0.211869 0.413943 -0.424854
-0.173864 -0.339084 -0.941661
-0.310572 0.198629 -0.978026
0.480478 -0.00345013 0.185627
0.824517 -0.128653 -0.499381
-0.154872 0.403731 -0.242974
-0.448373 -0.431558 -0.696928
-0.303715 0.211203 -0.465302
-0.655324 -0.465781 -0.959066
0.756807 0.103322 -0.277001
-0.492118 -0.341634 -0.809294
-0.17365 -0.488699 0.0177941
-0.700215 0.252586 0.769856
-0.734365 0.340713 0.592542
0.133261 -0.753594 -0.505338
-0.747277 0.040621 0.456923
-0.0778636 0.350009 -0.965766
-0.879196 -0.142566 0.534848
0.465987 0.356099 -0.390111
0.0555121 -0.293892 -0.937702
-0.63924 -0.604114 -0.264147
-0.805165 -0.687097 0.162211
-0.194673 -0.40892 -0.940551
-0.428034 0.190179 -0.462995
-0.807929 0.46931 0.792011
0.668475 -0.146415 0.0464909
0.838378 0.0910495 -0.716207
-0.795659 -0.729333 0.234269
0.162902 -0.462521 -0.935545
-0.500043 0.173329 -0.496786
-0.913837 -0.15554 -0.0543437
-0.142123 0.198474 0.0460982
-0.707091 0.267962 0.493507
-0.152506 -0.385706 0.12694
-0.837088 -0.0902639 0.549778
-0.908314 -0.12745 -0.328526
0.141286 0.403897 -0.775905
-0.681602 0.104351 0.0366294
-0.725566 0.635903 0.867586
0.134378 0.46116 -0.259643
-0.0149411 -0.0881433 -0.934866
-0.110487 0.10599 0.833609
0.341828 0.35124 -0.816711
0.453271 0.0618205 0.165683
-0.578923 -0.632918 0.125156
-0.657595 0.113586 -0.500718
-0.662985 -0.570635 -0.134105
-0.385104 0.26587 -0.882139
-0.326416 -0.403138 0.127909
0.0664715 -0.568324 -0.985661
0.304351 0.412422 -0.549147
-0.821725 0.0750661 -0.346161
0.403819 -0.23589 0.242497
0.410938 -0.642678 -0.669831
0.203506 -0.0790928 -0.984186
-0.587622 0.368221 0.5869
-0.726458 -0.0343 -0.900734
-0.122059 0.363671 -0.744248
-0.208121 0.223377 0.0015609
0.66697 -0.29489 0.0368882
0.154123 0.0384196 -0.929513
0.346267 -0.569152 -0.981621
-0.66934 -0.498674 0.55946
-0.599795 0.72566 0.714925
-0.526055 -0.128915 -0.733912
0.643714 0.253631 -0.35221
-0.592867 0.0364448 0.563058
-0.210298 -0.596825 -0.246707
-0.610959 0.457034 0.77085
0.272127 -0.745946 -0.34494
-0.545698 0.162751 0.0675899
0.41975 -0.164133 0.238768
-0.858905 -0.152958 -0.440247
0.860836 -0.334309 -0.796288
0.181133 -0.735418 -0.555351
0.0398255 0.17717 0.106509
0.80908 -0.20144 -0.379217
-0.78402 0.118559 -0.143743
-0.673055 -0.499645 -0.483517
0.801584 -0.275031 -0.387655
0.428623 -0.448869 0.113186
-0.777256 0.0218132 0.0644511
-0.217342 -0.59706 -0.835032
-0.111971 0.224812 -0.934197
-0.501632 0.127589 0.134
-0.172981 0.437762 -0.487452
0.398574 -0.412681 0.171868
-0.919538 -0.0693261 -0.284681
0.472569 0.363598 -0.572395
-0.575181 0.38202 0.662518
-0.58422 -0.544941 0.407668
-0.654982 0.0834562 0.101375
-0.817616 -0.14193 -0.497939
0.448834 0.33799 -0.263591
-0.134872 -0.140041 -0.937958
-0.901135 -0.256424 -0.374705
0.408059 -0.606391 -0.117961
-0.784693 -0.505026 -0.158202
0.482058 -0.521375 -0.942218
0.0383935 -0.0281709 -0.933326
0.163283 -0.699695 -0.698303
-0.912901 -0.402187 0.367973
0.421568 -0.270901 -0.994181
-0.934753 -0.156013 -0.113902
-0.830547 -0.212391 -0.491589
-0.374185 -0.37858 -0.984556
-0.137081 -0.532318 -0.957181
0.154982 -0.610577 -0.849705
0.533115 0.167244 -0.851307
-0.779966 0.0870132 -0.403548
-0.887244 -0.329927 -0.329703
0.541306 0.198106 -0.0461108
-0.650662 0.555634 0.572842
-0.543553 -0.580498 0.170211
-0.699166 0.591299 0.591913
-0.106005 -0.657022 -0.284048
-0.859063 -0.406194 -0.0715164
0.421797 0.123252 0.140679
-0.542405 -0.266205 0.607207
-0.500452 -0.182549 -0.788495
-0.740524 0.257599 0.608135
-0.751478 0.0554053 0.30407
-0.377132 0.168989 -0.57291
0.524752 -0.369165 0.139405
-0.470318 -0.279181 0.580226
0.108956 -0.747693 -0.457695
0.0458317 -0.749003 -0.328901
-0.67021 -0.523155 -0.00781522
-0.599347 -0.580203 -0.897993
-0.237969 0.343761 -0.440011
-0.492954 0.0994444 -0.609325
-0.104418 -0.598348 -0.216228
0.114007 0.486427 -0.410983
0.411631 -0.549927 -0.0612872
0.916526 -0.300266 -0.768069
-0.171097 -0.0131085 0.580458
-0.459515 -0.36342 0.487937
0.17979 0.145972 0.143166
-0.771814 0.0515294 0.139477
0.637312 -0.454224 -0.752356
0.809122 -0.0840193 -0.344267
0.61667 0.108677 -0.795906
0.634675 -0.49783 -0.689048
-0.211892 -0.662239 -0.895316
-0.800784 -0.36472 0.592613
-0.196168 0.292742 -0.637578
0.410948 -0.331153 -0.994442
-0.570342 -0.0840831 0.594167
-0.317758 0.149007 -0.611707
0.652963 -0.437161 -0.0942021
0.717881 -0.174832 -0.948499
0.215068 0.178135 -0.937512
-0.436043 0.208281 0.0258847
0.312434 0.249719 0.0297808
0.627618 0.255063 -0.4261
-0.458884 -0.49231 0.25221
0.0682836 -0.095793 -0.935121
0.358737 0.0298584 -0.996763
-0.206797 -0.351477 0.165381
-0.635482 0.366339 0.524383
0.14349 -0.498115 0.111422
-0.0872399 -0.0738465 -0.9339
0.347636 0.283436 -0.975394
-0.803563 -0.626913 0.0275689
-0.957243 -0.158675 0.289474
-0.829743 0.0849176 -0.182476
0.757041 -0.377259 -0.45516
-0.753484 0.304779 0.538289
-0.954899 -0.575544 0.215448
-0.858576 -0.519428 0.486947
0.495809 0.351102 -0.507145
0.672424 -0.219212 0.0391488
-0.0252411 0.234201 0.749291
-0.695044 -0.689962 0.335743
0.411607 0.313864 -0.199636
-0.351561 -0.560183 -0.842879
0.502981 -0.0710637 0.189446
-0.112833 -0.527064 -0.695908
0.0194339 0.194133 0.786418
0.0828876 0.301457 0.892318
0.631612 0.160676 -0.725569
-0.0251263 -0.167825 0.22814
-0.617001 -0.519103 -0.861228
0.340185 0.406908 -0.338799
0.898331 -0.345958 -0.635996
0.543611 0.047748 -0.946942
0.0851899 -0.72311 -0.631664
0.73441 -0.254011 -0.92709
0.155058 -0.623154 -0.907869
0.65592 -0.0716032 0.0578613
-0.449219 -0.452264 -0.60542
0.637085 -0.369242 0.0290781
-0.496224 -0.539724 -0.800705
-0.897059 -0.0112295 -0.248383
-0.473341 -0.00636426 0.371368
0.754018 -0.281336 -0.134991
-0.618419 0.195134 -0.143678
-0.575053 0.0334999 0.493444
-0.77124 0.115579 0.590007
-0.172513 -0.589429 -0.981788
-0.443146 -0.30623 0.436467
-0.375697 0.223591 -0.0129165
-0.475062 -0.0403343 0.669139
0.760052 -0.0542509 -0.113881
-0.10977 0.0713677 0.910776
0.410728 0.0187899 0.210172
0.43081 0.385924 -0.516029
0.525195 0.239253 -0.102399
-0.314469 0.112002 0.697789
-0.506965 0.0691628 -0.812929
0.706172 -0.0958003 -0.956052
-0.564841 -0.178518 -0.825903
0.612456 0.111428 0.0142644
-0.755901 -0.50759 -0.0903494
-0.490101 0.121747 -0.555345
0.684215 -0.026876 0.0077056
0.803174 -0.241531 -0.321469
-0.49803 -0.248936 -0.984203
-0.0674833 0.248883 0.820308
-0.0612006 0.387535 -0.77632
-0.60871 0.1582 0.658743
0.499902 0.156175 0.0634157
-0.250266 -0.501206 -0.00521701
-0.289011 0.0252182 -0.950796
-0.251974 -0.588795 -0.32738
-0.369408 -0.221415 0.307585
-0.778158 0.141823 -0.209501
0.271043 -0.422152 -0.935784
-0.945704 -0.272365 -0.222877
-0.731138 -0.646729 0.429088
-0.883524 -0.0229373 -0.0957273
-0.189511 -0.531531 -0.0481403
-0.214386 0.197551 -0.762121
-0.752094 0.0693193 0.0204619
0.769229 -0.343637 -0.518857
-0.646169 0.297722 0.498879
-0.627252 0.0640195 -0.879764
-0.53224 -0.506184 0.510258
-0.14007 0.234973 0.00494294
0.542627 -0.023085 0.14891
0.821512 -0.0685925 -0.512617
0.160256 -0.738073 -0.245576
-0.835567 -0.578998 0.451141
0.171678 0.27656 -0.989343
0.0817864 0.19196 -0.931371
0.211507 -0.707105 -0.754022
-0.620629 -0.150961 0.605653
-0.911964 -0.508233 0.0421747
0.320066 0.36049 -0.198566
0.895752 -0.0842702 -0.512196
-0.573334 -0.621326 -0.268026
-0.138578 0.207404 0.822289
0.0238325 0.103654 0.148061
-0.340203 0.0210695 0.790827
0.385489 -0.0999157 0.248595
-0.467597 -0.359757 -0.725085
-0.448355 -0.510612 0.014072
0.579713 -0.239648 0.137795
0.698921 -0.100654 -0.00101397
0.233074 -0.748317 -0.409154
-0.116628 0.349175 -0.816373
-0.756077 0.53681 0.888511
0.280742 -0.556743 -0.0847008
0.459188 -0.679047 -0.410569
0.281127 0.379101 -0.783228
-0.268652 -0.38504 0.157446
-0.560529 -0.35737 -0.844192
-0.835448 -0.405501 -0.3981
-0.888286 -0.0074927 -0.318145
-0.24405 -0.526714 -0.804571
0.289629 -0.668933 -0.179329
-0.349827 0.25614 -0.131643
0.768629 -0.0023647 -0.168659
-0.793861 -0.543234 0.510208
0.238059 -0.335556 0.243359
-0.342133 0.213156 -0.81716
-0.216662 0.185189 0.0717312
-0.635129 0.739133 0.80264
0.559357 -0.481825 -0.0292379
-0.273431 0.203012 0.0509737
-0.449523 -0.485339 -0.976734
-0.0492753 0.27586 -0.0309163
0.56042 0.252867 -0.765725
-0.227607 0.375065 -0.362803
0.689132 -0.462875 -0.205086
0.118039 -0.633186 -0.974367
0.522382 -0.58427 -0.585447
-0.661303 0.206375 -0.298174
-0.428885 -0.33301 0.369816
0.174741 -0.324128 0.246094
-0.867813 -0.676684 0.198617
-0.419862 -0.535545 -0.505777
-0.258122 0.213158 -0.512768
0.342163 -0.629937 -0.168525
0.273593 0.446987 -0.433163
-0.600835 -0.604661 -0.341219
-0.404685 -0.605211 -0.185072
-0.737725 -0.252271 -0.578274
-0.15361 0.0341164 0.876401
0.539444 -0.438543 0.047172
-0.761643 -0.599546 0.476442
0.0718236 0.383688 -0.827578
0.0460749 0.337047 -0.924613
0.0886771 -0.757575 -0.387589
0.446003 0.207647 -0.923943
-0.781963 0.440121 0.822611
0.254188 0.26069 -0.0299518
0.78254 -0.246862 -0.194916
0.0457562 -0.496725 -0.931436
-0.532826 -0.140422 -0.675507
-0.611511 -0.0402242 -0.628992
-0.285534 0.157968 0.105936
-0.139098 -0.463153 -0.93
-0.077782 0.269869 -0.988484
-0.436018 -0.0961656 0.687973
-0.0193554 -0.396588 0.157869
-0.646301 -0.469313 -0.897041
0.00750576 0.425013 -0.733324
0.802797 -0.0290045 -0.398588
-0.198397 0.0932528 0.587637
0.607843 0.0608429 0.0578077
-0.414196 0.0118932 -0.984953
-0.438661 -0.491624 0.162215
0.00312248 -0.542796 -0.00100088
-0.294873 0.0679256 0.819978
-0.407654 0.253048 -0.332423
-0.6154 -0.703 0.1271
0.875082 -0.103926 -0.86135
-0.616485 0.0810183 0.149662
-0.663803 -0.155585 -0.63029
0.428607 0.0594719 -0.987066
0.262653 0.0922328 -0.9364
0.370865 -0.671895 -0.718817
0.580342 -0.560728 -0.207143
-0.733943 0.173648 -0.33198
-0.739973 -0.60905 0.00989719
-0.0460378 -0.711411 -0.271532
-0.954427 -0.550778 0.0890742
0.27873 -0.710305 -0.22904
-0.57873 0.161783 0.596968
0.800389 -0.135788 -0.237013
-0.771348 -0.192876 -0.543936
-0.929083 -0.0700716 0.151403
-0.617454 -0.565543 -0.959994
0.957971 -0.249625 -0.747189
-0.627761 -0.568943 -0.403917
-0.537108 0.0473878 0.339555
0.598741 -0.48308 -0.0966563
-0.630791 0.210058 0.716935
-0.61066 0.172557 0.478393
-0.515852 -0.507091 -0.9767
-0.27463 0.151477 -0.9269
-0.0146203 0.179037 0.675603
-0.665001 -0.704195 0.0730182
-0.655396 -0.357598 0.61078
-0.299578 0.102341 -0.93178
0.7961 -0.0120464 -0.547564
-0.533529 -0.627723 -0.899145
-0.136549 0.116532 0.615988
0.656924 0.0461317 0.0101463
0.126284 -0.749921 -0.319131
-0.377161 0.0641252 0.693802
-0.295154 0.232606 -0.00405772
-0.000369907 0.491645 -0.421926
-0.953459 -0.286523 0.452405
0.719098 0.0679678 -0.8733
-0.469173 0.0266513 0.307701
-0.0988109 -0.318249 -0.937652
-0.429954 0.147426 0.136735
-0.39902 0.250924 -0.0796961
0.482132 0.0845983 -0.938411
0.490555 0.340893 -0.704358
-0.863387 -0.641623 0.0570574
-0.266677 -0.584923 -0.259391
-0.504074 -0.59943 -0.840141
-0.64626 0.399998 0.797173
-0.0459396 0.0857454 0.162265
0.177384 0.328316 -0.869648
0.877339 0.0551782 -0.758989
-0.601115 0.0969743 0.608444
0.950516 -0.251791 -0.552179
0.336918 -0.193514 -0.991045
0.698462 0.084359 -0.0967093
0.620436 -0.381002 -0.862692
-0.601233 -0.586231 0.304105
-0.404304 -0.0631904 -0.987818
-0.547411 -0.299122 -0.981281
-0.626107 -0.480765 -0.527362
0.309321 -0.147084 0.269023
-0.679966 0.155173 -0.0689575
-0.598338 0.112107 0.463382
-0.668088 -0.00756397 -0.5953
0.193537 0.428405 -0.668874
-0.214475 0.187357 -0.695543
0.308757 -0.474327 -0.989835
-0.834428 -0.475397 0.53553
-0.653075 -0.40773 -0.954302
-0.125553 -0.0287795 0.639912
0.690042 -0.390739 -0.751978
-0.640004 0.207611 -0.221703
-0.202682 0.267509 -0.982746
-0.00820549 -0.618152 -0.794609
-0.707423 0.345652 0.50838
0.456801 -0.616137 -0.212781
0.268717 0.34025 -0.843317
0.026372 0.493785 -0.301557
0.201068 -0.142808 -0.98815
-0.20127 0.148288 -0.924267
-0.38211 -0.491823 0.0347756
-0.996786 -0.312696 0.179702
-0.391348 -0.612082 -0.287593
0.436089 -0.506645 -0.000669613
0.112265 0.351672 0.824106
0.806067 -0.155473 -0.312321
-0.487223 -0.178861 -0.704523
-0.577367 -0.457346 -0.566073
-0.611604 -0.641599 0.260499
-0.224061 0.254527 -0.569245
0.523973 -0.604914 -0.223257
0.700258 0.104415 -0.814291
-0.00649966 -0.0240624 0.213636
-0.00800182 0.289141 0.948572
-0.272821 0.079526 0.572175
0.520993 0.274948 -0.165168
-0.156694 0.16891 0.876208
-0.519749 -0.335883 0.595547
-0.251651 -0.0237381 0.687496
-0.83781 -0.0556914 0.432128
-0.932665 -0.325382 -0.16878
0.61078 -0.55299 -0.335723
0.813093 -0.16739 -0.445182
0.366179 -0.438635 -0.993844
-0.519995 0.249788 -0.170127
-0.690774 -0.605376 0.474346
0.654711 -0.146067 -0.978778
0.680613 0.149374 -0.665789
-0.121562 -0.522533 -0.0184351
0.273885 -0.387098 0.211415
-0.686475 0.542414 0.87052
-0.921063 -0.0837861 0.281682
-0.404546 0.178427 0.0796879
-0.0116468 -0.509939 -0.929929
-0.19868 0.3751 -0.968919
0.122475 0.333245 -0.917861
0.281473 0.430581 -0.290021
-0.597653 -0.515472 0.540653
-0.55727 -0.570623 0.245697
0.286127 -0.00516323 0.249078
-0.657398 -0.692538 0.260477
0.2037 0.443223 -0.262004
-0.580738 0.751676 0.782544
-0.207909 0.0212334 0.734484
0.384893 0.358424 -0.235619
-0.717517 0.189866 0.482896
-0.28884 -0.558559 -0.128028
-0.580903 0.181915 -0.000252707
0.0352727 0.302493 -0.986313
-0.265849 -0.529303 -0.0675099
0.0820431 -0.648925 -0.891881
0.964501 -0.0256957 -0.675405
-0.636262 0.030403 0.619707
-0.592613 -0.184304 -0.658775
0.241054 0.246753 0.05333
0.527795 0.324676 -0.365272
-0.866625 -0.67804 0.125203
0.511142 -0.385337 -0.962798
0.679734 -0.495457 -0.445192
0.66608 0.0491729 -0.920337
-0.148899 -0.493261 -0.657596
-0.859569 -0.111333 0.473278
0.040497 0.27398 0.761138
0.497509 0.191872 0.000861925
0.880293 0.0693555 -0.675114
-0.466792 -0.565233 -0.978011
-0.584288 0.688179 0.838194
0.349766 -0.577555 -0.917342
0.367115 0.412901 -0.529292
0.823625 -0.354196 -0.6224
-0.140695 -0.315398 0.160243
0.234478 0.115884 0.174686
0.685148 -0.478696 -0.516136
-0.575516 0.236178 0.583198
0.712913 0.124151 -0.611742
-0.628567 0.336434 0.762734
-0.617663 0.136134 0.0533885
-0.793621 -0.513917 -0.284838
-0.0579932 -0.639699 -0.984391
0.781605 0.0238526 -0.368412
0.444898 0.289675 -0.828932
-0.686935 0.70179 0.902058
-0.527239 -0.424693 -0.599157
-0.667982 0.134568 0.453205
-0.134439 -0.70308 -0.890426
0.510604 0.317458 -0.593679
-0.138047 0.264589 -0.983745
0.0118212 0.483218 -0.539567
-0.714028 0.07628 0.244966
-0.910123 -0.0374066 0.235386
-0.686308 -0.651634 0.0318415
-0.782391 -0.00123336 0.502184
0.412818 0.384736 -0.591662
-0.308822 0.12798 -0.680556
0.116959 -0.109074 0.254815
-0.583283 0.0478138 0.428863
-0.401499 -0.177351 0.514567
-0.159214 0.0623491 0.793372
0.790853 -0.278647 -0.259788
-0.453033 -0.411588 0.356812
0.228134 -0.580589 -0.124284
-0.0179172 0.333476 -0.967988
0.312884 -0.719505 -0.28653
0.540337 -0.0150321 -0.984011
-0.729881 0.477102 0.857632
0.744626 -0.17035 -0.0769745
-0.0802094 -0.20642 0.21041
-0.84273 -0.454666 -0.292747
-0.648944 -0.23003 -0.637019
-0.820879 -0.286036 -0.480539
-0.693424 -0.734083 0.133093
-0.213845 -0.543879 -0.553651
-0.934594 -0.282321 -0.112433
-0.491354 -0.530029 0.119119
0.693741 -0.419632 -0.147492
0.0554154 -0.71502 -0.522395
-0.583219 0.173535 0.53263
-0.62591 0.0778832 -0.546244
0.809722 -0.0863368 -0.438744
-0.60792 -0.0765489 -0.982178
0.678333 -0.301175 -0.932714
0.688882 -0.333283 -0.0191287
0.608846 0.261902 -0.498938
-0.668357 -0.21191 0.614803
-0.492193 0.0173314 -0.984388
-0.461164 -0.0221169 0.451758
-0.487966 0.0664213 -0.742946
-0.57253 0.302431 0.629436
-0.433955 -0.242479 0.477563
-0.289408 0.119728 0.166796
-0.0314311 0.35256 -0.904094
0.679986 -0.443999 -0.695965
-0.589197 -0.41941 -0.976362
-0.157242 0.196817 0.750214
-0.638761 0.274003 0.750003
-0.119321 -0.392647 -0.934657
-0.851099 -0.406708 0.5627
-0.424497 0.227105 -0.395799
0.412905 -0.673104 -0.597035
-0.176771 0.270385 -0.0501204
-0.920335 -0.0884667 -0.14092
0.740635 0.0952783 -0.558126
-0.676515 -0.0835864 -0.610329
-0.0655 0.0752 0.6109
-0.251073 0.110492 0.834104
-0.159767 -0.657177 -0.838719
-0.714102 -0.443561 0.584581
0.06761 0.0108515 0.222857
0.789175 -0.07936 -0.185843
-0.0643795 0.0140492 0.190611
-0.576118 0.0762257 0.219024
0.487226 0.108437 0.114424
0.338959 0.0394984 0.222733
-0.891371 -0.396382 -0.146903
-0.725811 0.113796 0.468763
0.465138 0.223214 -0.0562781
-0.924993 -0.446366 0.326241
0.569233 0.274545 -0.575234
-0.277665 -0.576367 -0.3991
0.915522 -0.30288 -0.569885
-0.450865 -0.400643 -0.978
-0.573895 -0.53091 0.333318
0.644829 0.226039 -0.549076
-0.714972 0.51741 0.709636
0.995182 -0.169078 -0.649775
-0.729013 0.469642 0.541479
0.0873385 -0.529784 0.0499785
0.76621 -0.31889 -0.198817
0.813707 0.0876588 -0.778341
-0.181918 -0.555565 -0.372475
-0.934635 -0.347535 0.422301
-0.93845 -0.132933 -0.25951
-0.628614 -0.597975 0.445051
-0.769025 0.154685 -0.275819
-0.271932 0.273156 -0.346527
-0.708076 -0.723521 0.240384
-0.183655 0.00200675 0.672342
-0.209055 0.0363243 0.554246
-0.518348 0.105172 -0.98202
-0.443088 -0.501868 -0.554184
-0.892344 -0.0655285 0.340154
-0.675006 0.681686 0.83191
-0.727406 -0.371269 0.605467
-0.403166 -0.123415 -0.965589
-0.314536 -0.148788 -0.965519
0.286505 -0.59922 -0.139666
-0.989573 -0.243228 0.198558
-0.689753 0.177386 -0.189377
0.177473 0.359259 -0.158548
0.112351 -0.510775 -0.957609
-0.854995 -0.694124 0.257839
0.628769 -0.261118 0.0904914
0.578596 0.260893 -0.659378
-0.172353 0.459052 -0.3743
-0.0324575 -0.68421 -0.55511
-0.557857 -0.585601 -0.390101
-0.206983 -0.501163 -0.763237
0.178109 -0.460268 0.160822
-0.585664 -0.254969 -0.652031
-0.663755 0.0766055 0.292002
-0.696162 -0.444479 -0.51543
-0.394616 -0.508816 -0.590779
0.323031 0.323436 -0.887854
0.692685 -0.485761 -0.268851
0.0162978 0.342107 -0.860584
-0.364777 -0.0536364 0.257777
-0.429073 -0.0248218 0.71468
-0.46109 -0.298003 -0.764519
0.180658 -0.25111 -0.943561
0.612092 -0.27639 -0.962057
0.41055 -0.205673 -0.984166
-0.7633 0.146697 0.532074
0.303712 -0.722647 -0.410621
-0.233788 -0.0386132 0.548704
-0.359704 -0.0521286 0.470655
0.371771 -0.513841 -0.0121573
0.23811 -0.735392 -0.527789
0.0842408 0.431339 -0.199209
-0.649129 -0.557313 0.515191
0.47903 0.150646 -0.892026
-0.0399642 0.400792 -0.18875
0.330458 0.270313 -0.0977735
0.43954 0.279325 -0.890836
-0.970741 -0.517975 0.15375
0.594749 -0.573587 -0.413368
-0.0735735 0.108083 0.943868
0.305458 -0.0250543 -0.994226
-0.244724 0.248294 -0.0524613
0.276344 0.0390796 -0.98624
0.208967 -0.541442 0.047832
0.220436 0.030536 -0.938119
0.0870805 0.232736 0.780691
0.774347 0.0798353 -0.835122
0.97767 -0.244006 -0.678274
-0.481346 -0.348789 -0.652643
-0.169196 0.317523 -0.212493
0.55396 0.312858 -0.520766
0.150752 -0.528555 0.0613582
0.555144 -0.326815 -0.956839
0.500633 -0.424742 0.110595
0.256857 0.282545 -0.0874303
-0.5232 0.0529635 0.265911
-0.419684 -0.615443 -0.956059
-0.275184 0.0189682 0.523779
0.347921 -0.268245 -0.993398
-0.525448 -0.224917 -0.676632
0.180254 0.325058 -0.95169
-0.344616 -0.529569 -0.711594
-0.308077 -0.367345 -0.983182
0.718379 -0.446493 -0.326164
-0.276764 -0.55629 -0.60096
-0.532046 -0.296547 -0.65886
-0.197776 -0.476395 -0.960104
-0.43007 -0.587401 -0.849171
-0.100022 0.169561 0.935462
0.160689 0.229165 0.0486374
-0.159462 -0.0339844 -0.931302
-0.403906 0.262016 -0.26335
0.642031 -0.0701348 -0.975263
-0.0855156 -0.668108 -0.817459
0.332197 -0.230494 0.262892
0.585943 -0.528078 -0.147618
0.697711 -0.470171 -0.389073
-0.663917 -0.589034 0.0192963
0.73149 0.010579 -0.913172
0.352663 -0.371605 0.214505
-0.409421 0.219203 -0.981928
-0.865433 -0.609852 0.389937
0.0876651 0.0357762 -0.929998
0.0971395 -0.457834 -0.930753
-0.743326 -0.677303 0.048928
-0.401861 -0.132637 0.448988
0.72008 0.166911 -0.386616
-0.980181 -0.199321 0.130304
0.0837126 0.358996 0.934966
0.920396 -0.0633492 -0.812688
-0.747162 -0.00592055 -0.511203
-0.211915 -0.506676 -0.691545
0.373146 0.204931 0.0765054
-0.129441 -0.61834 -0.791754
-0.692821 -0.057121 -0.846509
-0.644403 -0.180412 -0.977387
-0.437501 -0.22101 0.547826
-0.72986 -0.117396 -0.892582
-0.398708 -0.546614 -0.978002
-0.502123 -0.497435 0.053323
-0.141049 0.366505 -0.962817
0.540735 -0.495117 -0.796813
0.431807 -0.49089 -0.991165
-0.322614 0.280871 -0.828373
-0.567215 -0.0536344 -0.790551
0.439973 0.131824 -0.961974
-0.747545 -0.717239 0.10768
-0.955819 -0.506969 0.23084
-0.334672 -0.108968 0.613699
0.835782 -0.379736 -0.673022
0.478649 -0.565507 -0.0954427
-0.804825 -0.711424 0.30704
0.70472 0.165685 -0.538476
-0.502592 -0.449999 0.408679
-0.913037 -0.582936 0.0522724
0.110388 0.312173 -0.975375
0.0990717 0.48861 -0.329664
-0.553849 -0.556716 0.101229
-0.0843098 0.180721 0.0780315
-0.544679 -0.565798 -0.976092
0.705112 -0.450149 -0.577012
0.438623 -0.087418 -0.982739
-0.576017 -0.624394 0.203681
-0.271513 -0.522575 -0.733474
0.438906 0.208219 0.0230156
-0.717846 -0.565143 -0.282666
-0.1482 -0.170293 0.204121
-0.510656 0.201609 0.0162397
0.483224 -0.0511355 -0.997341
-0.759025 0.074084 0.640696
0.464761 0.351375 -0.329427
0.213026 -0.216384 -0.986492
0.202005 0.22134 -0.987613
-0.135594 -0.199573 -0.941046
-0.681639 0.189666 -0.373204
-0.743216 -0.725223 0.293832
-0.659767 0.698943 0.686528
0.388214 0.377587 -0.661018
-0.82448 -0.0473141 0.496165
0.375504 -0.384011 -0.991246
0.323358 -0.398616 -0.948624
0.22518 0.447964 -0.33251
-0.284504 0.174067 -0.789271
0.306081 0.2079 0.0937485
-0.232389 0.0464149 0.858686
-0.92173 -0.628828 0.101188
-0.097583 0.222663 0.766537
0.146243 0.180883 -0.929679
-0.101995 0.49019 -0.357429
-0.981212 -0.376636 0.229253
0.0503054 0.32378 0.822283
0.195345 0.258388 0.00630878
-0.590354 -0.323867 0.610261
-0.23211 -0.46 0.0502023
-0.246432 0.328722 -0.986924
-0.835848 -0.41201 0.0108528
-0.0830377 -0.356251 0.157309
0.297243 0.308621 -0.958752
-0.816259 -0.482922 -0.222804
0.581002 0.280185 -0.382373
0.529192 -0.497107 -0.876491
0.0409877 0.261547 0.933347
-0.0742419 -0.625731 -0.549491
-0.983145 -0.377078 0.161436
-0.0230874 -0.292323 -0.9377
-0.866262 -0.0162194 0.297983
-0.657702 0.477915 0.824221
-0.0165909 -0.668884 -0.834554
-0.36597 -0.338098 0.251707
0.685595 0.0956761 -0.719859
0.683133 -0.016592 -0.951253
0.0329471 0.221364 0.707506
0.793557 0.0118218 -0.879969
-0.583855 -0.21194 0.611176
-0.15433 -0.270556 -0.944258
-0.754179 -0.686711 0.371152
-0.429867 0.137744 -0.906769
0.0684203 -0.558655 -0.0116193
-0.0806406 -0.50139 -0.929299
0.862297 -0.0229463 -0.540457
-0.856726 -0.0341391 -0.406285
0.99141 -0.157042 -0.577414
-0.75337 0.391868 0.700546
-0.392494 0.128462 -0.831895
-0.166854 0.100341 -0.927369
-0.314659 -0.531178 -0.788371
0.477443 -0.241185 -0.993034
0.612094 0.0149362 -0.957648
0.235944 0.308519 -0.975666
0.733073 -0.412916 -0.518753
-0.000894128 -0.717145 -0.508106
0.272435 -0.522909 0.0672811
0.674512 -0.509963 -0.334961
-0.387588 -0.140105 0.646016
-0.946508 -0.409304 0.103576
0.296886 0.436107 -0.484895
-0.317535 -0.573946 -0.296338
0.469519 -0.600952 -0.150105
-0.27892 0.000230072 0.818883
0.199557 -0.576922 -0.0588716
-0.816191 0.0964568 -0.253001
-0.909619 -0.375429 -0.211505
-0.695203 -0.578468 -0.210225
-0.507815 0.136589 -0.947022
-0.703161 -0.180274 -0.956549
-0.108554 -0.59621 -0.982029
0.477974 -0.162205 -0.979107
0.75227 -0.357987 -0.648487
-0.579254 0.115668 0.107778
-0.914742 -0.549248 0.357047
-0.556344 0.0932055 -0.557034
-0.149037 -0.589547 -0.262373
0.659743 0.0977394 -0.0380655
-0.436856 0.2626 -0.14506
-0.461751 -0.551606 -0.0464067
0.293063 -0.585086 -0.974392
-0.588785 -0.146717 -0.981631
0.00745405 -0.670252 -0.973416
0.240425 -0.498886 -0.985772
-0.883923 -0.088552 0.405295
-0.596581 0.521252 0.759767
-0.20613 0.333803 -0.570926
-0.237042 0.314153 -0.322171
0.0567433 -0.0587 0.237888
0.351519 0.30731 -0.1686
-0.60448 -0.28743 -0.965011
-0.340511 0.00816796 0.499164
0.0108051 0.043755 0.190657
0.841037 0.0370138 -0.826854
-0.346339 -0.547778 -0.55755
-0.00993248 -0.753031 -0.333915
-0.54593 -0.356652 -0.625686
0.390478 0.319743 -0.857655
0.803615 -0.265111 -0.532308
0.137704 0.0380372 0.227149
-0.74601 0.572624 0.82763
-0.273748 0.129978 0.765938
0.0749588 0.421024 -0.753472
-0.348177 -0.1126 0.264305
-0.630319 -0.272028 0.615521
0.540192 -0.513761 -0.0895461
-0.289117 -0.0640043 0.646921
-0.09941 0.110251 0.759226
0.528831 -0.550861 -0.737809
0.343018 0.399489 -0.259336
-0.592002 0.306351 0.548771
0.649448 -0.532661 -0.391799
-0.0485683 0.314897 -0.159195
-0.472243 -0.127768 -0.983704
-0.961544 -0.58808 0.14925
-0.328651 0.015584 0.233914
0.696926 0.0281046 -0.0452238
-0.161345 -0.440935 0.0791435
-0.00757038 0.203355 0.921082
0.368493 -0.0499002 -0.986012
-0.734082 -0.47359 -0.461322
-0.481724 -0.324695 -0.983101
0.658885 0.1989 -0.483092
0.293922 -0.723141 -0.645611
-0.214091 -0.139451 0.226138
-0.354504 -0.590952 -0.956337
0.921538 -0.140375 -0.824843
-0.31067 -0.233488 -0.965184
0.205066 -0.00165158 0.246617
-0.644765 0.725467 0.939532
0.278676 -0.64137 -0.833164
0.192296 0.462326 -0.405105
-0.176835 0.360394 -0.633477
-0.349566 -0.295113 -0.971387
-0.527189 0.256652 -0.247962
-0.8023 -0.669716 0.090559
-0.494583 -0.622488 -0.95871
0.329526 -0.113689 -0.990653
-0.607633 0.0637568 0.3561
-0.904566 -0.632171 0.252009
-0.227477 -0.560889 -0.415212
-0.759782 -0.525739 -0.334538
-0.250312 -0.0901727 0.616644
-0.157994 0.0985199 0.143437
-0.895991 -0.0879243 -0.058494
-0.219836 0.220461 -0.6351
-0.775399 -0.485378 -0.0235598
-0.782587 -0.431961 0.577575
0.239769 0.186638 0.113326
-0.566314 -0.512508 0.0472492
0.72245 0.112017 -0.209771
0.674284 0.168468 -0.211372
-0.607682 -0.453683 -0.832076
-0.808066 -0.02302 -0.47092
0.399452 -0.483679 0.0563501
0.0710265 -0.665025 -0.773664
-0.0871848 -0.128003 0.211513
-0.0641354 -0.155725 -0.936441
-0.789808 0.122046 -0.326361
-0.697637 0.575266 0.666714
0.9488 -0.0456943 -0.74553
-0.471223 -0.596304 -0.183513
0.570391 -0.382113 0.084532
-0.0538405 0.226118 0.95265
0.327455 0.25855 -0.0368897
-0.1172 0.158084 -0.926133
-0.886297 -0.15452 0.448109
-0.146253 -0.60717 -0.332317
-0.334414 0.266767 -0.984393
-0.428436 0.0223945 0.672321
-0.915348 -0.198394 -0.313611
-0.0530615 -0.56254 -0.963895
-0.319898 0.245407 -0.0709371
-0.985853 -0.30794 0.255203
0.461562 0.352751 -0.646594
0.189701 0.108604 -0.926471
-0.746174 0.126106 -0.0869208
-0.0616977 0.146324 0.882997
-0.50998 -0.46487 0.549234
0.0773555 0.314387 -0.136605
0.837276 -0.224815 -0.884603
-0.595972 0.220528 -0.272106
-0.575338 0.151417 -0.516562
-0.196714 -0.00637179 0.829284
0.400827 -0.600561 -0.794714
0.139052 -0.696568 -0.183012
0.102515 0.372928 -0.161445
-0.895255 -0.0157688 0.166218
-0.269191 -0.322611 0.195069
-0.265146 0.256002 -0.98275
0.740725 -0.329101 -0.892576
-0.359394 0.31862 -0.898052
-0.163192 -0.091865 -0.935454
-0.421251 -0.261921 -0.974275
-0.344631 -0.100612 -0.98693
-0.239623 0.0703112 -0.926061
-0.542323 0.0126028 -0.786811
0.656074 -0.39021 -0.808471
-0.4746 -0.138579 0.639238
0.905791 0.00119014 -0.790318
-0.564357 -0.614811 -0.953049
0.434123 -0.549493 -0.830546
0.46085 0.271455 -0.105864
-0.850388 0.0476424 -0.289427
-0.643775 0.60606 0.875775
0.201153 0.0638989 0.21537
-0.384452 0.0591461 0.224146
-0.453235 -0.380841 0.41744
0.0942868 -0.693541 -0.703775
0.952956 -0.187244 -0.782749
-0.0600322 0.484633 -0.295369
-0.870532 0.0415293 -0.219834
0.578676 0.283003 -0.310506
-0.893911 -0.430701 0.516321
-0.599127 0.618553 0.688953
-0.711123 0.511516 0.632499
-0.620869 -0.587124 -0.186684
0.341325 -0.618854 -0.834203
-0.259709 0.308554 -0.811969
-0.621079 -0.651122 0.0638314
0.701403 0.15701 -0.452468
0.623408 -0.520474 -0.520472
-0.381469 -0.592756 -0.894229
0.289804 0.295023 -0.146675
-0.487448 -0.61185 -0.367116
-0.423126 -0.43469 0.287921
-0.655659 -0.726843 0.183923
-0.775227 -0.29908 0.608075
-0.764076 0.0744727 0.519912
-0.643982 0.621286 0.607601
-0.739471 -0.0594189 -0.962688
0.86654 -0.276688 -0.842545
-0.0178973 0.0489812 0.657592
-0.0276644 -0.721339 -0.44485
-0.378047 -0.391021 0.147898
-0.0889711 0.444424 -0.229915
-0.374452 -0.596743 -0.348523
-0.147584 0.110624 0.91334
-0.750046 0.457993 0.740484
0.61462 0.249167 -0.608178
-0.401619 -0.536463 -0.0271399
0.581933 -0.577175 -0.270071
0.596654 -0.540825 -0.611393
-0.61079 -0.227227 -0.884183
0.472152 -0.61947 -0.268889
-0.575528 -0.547716 -0.0367527
0.459755 0.298955 -0.159545
-0.27347 0.269244 -0.126552
-0.0042997 0.21223 0.995215
-0.247771 -0.252037 -0.984886
-0.865198 -0.430714 -0.219767
-0.0118251 0.474256 -0.602075
0.764043 -0.206562 -0.133146
0.637403 -0.522583 -0.217018
0.390122 -0.697231 -0.292942
-0.192278 0.287753 -0.156014
0.571683 -0.449943 -0.864294
-0.12983 0.450632 -0.54164
0.786966 -0.31565 -0.323948
0.110239 -0.244539 -0.938993
-0.570514 -0.281961 -0.901638
0.124215 0.230624 -0.984382
-0.239816 0.124571 -0.706243
-0.185531 0.431858 -0.320587
0.414152 -0.553701 -0.971239
-0.772278 0.0579285 0.217581
-0.354294 -0.580557 -0.155081
0.0179889 -0.587075 -0.146228
0.469718 -0.199467 0.214256
0.351944 -0.676884 -0.228407
0.978367 -0.0873252 -0.575657
0.0493123 0.490672 -0.375932
0.33421 -0.507658 0.0610805
0.668547 -0.226828 -0.959272
-0.199991 0.26917 -0.775362
-0.732032 -0.05489 -0.561585
-0.344231 -0.0118465 -0.985774
-0.787412 -0.435171 -0.42693
-0.714874 0.113904 -0.0229886
-0.0521103 -0.58513 -0.108799
-0.721141 0.060102 0.0863931
-0.973717 -0.165477 0.20556
-0.279965 -0.546254 -0.85391
-0.785141 0.204722 0.635694
-0.351949 0.158137 0.127616
-0.624002 0.199599 -0.416568
-0.601045 -0.588953 0.0585675
-0.646723 -0.239789 -0.958301
0.155378 -0.184256 -0.943347
0.796703 -0.0160823 -0.470326
-0.857727 -0.228768 -0.428662
-0.0653753 0.413722 -0.714504
-0.40596 -0.00300192 0.256537
0.763574 -0.353065 -0.262632
-0.485692 0.248671 -0.102298
-0.669907 0.66929 0.761796
-0.551158 -0.0764192 -0.664365
-0.146871 0.168494 0.675367
0.0281411 -0.701209 -0.595345
-0.0908928 -0.677013 -0.435109
-0.910425 -0.169581 0.389642
0.0695945 0.468335 -0.527894
-0.455194 -0.47491 -0.774666
-0.20261 -0.146794 -0.974059
0.744297 -0.413348 -0.391585
-0.361248 0.223566 -0.424465
0.292297 -0.585609 -0.878355
-0.698605 0.0616532 0.422291
0.578167 0.0239129 0.103239
0.403842 0.17843 -0.984878
-0.746517 -0.128849 -0.949584
-0.398531 -0.434582 0.107846
-0.645348 0.0918362 0.663528
-0.864113 0.00803918 0.233957
-0.266415 -0.116027 -0.988659
0.980279 -0.180087 -0.715414
0.327633 0.157471 -0.990187
-0.249519 -0.423349 -0.980895
0.0596321 0.239595 -0.98426
-0.00389342 0.109284 0.636859
-0.7698 0.0369949 0.571001
-0.201392 0.103133 0.879193
-0.107681 0.274252 -0.0386016
-0.403014 0.275986 -0.969729
0.955346 -0.119794 -0.527148
-0.455554 0.0704029 -0.984707
-0.263063 -0.491774 -0.983129
-0.752875 -0.498133 -0.397388
-0.723619 0.672741 0.935918
0.594936 0.0732793 -0.903378
-0.698448 -0.298144 0.616385
-0.930548 -0.416843 0.436093
-0.478694 -0.408255 -0.775878
0.265722 -0.729229 -0.586396
-0.367246 -0.291245 0.292142
0.770595 -0.12584 -0.13129
-0.106319 0.377973 -0.197488
0.116072 -0.356574 0.224206
0.841176 -0.378586 -0.745713
0.112114 -0.0361986 -0.93319
-0.454447 0.0355289 0.237687
-0.859706 -0.340625 -0.388883
0.267087 0.0569583 0.219305
-0.595587 0.396793 0.734044
0.145371 -0.678488 -0.776409
-0.575439 -0.22356 -0.981908
-0.282377 -0.560795 -0.530094
0.58525 0.175548 -0.787293
-0.433765 0.1379 -0.604605
-0.37248 0.117688 0.178049
-0.620418 -0.344813 -0.970147
-0.55168 -0.565202 -0.459919
-0.808313 -0.441947 -0.0142581
-0.193877 -0.0624037 0.636255
0.651832 -0.396003 -0.0320036
0.0171973 -0.353195 -0.935827
-0.419413 0.209118 -0.925447
0.184278 -0.530771 -0.988277
0.357251 -0.680224 -0.65417
-0.787459 -0.0704823 -0.504352
-0.902513 -0.476626 0.461911
0.274954 -0.351122 -0.938947
0.478259 -0.537976 -0.877823
-0.323838 -0.52598 -0.0106001
0.473911 -0.634615 -0.57317
-0.943831 -0.246778 0.520658
-0.566566 -0.0217319 0.543272
-0.34096 0.275855 -0.239072
-0.771394 0.62833 0.914252
0.893007 -0.151039 -0.501584
0.0599323 -0.491436 0.107183
0.0185467 -0.563485 -0.0717007
-0.761476 0.309271 0.775259
-0.774476 -0.338194 -0.509985
-0.297712 -0.56173 -0.9085
-0.590175 -0.544942 0.480299
0.587492 -0.133111 -0.994686
0.11616 0.452419 -0.573163
-0.555049 0.226622 -0.387839
0.871797 -0.264791 -0.528099
0.235669 -0.706049 -0.692383
-0.486643 -0.614222 -0.254082
-0.307336 0.2773 -0.190175
-0.489513 -0.00852846 0.522936
-0.252344 0.299852 -0.393223
-0.558491 0.0398076 -0.984428
-0.118 -0.666663 -0.366457
-0.725083 -0.317091 -0.557955
-0.682326 -0.284815 -0.608925
-0.843831 -0.452867 -0.153211
0.00808285 -0.590548 -0.985911
-0.0300372 0.145502 0.113386
0.180721 -0.612299 -0.977217
-0.168118 0.319773 -0.793038
-0.0131507 -0.253067 0.221733
-0.587049 0.331103 0.701561
0.520869 0.0472879 0.134812
-0.858394 -0.0239682 -0.0270708
0.139793 -0.638827 -0.143415
-0.516277 -0.178283 -0.985629
-0.535133 -0.00321166 0.462807
-0.741869 0.00205486 0.620503
-0.518877 -0.529815 -0.00744723
0.512389 -0.644176 -0.379461
-0.163274 -0.546703 -0.442625
-0.917475 -0.0968424 0.0831323
0.111708 -0.295862 0.244564
-0.747601 0.516564 0.780757
0.242414 0.317091 -0.898052
-0.2082 -0.6576 -0.9663
0.811436 -0.131534 -0.385748
-0.964321 -0.443187 0.178204
-0.200566 0.141709 0.643207
-0.895663 -0.608762 0.327311
-0.611299 -0.31483 -0.625084
-0.0811771 0.192517 0.705553
0.195031 -0.747748 -0.34076
-0.712667 0.407628 0.826915
0.598669 -0.423563 0.0218495
-0.350959 0.0608585 -0.9775
0.72202 -0.381247 -0.69845
-0.376588 -0.522323 -0.781557
-0.459082 0.142497 -0.977891
0.619195 -0.1196 0.103053
-0.59243 0.266466 0.693192
-0.273979 -0.313757 -0.973115
-0.052195 -0.600412 -0.181908
0.0789559 0.0791206 0.195337
-0.851984 -0.293057 -0.424442
-0.150478 0.0642947 0.731524
-0.107276 -0.566467 -0.556235
-0.0586344 0.085962 0.700681
-0.138665 -0.665323 -0.981784
-0.39896 -0.268671 0.350448
0.743089 0.112615 -0.764985
-0.955474 -0.440041 0.258363
0.348672 -0.592913 -0.108476
0.714794 0.0784266 -0.682862
0.778945 -0.342412 -0.392386
-0.00258684 -0.643958 -0.178718
-0.684975 0.62751 0.712193
-0.733997 0.156003 -0.149758
-0.291662 -0.0495364 -0.979445
0.0113124 -0.676818 -0.895339
-0.945877 -0.20586 -0.238843
0.76765 0.0414119 -0.513137
-0.558389 0.197329 -0.456557
-0.337702 -0.511204 -0.98032
-0.747272 0.32188 0.655598
0.446526 -0.661843 -0.517813
-0.717501 0.531669 0.564899
-0.546481 -0.61672 -0.209484
-0.647953 -0.519967 -0.954388
-0.31957 0.346809 -0.98257
0.486104 -0.318517 -0.989028
-0.613541 0.218283 -0.348764
-0.152453 -0.0950623 0.201552
0.0263272 0.327094 0.891904
-0.278983 0.291095 -0.272632
-0.529853 0.210624 -0.0536019
-0.0735374 0.143488 0.645028
0.479676 0.0168655 -0.982702
0.521162 -0.618408 -0.522703
0.159514 -0.577362 -0.116592
-0.276793 -0.43538 0.0989613
-0.0204919 -0.328019 0.189828
0.33507 -0.539704 -0.0620312
-0.19681 0.372708 -0.280977
-0.158731 0.155845 0.101924
-0.175485 -0.56151 -0.780189
-0.300627 -0.481656 0.0398336
-0.377073 -0.0799382 0.728562
-0.212321 -0.536798 -0.981712
-0.214693 0.273277 -0.0992911
-0.027236 0.503109 -0.359071
-0.544079 -0.0518901 -0.7264
-0.795767 0.58532 0.883472
0.106376 -0.460647 0.151405
-0.371129 0.206176 -0.498289
0.909188 0.0290054 -0.631562
-0.454996 0.255587 -0.210823
0.0451074 -0.221634 -0.939072
-0.813688 -0.357872 -0.451923
0.526743 -0.290491 0.17245
-0.901841 -0.208655 0.561857
-0.150954 0.323208 -0.988481
0.183622 0.285339 -0.0611774
0.542691 -0.258132 -0.986461
0.303701 -0.542054 -0.0017831
-0.410556 -0.49171 -0.733171
0.115305 0.275337 0.00315211
0.130241 -0.0326842 0.246766
0.137421 0.465262 -0.476662
-0.627743 0.434965 0.559199
-0.809893 -0.459847 -0.0897314
-0.370701 0.126066 -0.722318
-0.204966 -0.212075 0.220258
-0.020174 0.46838 -0.24651
-0.663595 -0.352071 -0.585897
0.581655 -0.0599575 -0.989283
0.529493 -0.62118 -0.306349
-0.827496 0.021718 0.176346
-0.61979 0.67869 0.659101
-0.626387 0.168196 -0.470041
-0.430716 0.169644 -0.979242
0.0440718 -0.126842 0.241964
0.790703 -0.0180298 -0.236392
0.104433 0.268464 0.735289
-0.548473 -0.0313195 -0.984296
-0.0384614 0.152489 0.973708
0.263376 -0.0858485 -0.993816
-0.754905 -0.496346 0.55332
0.032488 -0.194487 0.241697
-0.372269 -0.202359 -0.965549
-0.602491 0.242345 0.511336
