-4.33567 -3.94669 4.52498
-8.01625 -6.10082 -0.400087
10.0262 3.6007 -10.0078
-6.62026 -5.07505 -3.18607
-4.11597 -10.0106 7.86511
4.5363 -6.44664 16.1707
-5.97994 -10.0095 2.71425
7.25069 -4.42473 -17.4239
11.4628 9.94027 1.41678
-3.23786 -0.893058 -19.0048
-6.16998 10.0065 0.747122
9.38928 3.11387 5.12242
-6.16371 -10.0059 -1.0573
8.22833 -10.0114 -8.84613
8.26296 1.55519 18.98
10.0495 -10.0145 -5.95819
-8.21147 -1.56149 8.05383
-1.78849 -5.99815 -11.6944
-4.86077 -10.013 -4.37109
-7.87662 1.33882 -9.97379
11.7425 2.97091 -9.77302
1.45161 6.98944 -14.9095
11.7871 9.60492 -4.61376
7.55825 3.42995 18.943
6.36668 8.107 -3.88458
4.07645 5.97364 5.55048
11.696 4.20886 -4.55721
5.53924 6.04405 -4.70222
8.25352 10.0054 7.64596
-8.20656 -7.78963 0.985729
3.4097 -6.83203 17.4641
-3.88799 9.87024 -9.82528
-6.69787 -0.256126 10.0085
-4.40824 -3.2813 17.2697
-2.93452 -9.84175 -4.0827
4.53323 -3.43624 19.0051
7.63219 -8.35897 1.33324
7.25275 10.0034 -6.00771
-8.10275 1.38526 6.05279
-6.41094 0.326883 6.00295
-2.22224 -3.1147 5.12837
-7.40797 -9.9687 -9.79285
-1.71958 1.6931 -5.75165
7.64497 5.9383 1.82691
-6.03652 -5.58974 2.16113
-5.93091 -10.0074 6.35832
-8.20656 -5.80738 -7.98409
5.84462 -6.15239 -4.4228
11.728 0.932579 6.12451
11.5313 -9.96649 2.1648
-8.11885 -5.44964 3.13911
11.6276 5.31374 -2.99539
10.0914 3.15981 10.0057
-8.2096 7.85238 4.05644
8.54802 0.344144 -18.8898
7.84168 -3.54598 -15.442
-8.19777 3.51097 -5.31633
-1.63577 -9.77418 4.90762
-6.17178 4.57357 -3.90162
6.03927 -5.56243 11.4191
4.79893 -6.3183 -12.1172
7.35909 4.26032 -15.5018
-8.21188 8.1606 2.02609
11.7537 -5.95669 1.99988
-8.20758 -8.2169 -5.51677
-8.06458 4.77205 -3.94172
6.82097 8.06935 -10.0111
-8.20811 -7.92009 6.3787
-4.75236 -2.47875 -13.7887
-4.86599 -10.0082 4.37812
-8.21163 8.12136 6.08263
-5.19161 0.455702 -16.958
-1.98601 2.60427 19.0045
7.77249 -6.084 -1.47361
11.715 -7.7907 9.82285
-4.45807 4.16721 -4.30589
-1.02335 -6.68528 -10.0871
-4.91935 -5.00136 -3.29842
-2.52992 -5.50518 -15.321
11.806 7.96347 -1.05194
4.00682 -10.0072 7.38176
-1.64695 -6.10981 17.3056
9.80605 -10.0104 0.795991
-2.56193 9.94908 4.41542
2.59388 -6.68987 18.9575
11.3091 9.75813 9.90432
8.17683 2.88864 -14.9355
-3.66299 -5.40203 2.89746
3.27966 6.85836 15.343
4.87108 -6.28991 14.3302
7.3411 9.94748 9.6415
-2.27573 -7.90798 -4.39848
0.885771 3.3139 5.93495
-8.06663 9.87014 -1.21819
-1.59458 9.8396 9.89277
2.20786 -10.0093 8.16786
-8.20994 -6.4961 -4.22073
-8.07768 -4.17537 9.83404
-8.20485 2.26339 -5.93621
11.8084 2.12724 7.79555
-5.42635 -9.92948 9.79271
2.06159 6.99908 11.7513
-1.25932 0.144468 19.0023
-0.120052 7.46935 5.68191
11.6182 9.91433 -6.41047
-5.08334 -1.2834 -15.5481
11.6246 9.86411 6.43125
0.3025 9.92308 -6.10024
2.76288 6.93247 -13.2919
-2.18082 -10.0086 -8.54934
9.9589 4.30717 -4.16266
4.88775 6.28142 -15.4255
7.14631 4.6432 -10.1828
11.4743 -5.00429 3.39197
-2.65367 -4.54514 4.10421
11.5087 4.89304 -9.92781
-8.2063 -7.26442 7.97841
9.60656 -5.50528 2.37278
-8.21164 -7.7505 2.75506
7.76387 3.65435 -11.7917
11.7629 9.73287 -2.89296
11.7615 9.69981 0.123859
-5.05533 -2.61862 -10.0401
-2.65193 4.62642 -4.09336
10.0424 10.0135 7.99552
3.81653 6.41559 -5.65017
6.09466 -9.89493 4.45946
-0.441351 -6.63878 -18.3783
-8.20926 8.09749 -8.22799
11.6862 -3.96951 -4.78018
-2.45795 5.55815 14.8148
-3.07727 8.13136 -10.0115
11.7031 -9.83516 -1.51705
4.32222 -6.38464 -5.4528
-6.3981 3.2842 -5.03126
7.50882 9.84094 -9.86525
-4.37357 2.75572 18.9484
8.21868 -2.78316 12.284
-4.75819 2.50112 -17.3229
5.54143 1.21648 -5.89727
-3.70981 -10.0112 -6.01614
5.53583 9.97661 5.10014
-3.64103 4.38572 -18.6062
-1.93839 -10.0073 -6.8343
11.8077 7.94802 5.81871
-6.62352 -10.0163 -4.81488
-8.20584 5.27615 -6.22353
-0.682462 -3.92759 19.0052
-8.21223 -5.93864 5.54962
1.69769 4.93269 -19.0039
-4.80308 -2.33083 15.3783
-8.20926 4.47903 6.33345
0.792019 6.94378 -12.5373
2.3613 0.313974 6.00637
9.39206 9.9072 -9.84726
-8.05715 9.80715 0.616412
-6.11949 9.8682 -9.87339
-6.72677 -1.70938 5.74016
-3.67134 -10.0047 5.89798
-7.86166 4.78075 9.97371
9.78574 -10.0071 -1.43001
10.0601 10.0184 -7.91573
0.426774 -6.85486 11.3282
5.68663 9.95476 9.71593
-2.69962 -5.7343 -10.0673
11.6078 6.46147 9.92679
6.24451 -3.90931 -19.0064
-8.20689 7.96839 -2.00279
11.8115 -7.99256 -8.14063
4.40554 -6.43808 -18.6879
-8.20611 6.43873 -4.80603
-6.18868 -5.99534 0.344074
7.5432 -3.98813 -11.8916
-5.16208 0.767299 13.6728
-0.59717 4.3037 19.0057
7.4223 8.23761 10.0113
11.8053 -6.75453 3.97268
8.49071 -5.59812 10.0028
-7.96634 -3.2492 -9.95135
3.72349 9.70273 9.96079
-8.09547 3.09231 -9.74496
-2.05673 -1.12908 5.89515
7.14028 3.13642 5.11561
-8.10662 -8.12307 9.75506
11.6902 -2.51162 -5.74796
6.12497 -8.0158 -4.1418
-4.12008 -10.0096 -7.95953
5.74455 -10.0103 8.12642
-2.60603 4.55692 4.18786
-8.22492 8.1658 8.12307
-3.25402 9.61365 -3.32748
9.83323 1.62107 5.76635
9.65653 -9.67914 -9.94132
8.31938 -10.0031 -6.96209
4.21225 0.895256 5.94732
3.47076 4.7912 19.0048
-8.08811 -9.84342 5.60561
0.736367 6.96929 10.3197
-8.20821 -8.1227 -3.47024
6.26944 6.39412 9.99576
11.8048 -7.57984 -6.38747
6.3651 5.31552 -14.0051
4.37574 10.013 -8.41386
11.4596 1.08568 9.97035
9.42291 -4.64244 3.78844
10.1916 7.1029 -10.012
-4.52401 2.99769 -13.8333
-3.12667 4.99098 -16.3569
11.8067 7.95448 -5.58174
-1.89585 -10.009 6.80451
5.07365 3.64111 19.0056
11.775 -9.70707 -3.24688
-2.36608 9.75574 -4.45634
-2.85655 7.31859 -3.78518
-7.92882 9.98071 2.42912
8.66958 -1.35486 -13.1295
-6.30499 -10.0076 0.930378
11.7727 2.78701 9.68862
-4.76757 2.40905 -11.8423
-8.20548 -3.40539 7.90849
-0.298417 -4.42746 -5.61696
8.3857 -10.0039 -4.92071
-8.21662 0.592729 7.99223
-7.84951 8.39612 -10.0018
-8.22149 6.24423 2.25806
11.8078 4.58462 -8.22612
-0.254387 0.785179 -5.96345
-6.082 4.13933 10.0062
-4.59041 2.84845 13.8467
-8.21107 7.87816 0.0583669
-1.49782 6.1837 16.3762
9.23998 0.204996 -10.0273
-1.63852 -9.77797 -4.97643
1.08547 -6.83954 -18.8002
-8.20077 -2.36664 -6.00158
11.8038 -3.73316 -7.45278
3.33858 -6.2475 5.8119
-5.75428 8.02301 10.0086
6.5037 -3.48193 19.0171
-0.741657 -9.88089 9.86567
11.8072 -8.21929 3.07577
7.75345 -10.014 7.88538
10.2463 -10.0122 -3.8158
11.8103 0.306534 8.13067
-8.21628 -8.40223 -0.567
-5.74838 4.75 3.67331
0.15715 2.37051 19.0032
-3.43766 0.927795 -5.93861
7.63674 -3.87383 15.7699
10.0313 -10.014 -8.01718
-3.0664 2.96303 -5.22508
2.74346 -7.62268 -5.92399
11.7124 6.06342 -1.49665
7.37657 -5.26062 3.01067
-6.52025 10.0197 -5.27782
11.6393 5.08499 3.47465
-4.73129 -2.49006 11.8338
6.71139 -4.9918 -15.7809
7.56163 9.88712 -2.36605
3.71582 9.76938 -9.83566
0.928463 10.0102 -7.94064
-8.20842 4.52122 8.25986
9.27997 5.39226 -10.0032
10.0494 4.39627 4.06847
2.1007 5.49572 -6.01029
11.8043 -5.77244 -7.92879
-3.44667 -4.37316 -4.09409
11.7717 -9.70914 -5.19019
-2.5494 4.89209 18.9407
-4.1694 3.66964 -16.1557
7.3009 4.32305 11.9886
4.56172 -8.12585 -5.32114
-0.124373 -9.9345 -5.92744
4.74227 -6.54156 10.1223
-5.18752 -9.84855 -9.86262
-3.89916 -9.87966 -2.44304
-8.21411 -7.83426 4.4699
-6.58947 10.0211 -7.67557
3.98852 4.49781 -5.5892
-4.68877 9.936 9.79693
8.32493 -2.57649 -17.0292
8.27054 -8.29043 -10.0092
1.5586 6.85861 18.8643
11.5289 9.96965 -1.33974
-7.72282 -9.94462 9.68506
9.27677 9.78953 9.8629
-6.13492 -4.37471 10.0057
-0.128509 -10.0137 -8.0229
-7.99699 9.96321 -9.38533
1.45941 -4.30325 -5.99164
-6.55185 -2.37572 -5.49985
2.93765 10.0125 7.96655
4.04776 6.65185 11.7276
9.9383 -6.6161 10.0078
7.10221 -4.57595 -13.8509
-1.32362 3.61945 -5.12297
-0.952485 6.44054 -12.6072
5.99555 5.61853 16.8265
0.501883 3.03245 -19.0044
11.7339 -0.840083 6.14946
7.58885 0.808422 -5.95543
5.13809 8.24869 10.0118
2.71085 -6.59152 -18.963
-1.21503 9.92178 5.45443
8.5638 -1.84292 -14.9664
-4.43131 -2.5101 -18.9182
11.4683 -0.795289 9.93873
5.96595 -2.84385 5.27512
-8.10849 -9.80822 -8.0278
-4.58461 -5.86644 -10.0026
3.77376 4.67462 -19.0079
7.00609 4.6858 15.3969
-4.97746 -0.445655 -18.8848
-3.64203 -3.93786 18.959
3.04077 7.2328 10.0074
-4.94496 1.29285 -18.8432
1.67581 -6.55916 6.00823
-3.53404 4.53701 13.637
-8.21257 -7.44934 -1.9437
2.53392 -6.9632 -15.1726
10.2107 10.0069 -4.32773
-5.94317 -3.93242 -4.54215
-8.16832 -5.97851 9.70686
4.74282 10.0133 7.89921
10.1258 -0.0482675 5.9988
8.45764 -2.16848 -11.5029
-4.21791 6.71101 -10.0028
-3.58968 4.46813 -14.3501
2.84411 10.019 -7.65585
8.9928 -1.35824 -10.0466
4.57969 -6.26438 18.7985
-5.19318 -0.330953 15.3725
-8.21341 1.94557 -7.94521
8.67672 -10.0064 -3.11423
-4.26636 6.10033 -1.02012
5.70479 6.24922 4.55968
-8.20643 6.32833 7.79805
-3.84867 7.88204 -2.00642
6.11321 -1.86867 -19.0051
-7.66961 -1.76967 -9.97743
9.7457 -3.33013 4.97329
-3.16607 -4.95762 17.2942
-1.52236 7.88853 -5.00115
6.22841 -5.42129 -12.3817
-4.7123 10.0186 -8.24704
2.62797 -5.58344 -5.94688
-0.468068 8.22644 10.0043
-8.17641 4.79554 -9.63202
8.44153 -2.23732 14.6166
3.25411 0.146775 19.002
6.49086 -2.27064 -5.55892
-6.07002 -5.80076 -1.51224
4.02047 9.8931 5.77193
-1.69125 -6.06395 11.934
-8.20724 -5.17815 7.47884
-2.00463 -10.0149 8.59895
7.7879 -3.93818 4.53837
-2.34182 -7.89918 -10.006
6.75465 -10.0048 -5.94211
0.99395 -6.85995 18.6896
-6.10391 10.0063 4.33828
-3.11939 -9.85388 3.6986
11.4994 -0.555744 -9.93786
0.251633 4.55823 -5.79536
-0.0598201 -6.75318 -11.5964
8.1082 3.05734 -16.9595
-8.11444 -0.379208 6.22826
11.7819 -0.562804 -6.23274
-0.241504 -6.70204 13.2108
-1.40348 5.98419 5.07413
-6.06933 3.41061 4.93843
-4.36577 -3.31714 13.4925
-0.237067 6.7042 -14.4881
7.4986 -9.79697 9.90466
-1.04034 10.0107 7.74489
11.7799 -7.01335 -9.74481
-4.18661 3.62874 11.9
-3.49816 5.65259 -2.84017
4.22073 6.41393 -18.8713
11.8074 0.40045 -8.10948
4.82274 6.31236 -13.4757
6.11772 -8.05491 10.0138
6.05742 -0.513805 -5.99442
3.26386 -4.79522 19.0115
3.9285 9.89161 -5.79354
5.96013 5.61662 11.358
-0.139639 9.95013 -9.73222
7.93928 -3.07793 18.814
-6.25358 -8.33619 10.0214
9.66649 10.0054 -2.28617
6.65743 9.84919 3.82448
0.669204 6.7335 -18.8187
8.90497 1.61251 10.0507
-1.56309 5.89351 -4.97498
9.81537 -1.69218 5.75963
4.22701 -0.931734 -19.0042
-6.39859 9.79134 9.90517
1.95361 9.94228 -9.72667
6.26243 1.85411 19.0032
2.68106 8.20567 -9.99222
-5.1967 0.339442 -15.007
8.30084 -2.62038 16.9162
9.89051 -2.66289 -5.38202
-5.69047 -10.0032 -6.49191
0.300513 5.27623 5.8102
-8.10043 6.60685 -9.78151
-8.01997 -4.46869 4.22532
-8.09801 0.687161 -6.11367
11.8101 6.86665 2.58927
-4.18356 7.87888 -0.0856085
4.99107 -10.0045 -6.81238
6.74338 2.70534 -5.36085
-6.26239 -10.0264 -8.1958
6.39063 -5.29011 15.3869
11.8027 -4.71882 6.90484
-3.93143 -4.02366 15.5294
11.8114 -1.52025 8.06872
-5.06298 -1.39506 13.6523
-8.20426 6.30573 6.01219
-3.6162 -2.09719 5.62887
9.25925 1.78943 -9.99285
11.7022 9.79689 -8.28609
11.8057 6.37757 4.7059
-6.58217 -6.44675 10.0114
-8.2087 3.91365 -7.69558
8.39041 10.0039 -4.25455
2.47762 6.97682 -11.5741
7.46169 8.00402 -1.94939
11.8056 7.60309 7.72359
-3.03597 5.08366 17.0321
-7.9208 6.00835 0.723827
6.77361 -0.124783 -19.0042
7.31098 -4.30067 12.0256
-8.20554 7.78464 -6.23344
7.80759 -6.50797 0.135196
5.9549 5.26538 -18.967
0.128943 6.44998 -5.76389
11.8127 -6.21738 8.22685
-8.18969 -3.52407 5.47667
2.0122 3.52286 -6.01111
11.5639 -9.93231 4.12716
8.33011 2.51825 11.9933
0.17348 8.35781 -5.77821
6.35234 -10.0098 -8.08882
4.45586 -9.85801 5.48189
0.679682 8.53706 -10.0045
-3.80823 -4.19178 -14.2752
8.09072 -3.0747 -13.4138
11.7704 -4.39701 9.62003
-6.24937 -10.0144 8.19488
6.21384 5.43534 -15.9832
-2.7989 -6.1258 -3.84194
8.09682 4.34368 4.13066
-8.12668 -9.78357 1.62598
3.79512 -10.0067 -8.13485
11.8072 -8.01714 -0.726921
-8.20467 -4.5088 -6.31269
-4.54473 1.72837 5.75257
9.74223 10.0115 -0.06317
-4.81934 2.6957 10.1117
-0.0548341 6.53943 18.8908
-2.48518 -8.13859 4.19953
-4.91536 -1.97632 -11.8312
-0.979629 -9.63746 -9.96443
-4.24008 -6.05254 1.29144
7.5278 7.86537 1.74343
-8.0443 -5.08591 -9.85469
11.7231 4.04922 4.83727
-2.13739 -6.32991 4.52549
4.09557 -9.94754 9.60603
-7.98002 9.94742 5.8412
4.36457 -4.51641 5.42703
2.80868 2.41075 5.90979
-2.92657 1.16278 -19.0048
-8.16212 -9.78723 -2.07229
7.17722 -4.65338 10.2648
-6.17843 6.05952 10.007
-5.06875 -1.41007 -17.4397
-3.04831 -0.869659 19.0061
5.79899 4.25821 4.50576
-8.2046 -6.32107 -6.13858
7.77694 7.98675 -0.0824878
-5.19805 -0.336382 12.0372
8.80811 0.419167 17.558
-0.360124 4.64384 -19.0045
4.99438 8.01728 -9.99876
-4.29776 3.83309 4.61506
11.8084 -8.29976 5.26941
5.11705 -0.997863 5.92304
-6.59783 2.07093 10.0043
0.135369 -6.81616 16.8246
-8.21173 6.05649 4.35879
11.5399 -9.98058 -9.28421
3.38791 7.99989 5.78783
3.52645 1.32227 -19.0047
6.72674 -9.86852 -3.70363
0.110284 6.8098 16.9932
-4.77334 -6.24211 10.0021
5.99662 -4.48104 4.2962
2.4577 6.87749 -18.8369
8.72854 1.0351 15.8227
-8.20538 6.04739 -7.85074
11.8064 -5.5039 5.20131
-1.09763 6.42744 10.3448
-7.96381 -3.55848 -4.89961
-8.11891 9.75754 9.58173
9.51101 10.0043 2.19845
11.8047 -7.89788 1.21095
-8.20775 8.13369 -4.03218
5.22256 6.10853 14.973
9.63088 5.94087 0.833071
-6.20036 10.0083 -3.18832
-3.75165 -4.13789 -18.7021
-3.57049 -4.5084 -16.4043
9.34533 10.0048 -6.13582
7.74677 6.47926 -10.0002
-1.26045 9.94394 -5.49111
1.3168 4.79437 19.006
7.86501 -6.32886 -10.0012
7.01002 4.71011 -17.4454
5.26379 -9.79697 -4.95412
5.5973 9.84637 -9.88102
-0.846457 -6.49481 -16.4375
4.12163 -1.70905 19.0026
-1.4299 -0.513118 -19.0035
-8.06813 -5.72234 -2.30281
8.1713 -3.34891 10.0942
-3.13628 1.08849 19.0056
-2.53133 5.49996 -13.3213
8.05471 -10.0034 5.33571
-7.95755 4.17694 4.36248
4.05799 1.96099 19.0028
4.94533 7.99503 -5.09465
6.52461 -6.11804 9.99357
11.8052 6.36951 -7.18896
0.0250478 -1.90395 19.0044
11.5137 1.25832 -9.95328
6.52705 4.97397 18.7489
-3.93066 4.02697 15.611
0.839532 -5.11612 -19.0047
2.41219 3.23257 19.0025
-8.17716 1.22297 9.77544
-2.30085 5.35363 -18.8369
9.87571 -4.27286 -4.19976
0.846758 -9.93005 9.77521
5.71871 5.94899 -10.1602
-4.34609 -6.1186 -0.562929
7.60868 -3.91014 13.8895
-8.201 6.00457 -2.85664
1.97017 -3.13699 19.0036
4.30338 -1.3295 -5.84716
3.79262 0.443308 -5.99349
-8.15066 9.76146 4.17733
6.68507 7.66127 3.47215
6.80204 9.85567 -3.55602
7.96595 -9.85865 -0.24604
11.8058 8.10574 -7.70693
11.7735 -3.97343 -9.6719
4.09501 3.92866 5.53325
3.25836 6.86261 -15.0537
3.35312 -6.84338 13.1445
-3.41589 -9.92974 9.78863
-2.65579 -5.3985 -13.3659
0.610213 0.239249 19.0022
-8.0521 9.9104 7.65008
-7.79105 5.18638 3.06209
-2.88746 5.19882 11.8014
-4.53289 -2.97824 -15.5358
3.23495 -8.23946 5.81481
11.6942 -2.49758 5.7215
-8.11241 6.4209 9.84384
-6.56469 1.54423 -5.78379
11.6919 -9.74309 -7.12342
-8.21425 -1.76752 -7.99462
8.74093 1.13447 -17.1864
-2.26907 5.69262 -11.5328
5.97179 -5.30353 18.9497
11.5515 -5.9669 9.91576
9.28469 5.2905 -2.82957
8.23116 10.0111 -7.93792
11.8028 3.89792 7.36486
4.29925 6.54808 16.9472
8.07205 3.32944 10.1764
-3.82264 -5.87819 -2.22523
-4.9979 1.27471 18.8244
-1.30519 -5.83776 -18.9735
-8.11144 6.09338 -1.07977
8.53436 1.95474 14.1903
-2.34853 7.67843 10.0074
0.30811 -0.835966 -5.95569
-1.8757 5.96352 -15.0564
-6.31346 -6.3515 -10.0186
3.51708 6.81146 -17.0207
-4.23708 6.10762 1.13351
5.82444 -9.89134 9.88757
2.73185 3.12292 -19.0026
8.04497 -5.87348 1.31384
2.04246 -2.59936 6.00417
-4.44747 -9.89891 0.470094
-3.41602 -4.66295 11.9413
4.34665 -6.53284 -16.029
7.94684 -9.95385 1.5277
-5.10718 5.41109 -2.61035
9.89962 5.89258 -1.09927
2.32943 -0.555154 -19.0021
-2.33211 -5.75229 10.2247
-5.25351 -1.12217 -10.1156
5.99297 -4.15516 -4.46969
-4.15366 -3.68329 -12.3268
11.6598 -9.82878 0.271289
3.55137 6.7913 13.5179
-1.75218 6.03407 12.8798
11.4648 -8.61895 -9.9867
-4.58406 2.89308 17.0707
-1.80469 -8.65928 10.0066
2.04314 -7.30072 10.0569
-7.95112 -9.93948 -0.192979
1.43004 8.25105 5.99433
-5.16541 -0.757493 -13.4106
3.29869 -9.77385 -5.87497
-1.7393 8.04636 4.84778
7.28403 -6.96266 2.39872
9.28111 10.0051 4.03603
7.5066 -9.81757 -2.03684
11.2581 5.66404 1.97671
-5.38893 0.437455 -5.99923
-2.37148 -5.64664 -17.34
5.1259 5.96921 18.8016
-8.10815 -8.47727 -9.73926
8.26435 -0.133154 19.0112
-0.825918 -6.48948 -13.1703
8.06066 -2.34609 5.5327
7.26427 4.80817 10.0749
-1.90476 -5.94125 13.7945
6.29019 -10.0056 6.37949
-6.34394 1.95335 5.68769
0.577556 -6.89906 -15.1071
-4.60741 10.0124 -4.37818
-3.09372 8.38679 3.45357
5.6537 -5.85573 -17.0321
-7.88423 8.04035 9.98076
-2.02923 9.90382 -9.69019
4.32655 -6.53224 -13.9749
2.02054 -1.23621 19.0028
-0.776292 -6.51162 15.2649
-2.90783 6.60643 3.71207
-8.20626 2.60936 7.65811
-2.0965 6.17137 -10.034
-8.20623 0.121629 -7.96736
5.31978 6.06944 -17.4337
7.41965 4.19915 17.2006
1.0969 -6.96765 14.6611
4.00806 -2.81898 5.59166
4.1229 -2.81577 -19.0052
-3.52207 -7.60742 2.76658
4.67336 6.5914 10.1017
7.25113 -4.45459 17.6129
0.691417 -6.32018 -5.91058
5.84012 -5.7295 17.1545
2.05702 9.95337 9.72805
9.22886 5.35386 2.71788
9.36121 -9.97068 9.62886
7.98604 6.10311 0.0181129
-0.808947 1.50918 -19.0058
5.1289 -9.91586 -9.77963
5.24146 2.4522 5.47143
-0.834104 -7.86376 5.41158
7.67602 10.0017 5.55648
-8.11977 -4.76343 -4.00424
0.971675 10.0084 7.82507
-8.1507 -6.85597 -9.73411
10.1846 2.74295 -5.33524
6.29511 -5.36799 13.435
1.00545 -2.53127 -5.95071
7.9153 9.89927 -0.843255
8.38621 2.43127 17.4908
-2.95938 -7.30672 10.0016
11.6466 1.10762 -6.04579
11.7826 2.67835 -5.72009
-0.203212 6.72214 -16.6439
5.39843 0.224323 19.0045
8.55476 1.83206 -11.4026
-2.32534 -5.24587 18.9817
-3.96423 4.39947 10.0687
11.7119 4.53051 9.78034
2.81848 -6.92798 -13.2366
8.75089 -0.990231 16.3915
-4.1981 2.94432 -18.9514
11.7857 -5.38291 -3.47435
8.79556 -0.33464 14.4619
-4.91369 2.01036 -15.4463
9.55846 0.904607 -5.94432
9.45595 -10.0038 3.08316
-5.82771 -4.8338 3.55947
-5.19449 -2.51521 5.45
-1.26456 -6.15488 -5.16053
-4.19049 9.95342 -2.08698
1.74432 -6.99757 12.6053
-1.22382 8.23463 -10.0081
7.40382 3.87053 -18.8997
-0.427216 6.67007 -10.341
6.37891 -1.3296 19.0093
11.8145 -8.28092 7.72269
1.66322 8.34461 10.0015
-4.34295 10.0049 5.20803
11.8053 -3.21786 7.62187
0.202243 -1.83283 -19.0023
5.118 0.715921 -19.0026
1.06544 -8.27701 5.9736
2.99592 -6.89883 14.9972
1.86992 -10.0133 -8.17276
3.32654 6.69045 18.82
-5.20759 0.196442 -11.6602
0.486796 -8.04073 9.99447
-1.05487 10.0092 -7.6796
9.59948 -10.0078 7.25225
6.42051 10.0082 -8.15693
5.31459 6.05663 12.991
11.8057 -5.55499 -5.87275
7.03242 -9.7527 -9.95071
6.36373 10.005 7.23688
-8.11555 9.78777 -5.12064
11.7635 8.12915 9.72643
8.65769 1.408 -15.397
1.71071 0.986352 -6.00305
11.4574 -9.67084 9.87649
-4.7722 2.39643 -5.50557
-0.461285 -2.29661 5.61644
-3.72996 -0.979245 -5.92025
11.7944 9.67637 8.09737
11.1644 9.70444 -9.99863
2.34253 9.90066 6.12806
7.86752 -4.32829 -4.15006
-3.7967 4.20464 -12.1351
4.82242 -2.88947 -5.33923
11.8056 -7.5048 -4.55454
7.72744 -8.16859 -0.937844
5.08468 3.09757 -19.0033
-0.623446 -6.29178 18.917
-3.36547 4.82579 -10.2013
0.981052 -6.95613 -13.3936
0.420133 0.0714257 -19.0024
8.79249 0.208 -13.9725
6.28111 -6.47078 3.99713
1.10147 -8.23865 -5.9502
-5.06848 -0.492128 18.8462
-5.09095 1.23733 -13.3371
-3.27328 10.0109 -6.05558
-1.95093 3.16585 -19.0041
6.67302 -8.28803 3.48377
11.7929 6.46987 -9.56655
2.8859 -9.75777 -9.94265
-8.20818 -7.8908 -7.67985
-8.2093 -3.68441 -8.03863
0.213958 9.97007 9.74442
-4.3247 6.6031 10.0023
-3.86694 5.36802 2.85781
-6.19059 -8.24632 -10.0237
-4.5974 -2.35918 18.9162
8.74548 -5.29014 -2.81552
-3.79556 4.08338 18.7452
9.68463 5.25458 10.0046
-2.92351 2.81351 5.29066
-6.6925 5.09329 -10.0167
-4.29493 -7.83056 -10.0153
6.22537 -7.89673 -10.0074
-8.19145 -2.05354 6.09111
8.51441 2.55361 -5.43188
11.8027 5.65694 6.33498
-6.41987 -3.57436 4.81829
3.67251 6.899 -10.0922
11.806 6.14945 -4.94908
11.6537 2.56836 5.66267
-8.13907 -9.73394 7.63607
-5.79981 0.218412 -9.99203
-3.19504 -9.78997 -9.9402
5.96821 -5.46937 -18.7491
-0.812573 -6.776 10.051
11.6919 -6.17735 0.127995
7.9982 9.93584 0.925361
-2.27652 1.21083 5.87836
1.97539 -2.57072 -19.0034
-4.07396 -7.91126 -1.10885
9.98069 -4.36733 10.0102
-1.17197 3.80098 5.22038
6.32635 5.33901 -12.0153
9.88458 -8.46658 10.017
-4.97494 1.78168 15.4292
2.4581 -4.3713 -19.0038
-5.17544 -0.878827 10.2441
-5.96111 5.6298 2.07046
2.95498 -6.92551 -17.2042
-3.27624 -4.81929 13.8187
9.99487 -5.95379 0.770029
5.56221 9.83508 -4.86034
-1.79223 -0.604577 -5.98624
11.8064 8.1344 1.30334
-0.707134 2.13207 5.64581
7.58418 3.94925 -13.451
1.86666 -7.01156 16.5802
7.02857 -4.79501 -10.1857
2.34405 -4.59841 5.98539
11.5187 -5.5198 -9.88275
8.52497 -1.59701 18.694
11.5897 -9.92263 6.21324
-6.66957 -10.0096 4.55273
-3.83744 7.83017 1.94702
-3.65526 8.65433 10.0128
6.23996 0.737077 5.96735
-8.06108 -9.90095 -4.02405
10.0852 -0.888162 -5.93662
4.29539 -4.61181 -5.45726
-8.03322 9.88947 -3.0671
11.8046 2.52935 -7.80079
-0.322339 -3.74241 -19.006
-5.11437 8.40829 -10.0119
7.74846 5.91285 -1.64754
8.09636 -3.04891 -5.17535
6.60014 5.09181 13.6813
4.14743 -8.38357 -10.0071
-3.6679 -4.75068 10.0969
11.7226 8.24401 -9.79693
8.70305 -1.1678 12.6326
11.8061 7.58505 -3.29197
8.06083 4.11295 -4.36532
-6.19687 10.0215 8.23312
-7.8576 -2.37759 9.97321
-0.652133 0.0423391 6.00106
11.5141 9.96541 4.67902
-0.0334919 6.75868 12.4102
3.31013 -1.12401 5.91646
-2.04539 -2.44158 19.0033
2.32945 -1.02726 -5.99744
2.23137 7.01426 17.1486
9.86629 -10.0096 5.06738
-2.06126 -2.62224 -19.0041
0.380061 9.83846 5.98616
-8.16134 -0.284771 -9.79693
-8.08286 -9.82128 3.38091
6.97503 5.37056 3.21583
-3.78557 9.9705 3.08201
9.72204 10.0054 5.96372
0.615917 -3.92556 5.88862
11.6275 9.90675 2.94813
11.5792 -3.80465 4.70325
-4.33829 -9.92113 -1.11498
8.30859 -1.67828 -19.0027
11.8034 -1.6949 -7.86717
11.8084 8.18442 3.78482
-1.9336 -4.19287 -4.7174
8.1297 2.99787 15.7417
8.88613 8.17606 -10.0157
9.83735 -7.13952 -10.0072
9.77985 7.87837 10.0157
8.34731 -0.0689771 6.00423
-4.09753 -4.04239 -10.1732
-0.0415015 -5.97515 5.70707
8.21232 -3.448 -10.0814
2.42521 -9.67081 9.94661
-4.36069 9.88856 -0.401318
0.980605 -9.70578 -9.95212
5.84036 4.12295 -4.49309
7.80364 3.60565 13.8252
-3.19493 -4.89706 -11.6322
6.95666 5.05801 -3.34027
-6.09509 10.0074 6.30724
1.9533 1.54469 19.0024
1.60291 -7.0026 -11.6025
8.7857 0.0364023 -11.8941
5.20254 8.107 4.93173
5.70492 -5.81491 -14.5502
-6.18604 10.0139 -1.2381
1.59803 1.47743 -19.0045
11.5162 -9.96237 8.19275
-6.08578 -10.0085 -2.84188
-5.1708 0.730074 17.1504
-6.43973 3.0487 -10.0125
1.8304 7.44906 -6.01535
0.954629 1.28809 5.95868
-2.95964 10.0075 9.07499
3.26997 -6.8514 10.9387
-4.53567 -2.91667 -5.25151
-8.10174 -0.618612 9.66846
5.1935 -8.16442 4.93807
-1.88483 5.9718 -17.1463
4.3117 -6.70903 -10.1037
-6.90345 5.40384 -2.59227
11.803 -6.86664 6.3979
1.62584 -9.94661 -6.27067
-5.78803 5.97339 0.446464
-8.04173 -5.9608 1.49679
1.59949 6.99522 13.6468
9.58072 -5.93703 -0.896358
-1.11088 -4.50241 5.25778
2.37606 4.60465 5.98431
11.6873 -2.75048 9.76462
-0.515942 6.61943 14.6112
-2.52063 -5.5118 15.5393
7.29199 -9.93975 3.14697
-4.33531 -8.27512 10.0135
8.79921 -0.413963 -15.8931
-3.46535 0.0124315 6.00159
4.23729 -4.70565 -19.0048
8.35487 2.14393 -18.7465
11.72 6.15416 0.319415
3.97416 -8.22664 10.0025
-3.4651 -7.97575 -2.87182
-5.19812 0.881046 10.2518
7.81418 1.73622 5.74743
-8.17252 9.73257 -7.07483
-4.04668 -9.8882 2.11366
8.65239 -1.64127 10.4121
-2.82997 10.0084 -7.8426
0.0343722 -9.87028 5.85519
8.34706 6.54038 10.0053
7.15807 -7.6941 -2.69896
-2.64449 5.65937 10.0987
-2.71967 -2.56031 -5.4253
6.8615 6.69286 -3.22641
3.17798 2.20522 -5.80963
5.70818 -5.89045 -10.2185
-8.00203 2.90503 5.4196
-5.82945 10.0076 2.59794
-6.17237 -4.25764 -10.0071
7.00531 -5.54464 -3.10444
10.0661 -2.28278 10.0055
0.102387 -10.0085 7.81721
11.7437 -2.26189 -9.7427
-2.49724 -4.90868 -18.9925
2.21283 -9.89755 6.2055
10.3439 -5.3869 -2.60096
-4.39145 10.0069 7.50479
8.23071 3.33775 -10.0733
9.38522 -0.142526 10.0067
11.8072 5.67601 8.20965
-6.32541 7.06502 -10.0217
9.58587 -5.0327 -10.0034
1.31592 6.98276 15.4725
8.7669 0.778695 12.9835
0.479855 -7.41479 -10.0035
-5.1928 1.68146 -10.0985
-0.688287 -7.9984 -5.45982
1.11042 -6.97771 -16.8984
-5.13489 5.20928 -9.99948
2.98618 -3.08924 -5.88097
8.76803 0.382196 11.3363
8.19012 -1.13592 -5.89828
3.26418 8.23864 -5.80806
-4.12252 -8.03287 0.900427
10.112 -2.94259 -10.0075
-4.22172 9.84348 1.35045
-2.72935 10.0075 6.68595
1.6452 7.01445 -16.9409
7.33506 9.80601 2.50715
-8.12274 3.04464 9.75315
-7.89188 -0.732668 -5.98472
-5.07644 -1.34935 17.123
-6.32359 5.91291 -1.02906
4.41583 6.49485 -11.7432
0.339094 2.53714 -5.81907
4.71462 2.77922 -5.33216
8.52793 1.97323 -13.2146
0.953511 -1.0172 5.96229
5.29529 10.0057 -6.81133
11.8054 4.5337 -6.41889
4.82852 -6.30289 12.2922
-4.37237 -3.51754 10.215
1.30788 7.05314 -10.2335
-4.47841 -3.13011 -17.2042
-5.06672 10.0049 -6.41976
-5.64309 -1.16299 -5.88918
-4.97041 1.80698 11.9924
-0.86062 -2.49627 -5.50051
1.11125 -4.9005 19.0057
6.63145 1.919 -19.0133
2.32899 -7.39341 -10.0106
-0.939319 6.32854 -18.7158
-1.58772 6.12249 18.5548
2.00564 9.73353 -5.98069
11.8053 -7.71451 -2.70297
-5.49191 -2.28869 10.0067
-1.18034 -6.33359 -14.6806
7.82115 -3.38389 -18.8332
-7.95877 -9.88136 -6.24674
1.94993 6.46424 6.01751
11.6764 -6.02188 -1.59076
3.24812 -6.85901 -11.4861
6.88314 -1.1443 5.89756
-5.01877 -0.628789 5.98623
4.88025 -6.34695 5.15557
-4.52384 3.38342 -10.0965
8.77892 -0.833403 -17.5365
8.08116 -7.71897 10.0059
