-0.940092 -0.212078 -0.119277
0.27435 0.405889 -0.214967
-0.392288 -0.503287 -0.682873
0.50351 0.297821 -0.782423
-0.931532 -0.209311 0.491319
-0.205164 -0.0116192 0.203654
-0.536674 -0.508863 0.444727
-0.408703 -0.449081 0.203143
0.79558 -0.187942 -0.224436
0.0313107 -0.31052 0.219347
-0.328459 -0.29018 0.206013
-0.514039 -0.300025 -0.852041
0.574207 0.234839 -0.157931
0.187363 -0.639723 -0.14454
0.758568 -0.140181 -0.932302
0.743255 -0.378834 -0.215695
0.592361 -0.0452355 0.115545
0.459917 -0.0969981 0.216324
-0.591502 -0.379132 0.601794
-0.342221 -0.446756 -0.98056
0.376545 -0.112764 -0.985088
-0.5941 0.495552 0.657448
0.19798 -0.764568 -0.46688
-0.0877238 0.231023 0.880152
-0.801926 0.550108 0.857408
-0.581139 0.429895 0.693544
0.728048 -0.22412 -0.0486384
0.639087 -0.410887 -0.800526
0.841188 0.0398799 -0.605502
-0.380265 -0.132567 0.309078
0.4712 -0.529059 -0.0547419
-0.935774 -0.324021 0.533386
-0.647336 -0.428179 -0.554803
-0.106896 -0.583057 -0.121902
-0.908819 -0.349355 -0.102981
0.441525 -0.00700117 -0.995876
0.273086 0.434374 -0.343763
-0.579462 0.218907 -0.187489
-0.72148 0.0517965 0.657356
-0.16253 0.408453 -0.555757
-0.819297 -0.308438 0.597194
-0.0667124 -0.556319 -0.0494278
-0.688983 0.0460633 -0.912253
0.385503 0.395683 -0.389581
-0.123741 0.426515 -0.601368
0.381295 -0.567279 -0.851411
0.984259 -0.0715334 -0.646588
-0.0146837 -0.679008 -0.592504
-0.932442 -0.358125 0.343096
-0.521211 -0.467392 0.39529
-0.246915 0.359782 -0.849495
-0.410966 -0.177341 0.444728
-0.0992961 -0.0144804 -0.932579
0.572291 -0.382735 -0.917214
-0.503767 -0.457151 0.477224
0.00233753 0.213099 0.0575797
-0.796895 0.0351695 0.00334644
0.307493 -0.262817 0.259579
0.437353 -0.327472 0.206769
-0.335751 -0.566699 -0.0940964
-0.573023 -0.563962 -0.835625
-0.355719 -0.142476 0.550071
0.480093 -0.614304 -0.710333
-0.784343 -0.251194 -0.525445
0.0518457 -0.382349 0.19216
-0.521706 -0.601721 -0.322465
-0.434963 -0.0213556 0.334864
-0.0189549 -0.659071 -0.660683
-0.134843 -0.548161 -0.0648199
0.00470445 -0.400278 -0.933838
-0.536038 0.0340691 -0.62375
-0.757938 -0.390052 -0.502911
-0.208828 -0.593097 -0.182161
-0.449365 -0.550515 -0.81116
-0.25329 0.147731 0.679969
-0.663414 0.134193 0.70193
-0.530493 -0.0884763 -0.984388
-0.79657 -0.624851 0.433324
0.387019 -0.690687 -0.268476
-0.140045 0.47404 -0.421092
-0.636378 0.0820917 -0.956847
-0.866091 -0.571555 0.432304
0.341961 0.401308 -0.615297
0.63612 0.194341 -0.158221
0.38674 -0.694947 -0.52376
0.0447757 -0.440628 0.150642
-0.727942 0.171226 -0.237928
0.145886 -0.387435 -0.934667
-0.0550213 -0.296432 0.190122
-0.647302 -0.543342 -0.0607877
0.0351912 0.159446 0.733944
0.22612 -0.245496 0.26319
-0.391923 -0.350997 0.303368
-0.518799 -0.0462814 0.608213
-0.925913 -0.634055 0.196697
0.170209 0.0862961 0.205803
-0.230215 0.307048 -0.497138
-0.0681922 0.444314 -0.648305
0.231331 -0.599035 -0.926085
-0.135259 0.0297019 0.681274
0.324089 -0.393559 0.203676
0.610232 0.232821 -0.216268
-0.72876 0.117788 0.693168
0.0957468 0.285032 0.83688
0.181363 -0.106846 0.263256
-0.405728 -0.557752 -0.0858711
0.435844 0.367552 -0.702317
-0.465368 -0.407206 0.464784
0.537045 -0.222921 0.174148
-0.0428893 0.359357 -0.835931
-0.329769 -0.540224 -0.66395
0.535995 -0.625579 -0.36303
0.811471 -0.0964789 -0.906261
0.296314 0.149928 0.153653
-0.859498 -0.0194251 0.103025
-0.146226 -0.599394 -0.185905
-0.593296 0.205621 -0.120933
-0.726152 -0.00981349 -0.952365
-0.943929 -0.222368 0.339409
-0.733187 -0.0721183 0.603089
-0.735581 -0.20207 -0.57656
-0.0612781 -0.672091 -0.235112
0.424653 -0.694227 -0.455346
-0.736102 -0.124303 -0.581325
0.102076 0.368981 0.885429
-0.0650816 -0.51726 0.0199899
0.139187 0.405812 -0.180274
-0.615147 -0.112455 -0.811944
-0.879365 0.00334442 -0.143671
0.928166 -0.0420335 -0.54064
0.787216 -0.319021 -0.584034
-0.621107 -0.0307364 0.587062
-0.348264 0.0805289 0.727906
0.642505 0.165042 -0.091154
-0.608892 0.622728 0.839659
-0.332064 -0.241279 0.241711
0.0669133 0.435904 -0.680433
0.0908303 -0.571664 -0.0555021
0.663143 0.210012 -0.25199
-0.199406 0.264525 -0.710632
0.593665 0.20118 -0.094381
0.265496 -0.421262 0.189215
0.69036 0.20089 -0.403107
-0.186069 0.0498445 -0.928694
0.231583 -0.560028 -0.0219904
-0.402868 -0.561327 -0.475898
0.0572355 -0.617004 -0.987377
0.481514 -0.275754 0.196368
-0.598348 0.565802 0.679312
0.792311 0.100651 -0.715825
0.573483 -0.557247 -0.636096
0.0502494 0.143255 0.668761
-0.921262 -0.336133 -0.260816
0.535423 -0.464537 -0.91002
-0.81895 -0.235807 0.599443
-0.587749 0.764121 0.856718
-0.720272 0.557856 0.775961
0.792825 0.0699955 -0.65484
-0.81899 0.0181286 0.133778
-0.683536 0.067963 0.33871
0.407843 0.382017 -0.313924
0.0779601 0.287685 -0.051427
-0.0562629 0.235925 0.0242824
-0.27621 0.231827 -0.798986
-0.111984 -0.711695 -0.95099
-0.364644 -0.114135 0.481326
-0.231499 0.288224 -0.181424
0.392884 0.335679 -0.800591
-0.181387 -0.575629 -0.122679
0.956506 -0.0197542 -0.603123
-0.382207 -0.43378 0.0973849
0.726822 -0.433757 -0.440745
0.34322 -0.449002 0.155364
-0.501855 0.243763 -0.374562
-0.0499671 -0.697847 -0.964898
-0.454588 -0.217341 -0.768582
-0.884236 -0.128009 -0.407162
-0.801404 -0.55717 0.00559403
0.835974 -0.171841 -0.89154
-0.399953 0.0496127 0.595674
0.915222 0.020809 -0.732725
-0.938682 -0.155476 -0.170753
0.00444673 0.240028 1.00022
-0.467014 -0.481694 0.0774027
-0.201567 0.163616 0.821842
0.736394 0.119316 -0.509087
-0.266422 -0.105896 0.240945
0.0468812 0.244693 0.858036
0.737538 0.0611163 -0.634403
-0.702457 -0.541687 0.531087
-0.263754 0.191262 -0.54151
0.436051 -0.0330107 0.218358
-0.640909 -0.163502 -0.845641
-0.58441 -0.334166 -0.875811
-0.856067 -0.0414444 0.368896
-0.540982 0.247859 -0.312838
0.49226 -0.341667 0.16788
0.77095 0.022984 -0.591191
0.376586 -0.0265574 0.240261
0.141414 -0.555063 0.0110846
0.80506 -0.0712237 -0.261981
-0.620384 -0.576279 -0.122794
0.735337 -0.348179 -0.146022
-0.401732 0.0151473 0.731545
0.279277 0.108533 -0.943935
0.103237 -0.742016 -0.26435
0.0197832 -0.665505 -0.725691
0.533702 0.100313 -0.879778
-0.0666795 -0.592318 -0.66768
-0.408346 -0.0652274 0.442495
-0.726855 0.109759 -0.452159
-0.889245 -0.356127 0.0373729
0.595655 0.0994595 -0.849297
0.0852037 0.187627 0.704392
-0.943246 -0.109732 0.212663
0.45475 -0.394024 0.148976
-0.948052 -0.291437 0.334348
0.361379 0.151484 0.145342
0.652044 -0.470045 -0.150434
0.319166 -0.727024 -0.51244
-0.517786 -0.457049 -0.582198
0.198049 -0.17836 0.267557
-0.5373 -0.365789 -0.979192
0.385879 0.229566 -0.984297
-0.103686 -0.619505 -0.46966
0.756516 0.0499335 -0.20063
-0.241965 -0.0457686 0.777713
-0.683384 0.167067 -0.429345
-0.795299 -0.0962094 0.580336
0.0623799 -0.57696 -0.118558
-0.222085 0.16917 0.740137
-0.858873 0.0150436 -0.348268
-0.201948 -0.567725 -0.31527
-0.629239 -0.629967 0.337573
-0.0575344 -0.476193 0.072952
-0.0386201 0.13099 0.739949
-0.487637 0.182345 0.0634943
-0.622232 -0.400618 -0.864484
-0.0245406 -0.0190759 -0.933445
0.29911 -0.688979 -0.700237
-0.379477 0.179429 -0.842996
0.38362 0.0910656 0.175764
-0.287042 0.235965 -0.402104
-0.73699 -0.546331 -0.165804
0.125559 -0.406521 0.193621
-0.0748137 0.12839 0.131073
0.664615 -0.493312 -0.539669
-0.761348 -0.149229 0.603278
-0.590904 0.576588 0.761337
0.906492 -0.333834 -0.735567
-0.940561 -0.299951 0.0556364
0.427208 -0.609654 -0.756648
0.359065 -0.504657 -0.996095
0.415403 0.237951 -0.0483401
-0.0472356 0.205665 -0.928319
0.743509 -0.368945 -0.599138
0.733424 -0.418144 -0.269164
-0.589613 -0.395983 -0.595997
-0.809476 -0.472338 -0.36233
-0.494341 -0.568595 -0.0693477
-0.378648 -0.387171 0.229745
0.226712 0.394591 -0.740385
0.379714 0.288009 -0.933867
0.384376 0.23661 0.0135506
-0.468315 -0.581658 -0.128873
-0.821524 0.0383235 -0.41248
0.50955 0.308264 -0.257638
0.773288 -0.197628 -0.921177
0.948142 -0.283099 -0.714795
-0.0763698 -0.72412 -0.36764
-0.661206 -0.390175 0.603867
-0.256371 0.043588 0.20832
-0.574479 0.208896 0.617281
0.026182 -0.73593 -0.256486
-0.197255 0.0564803 0.169602
0.722357 0.091587 -0.151652
0.463224 -0.648913 -0.336332
-0.891837 -0.292352 -0.00755308
0.132219 0.445314 -0.646167
0.939561 -0.229 -0.528998
-0.603485 0.195245 -0.0527225
-0.258604 -0.593724 -0.970295
-0.937729 -0.240756 0.419522
-0.641977 0.0791026 0.223217
0.210099 0.439248 -0.61729
-0.607426 -0.532567 -0.0126888
-0.125618 0.031647 0.588275
-0.438034 -0.598834 -0.219284
-0.289245 -0.0772755 0.7344
-0.708618 0.0590099 -0.499827
-0.253777 -0.187444 -0.983713
0.0703541 0.203757 0.0735237
0.746463 0.132248 -0.318241
0.263194 -0.161715 -0.99746
-0.818449 0.00697059 0.337722
-0.639352 0.722179 0.714216
-0.119768 0.0684278 -0.929998
0.253433 -0.136721 0.269798
-0.530526 0.000132947 -0.702397
-0.654093 0.728753 0.878
0.596025 0.212742 -0.715871
-0.37192 0.334895 -0.953325
0.33503 -0.668707 -0.764435
0.641544 -0.5431 -0.300176
-0.848784 -0.0709987 -0.445101
-0.129129 -0.465344 0.0527943
-0.874747 -0.35141 -0.0344003
0.67323 -0.487086 -0.6139
0.676477 -0.375016 -0.863493
-0.530191 -0.148155 0.611968
0.622053 -0.552478 -0.449519
-0.919523 -0.0971256 -0.206005
-0.450924 0.0951215 0.182882
-0.34426 -0.341761 0.177914
-0.0072565 0.496096 -0.45385
-0.554582 -0.495624 -0.803653
-0.766828 -0.534499 -0.225393
-0.497423 -0.2146 0.599032
0.749719 -0.0731 -0.934074
-0.0956789 -0.561098 -0.601115
0.316635 0.425944 -0.401816
-0.703393 -0.361006 -0.553441
-0.911033 -0.240087 0.0227133
-0.554193 -0.0343356 -0.648167
0.636407 -0.0198465 0.0688412
-0.250483 -0.609006 -0.893611
-0.699902 -0.123534 -0.857523
-0.956425 -0.475864 0.0960911
0.0854105 0.336634 -0.871896
0.259976 0.254046 -0.992243
0.603088 0.154817 -0.0352557
0.600604 -0.357451 0.0802124
-0.299092 0.0880483 0.195778
0.465113 -0.62251 -0.641889
0.754529 0.0982289 -0.387085
-0.27224 -0.0336579 0.235218
-0.923019 -0.287985 -0.0800314
-0.131549 0.398119 -0.661291
-0.596864 0.691259 0.880128
-0.464141 -0.61236 -0.344908
0.797708 -0.0152424 -0.321774
0.566466 -0.576708 -0.486403
-0.506893 0.0558986 -0.696014
0.136021 -0.643265 -0.815812
0.434109 0.37101 -0.442908
-0.806492 0.421289 0.763838
-0.774511 0.0478204 -0.470068
-0.000386297 0.457768 -0.655282
-0.885257 -0.288501 0.576644
-0.923288 -0.492257 0.330628
0.626902 -0.202294 0.0950326
-0.590385 0.435412 0.624325
0.79322 -0.394047 -0.786504
-0.215556 0.306856 -0.258116
-0.273591 -0.527151 -0.713459
-0.642351 0.657732 0.91416
-0.0620926 -0.0465052 0.206126
0.736359 0.0320283 -0.11438
-0.172268 0.372214 -0.883021
0.699104 -0.266022 -0.0076938
-0.693355 -0.736503 0.165035
-0.752837 0.04058 0.366029
-0.52193 -0.430855 -0.796399
-0.466268 -0.0660152 -0.985715
0.557727 -0.559783 -0.55622
-0.052669 0.157665 0.811985
0.0701981 0.252566 0.0156644
-0.396654 -0.162495 0.367932
0.721257 -0.0499588 -0.0413863
0.63835 -0.338393 -0.916027
-0.753984 0.209038 0.728002
-0.200642 0.377161 -0.511684
-0.69782 0.0756212 0.174649
0.510982 0.337295 -0.417515
0.870325 -0.227461 -0.860856
-0.723063 0.446734 0.598234
0.349909 -0.705135 -0.583701
0.0158066 -0.496536 0.0741644
-0.200831 -0.08257 0.216561
0.0743801 0.114683 -0.9274
-0.37002 -0.589662 -0.222914
0.0620137 0.485879 -0.474725
-0.38882 -0.06688 0.294209
0.665793 0.197117 -0.591754
0.0553419 -0.642998 -0.847027
-0.410964 -0.423394 -0.977991
-0.84471 0.0130172 -0.0471323
-0.759969 0.217168 0.539351
-0.446259 0.10387 -0.814783
0.124648 0.175306 0.117915
-0.62292 0.737264 0.928719
-0.235583 -0.529085 -0.65682
-0.83856 0.0494967 -0.118455
-0.494661 -0.431928 -0.976693
-0.330212 -0.108557 0.669572
-0.467455 -0.352206 0.568185
-0.902376 -0.433006 0.0571897
0.637391 0.208658 -0.650591
-0.0508117 0.297263 -0.102616
0.714565 0.15946 -0.264851
0.486246 -0.491473 -0.00775725
-0.370868 0.242205 -0.35723
0.216984 -0.65096 -0.818157
-0.329656 0.146852 -0.794803
0.261628 -0.0748828 0.26509
-0.493936 -0.544353 0.215507
0.3275 -0.0607663 0.25839
-0.703081 0.325873 0.799781
0.174648 -0.0704657 -0.948892
-0.907276 -0.184511 -0.363548
0.336659 -0.723976 -0.314961
-0.140917 -0.229943 0.19805
0.53117 0.227613 -0.829753
-0.696042 -0.137725 0.609433
-0.00590909 -0.0902513 0.227818
0.016514 0.0914275 0.67997
0.324873 0.091866 0.194597
-0.303538 -0.0992619 0.545591
0.0061132 0.287022 0.815436
-0.218789 -0.379621 -0.971613
-0.585739 0.653344 0.771987
0.378349 0.371693 -0.74613
-0.867382 -0.566753 0.023503
-0.135346 -0.0318777 0.191603
0.683993 0.133913 -0.11708
0.251178 0.358458 -0.173857
-0.0411087 -0.356851 -0.93535
-0.148574 0.451915 -0.288259
0.204864 -0.698325 -0.186767
-0.305261 -0.06253 0.505399
0.350963 0.387797 -0.682265
-0.665217 -0.581054 -0.336201
0.234486 0.430529 -0.549385
-0.124877 0.0430669 0.170953
-0.947667 -0.16851 0.065839
0.548944 0.274226 -0.211282
-0.231949 -0.42151 0.111802
0.397832 -0.692853 -0.333789
-0.97589 -0.224862 0.265396
-0.679086 -0.540813 -0.412846
-0.670728 0.0402912 -0.546768
0.491129 -0.572532 -0.766987
-0.743058 0.232499 0.596547
-0.0530056 -0.626097 -0.59976
-0.80501 0.00639783 0.415819
0.35765 0.40362 -0.464643
-0.3354 0.184034 -0.541618
-0.849808 -0.487726 0.0193074
0.264603 -0.518025 -0.99486
0.379081 -0.28399 0.241588
-0.463056 0.15323 -0.52816
-0.944333 -0.299931 0.399851
-0.288208 -0.575022 -0.220429
-0.141413 -0.512712 -0.585139
-0.0578043 -0.665061 -0.520755
-0.450205 -0.0336244 0.401224
-0.0423274 0.48843 -0.521529
-0.0709862 0.00646785 0.641929
-0.921045 -0.2735 -0.292526
0.0411986 -0.697565 -0.650777
-0.548099 -0.587136 -0.139682
0.375079 -0.701946 -0.397034
-0.88734 -0.118544 0.0131431
-0.00582174 0.199884 0.854544
-0.0165996 -0.220139 -0.9377
-0.810678 -0.661694 0.379722
-0.194994 -0.295096 0.189412
-0.258403 0.202761 -0.94518
-0.47295 0.192017 -0.456771
-0.469393 -0.408979 -0.624429
0.130273 0.422519 -0.712324
0.215554 -0.50232 0.109959
-0.0868072 -0.424674 0.113585
-0.319961 0.369145 -0.956667
-0.882265 -0.07347 -0.363742
0.113699 0.125621 0.168378
0.143146 0.298406 -0.11844
0.0145556 0.251248 -0.00680923
-0.660426 0.173993 -0.105761
-0.532445 -0.408849 0.585272
0.398235 -0.642285 -0.20304
0.292822 -0.237956 -0.99489
-0.249834 0.381482 -0.909023
0.229275 -0.598802 -0.861359
-0.411754 -0.0840567 0.363842
0.168786 -0.749999 -0.395263
-0.967334 -0.372144 0.279692
0.0152343 0.173672 -0.925957
-0.853634 -0.672928 0.315682
-0.66083 -0.642807 0.40193
0.201224 0.41364 -0.198923
0.0028582 -0.698587 -0.213242
-0.743721 0.385834 0.536292
0.416905 0.160341 0.110826
0.267581 -0.689192 -0.764657
-0.286004 -0.571221 -0.449418
-0.898692 -0.180209 0.0114618
-0.233787 -4.32869e-05 -0.93598
-0.0216957 0.400651 -0.7762
0.21236 -0.401663 -0.932597
0.0513301 -0.660674 -0.171051
-0.498647 0.110643 -0.874
-0.378921 0.26145 -0.166368
-0.832139 -0.164032 0.585385
-0.628624 0.0603276 0.399201
0.926572 -0.220507 -0.813313
-0.0519452 0.0490392 -0.929896
-0.74464 -0.21138 0.612228
0.5748 0.292196 -0.416852
0.81273 -0.210737 -0.478255
-0.615039 0.0337385 -0.983067
0.558981 0.0942497 0.0695404
-0.874419 -0.0640335 0.0612031
0.667455 0.0882025 -0.86554
-0.883271 -0.359124 0.563516
0.730232 -0.296497 -0.0765937
-0.438265 -0.192648 -0.972528
-0.689946 0.0353252 -0.974841
-0.0673834 -0.70614 -0.886511
0.283581 -0.19789 0.27071
-0.235688 0.113153 0.138988
-0.681021 -0.0309364 0.622011
-0.338342 -0.567863 -0.50342
0.413217 0.275913 -0.0969603
-0.607033 -0.541859 -0.466218
-0.0829208 0.495923 -0.458676
0.109947 -0.31915 -0.9377
-0.902833 -0.0358162 -0.190071
0.560254 0.143682 0.016342
-0.59894 -0.1013 -0.645075
-0.696952 -0.544986 -0.105063
0.797964 -0.348502 -0.843418
0.657301 0.106394 -0.791047
-0.262441 -0.255904 0.221779
-0.632889 0.551623 0.831454
-0.252552 0.163473 -0.61011
-0.466396 0.102086 -0.663683
0.79223 -0.300649 -0.46293
-0.929324 -0.385376 0.505447
0.0433633 0.294535 0.981726
-0.681591 -0.0094741 -0.868101
0.988105 -0.215251 -0.601243
0.315711 -0.328249 0.242109
-0.450364 -0.255861 -0.723217
0.522691 -0.514385 -0.790569
-0.47801 -0.415743 0.542509
0.278614 0.42241 -0.599013
0.234512 -0.729202 -0.650122
0.120695 -0.180199 0.257905
-0.881853 -0.389991 -0.288547
0.458349 0.342644 -0.762354
-0.580257 0.0914169 -0.899713
0.581505 -0.506913 -0.739887
-0.428372 -0.0112739 0.480239
-0.0861945 0.464817 -0.572718
0.277172 0.174708 -0.9615
-0.183489 0.209908 -0.924372
0.021548 0.0370589 -0.930001
0.540567 0.278089 -0.706032
-0.967054 -0.237902 0.0720335
0.109669 0.383559 -0.827653
0.413972 -0.566259 -0.910581
-0.574079 0.102674 -0.968373
-0.475353 -0.461744 0.331666
0.966944 -0.275644 -0.644075
-0.768361 0.355328 0.791748
0.698902 -0.370474 -0.0871679
-0.614603 -0.00252753 -0.826374
-0.0643607 0.496531 -0.390709
-0.465232 -0.259116 -0.819519
-0.493579 -0.100505 0.652575
-0.203295 0.4226 -0.431884
-0.164926 -0.340821 -0.940737
-0.329312 0.188539 -0.980673
0.477541 -0.00395564 0.187615
0.823772 -0.137116 -0.49732
-0.192224 0.365703 -0.267051
-0.443598 -0.440625 -0.681417
-0.330333 0.209882 -0.478715
-0.655273 -0.429881 -0.961412
0.75733 0.0917595 -0.263314
-0.491305 -0.350642 -0.803054
-0.191332 -0.496864 0.00629902
-0.687003 0.24872 0.766404
-0.731835 0.363527 0.594845
0.169533 -0.739391 -0.539828
-0.746936 0.0398916 0.447888
-0.0803827 0.338635 -0.974719
-0.88916 -0.159784 0.539215
0.454781 0.361912 -0.374256
0.0529965 -0.270826 -0.938817
-0.645682 -0.601771 -0.271864
-0.789393 -0.703511 0.176055
-0.173288 -0.415034 -0.935658
-0.406546 0.198682 -0.460261
-0.808786 0.478695 0.805881
0.662942 -0.1568 0.0540057
0.864427 0.0728061 -0.733302
-0.788222 -0.731554 0.258689
0.155051 -0.46323 -0.934945
-0.532173 0.180151 -0.488342
-0.913284 -0.1622 -0.0505321
-0.144865 0.195145 0.0515891
-0.714674 0.291829 0.504094
-0.155129 -0.410034 0.107533
-0.847218 -0.097213 0.54365
-0.911434 -0.126523 -0.321984
0.152355 0.404027 -0.771082
-0.685899 0.0938872 0.0526194
-0.742372 0.594224 0.843182
0.126341 0.451926 -0.23222
0.00479371 -0.0794606 -0.934101
-0.108238 0.0989209 0.850922
0.326888 0.358177 -0.81438
0.464507 0.0519511 0.164347
-0.578943 -0.638981 0.138848
-0.660149 0.124057 -0.489372
-0.673887 -0.578335 -0.165974
-0.369707 0.281226 -0.879845
-0.326889 -0.392137 0.13717
0.0481617 -0.551596 -0.970991
0.301534 0.420365 -0.533762
-0.825166 0.0698909 -0.346048
0.4278 -0.238019 0.231972
0.414933 -0.641181 -0.669705
0.231768 -0.0802791 -0.994741
-0.586091 0.366653 0.589769
-0.725786 -0.0618075 -0.890153
-0.129463 0.367881 -0.719328
-0.199447 0.216593 0.0176879
0.663716 -0.312776 0.0338933
0.152469 0.0341052 -0.929765
0.343977 -0.568523 -0.983282
-0.662995 -0.485521 0.566679
-0.590363 0.707589 0.72254
-0.509088 -0.153241 -0.736824
0.662642 0.240676 -0.33986
-0.598878 0.0371656 0.572754
-0.223459 -0.595075 -0.246071
-0.602102 0.443478 0.75326
0.277015 -0.744759 -0.345469
-0.549548 0.162608 0.06556
0.45109 -0.159009 0.224308
-0.856678 -0.184582 -0.435917
0.855133 -0.33963 -0.796358
0.22425 -0.734218 -0.585201
0.0573941 0.157539 0.126745
0.810473 -0.201402 -0.404493
-0.787514 0.105454 -0.120793
-0.682676 -0.504523 -0.471734
0.805328 -0.265467 -0.407746
0.412295 -0.450559 0.12018
-0.779181 0.0228867 0.0720422
-0.19372 -0.586399 -0.811631
-0.111046 0.225718 -0.934748
-0.497551 0.137554 0.124448
-0.168533 0.442318 -0.48669
0.397747 -0.400858 0.182623
-0.925238 -0.0801851 -0.27298
0.473771 0.36438 -0.555458
-0.574778 0.36685 0.6587
-0.572182 -0.523509 0.395929
-0.644215 0.0874933 0.101488
-0.831858 -0.126468 -0.481758
0.442106 0.337318 -0.257663
-0.113392 -0.129 -0.935536
-0.904988 -0.265133 -0.359548
0.394998 -0.610865 -0.12306
-0.791551 -0.500162 -0.158325
0.482729 -0.527768 -0.930252
0.0516868 -0.0238243 -0.932584
0.170356 -0.700252 -0.686677
-0.914981 -0.430753 0.377035
0.447149 -0.262508 -0.994237
-0.929184 -0.142609 -0.109764
-0.828196 -0.201257 -0.494536
-0.373494 -0.372031 -0.985026
-0.152658 -0.530507 -0.961402
0.169791 -0.607817 -0.863543
0.543307 0.159716 -0.844129
-0.776824 0.089797 -0.404901
-0.886766 -0.328999 -0.331162
0.538764 0.198819 -0.0452344
-0.625501 0.523892 0.602591
-0.54054 -0.577236 0.167131
-0.687364 0.577775 0.577112
-0.095552 -0.681908 -0.300987
-0.857636 -0.411028 -0.0780611
0.433883 0.1045 0.147619
-0.554464 -0.270824 0.60825
-0.507852 -0.186406 -0.800784
-0.739831 0.293498 0.625921
-0.758147 0.0541995 0.296951
-0.388717 0.160729 -0.584013
0.53362 -0.375458 0.128966
-0.482567 -0.283397 0.587498
0.127714 -0.752381 -0.461329
0.0583375 -0.7499 -0.313077
-0.676743 -0.531891 -0.00107142
-0.609488 -0.56643 -0.901368
-0.229234 0.354987 -0.448307
-0.502806 0.0948926 -0.589967
-0.108076 -0.624246 -0.244412
0.131933 0.485954 -0.353765
0.398904 -0.547875 -0.0588946
0.919065 -0.281347 -0.783785
-0.182542 -0.0159702 0.576144
-0.455826 -0.354774 0.499247
0.188582 0.136706 0.15155
-0.765901 0.0544735 0.14153
0.637659 -0.461801 -0.742472
0.808704 -0.0850566 -0.335191
0.595118 0.129252 -0.798348
0.615248 -0.512451 -0.673041
-0.205773 -0.653156 -0.871722
-0.813685 -0.373077 0.586479
-0.199414 0.2851 -0.634335
0.410116 -0.316524 -0.99481
-0.569179 -0.0850104 0.59471
-0.321423 0.155226 -0.599937
0.65854 -0.430837 -0.0946542
0.707262 -0.202463 -0.949184
0.21654 0.144408 -0.928584
-0.441624 0.211506 0.0196645
0.303605 0.244516 0.0432928
0.638628 0.241371 -0.425114
-0.448693 -0.482085 0.254242
0.0778807 -0.0923315 -0.935114
0.383526 0.0423186 -0.995201
-0.187116 -0.360823 0.149409
-0.627405 0.373394 0.532212
0.156525 -0.482147 0.131877
-0.0689954 -0.0812039 -0.93406
0.330524 0.280376 -0.981539
-0.811382 -0.627682 0.031621
-0.954865 -0.151781 0.286566
-0.825147 0.0902887 -0.186782
0.760251 -0.369514 -0.453264
-0.753763 0.30239 0.548472
-0.950455 -0.571339 0.229726
-0.858505 -0.519273 0.487135
0.490291 0.353951 -0.486141
0.668084 -0.230997 0.0445105
-0.0185009 0.236832 0.74972
-0.687136 -0.6811 0.348076
0.39511 0.313577 -0.191988
-0.392091 -0.563114 -0.838204
0.508675 -0.0704929 0.18586
-0.106947 -0.536232 -0.673395
0.00973916 0.18797 0.787726
0.0726625 0.295029 0.906995
0.627421 0.152945 -0.736953
-0.0255426 -0.165237 0.227855
-0.617328 -0.509519 -0.855181
0.340529 0.407235 -0.331562
0.926465 -0.328929 -0.655387
0.565954 0.0487586 -0.941743
0.107161 -0.716367 -0.673003
0.746716 -0.26521 -0.917854
0.115068 -0.634939 -0.883412
0.66256 -0.0866621 0.0499635
-0.433096 -0.468203 -0.607195
0.637174 -0.37165 0.0272871
-0.510727 -0.54246 -0.803209
-0.898518 -0.0158721 -0.246174
-0.496064 0.0145519 0.389395
0.754517 -0.286175 -0.139386
-0.644673 0.19668 -0.164957
-0.577316 0.0412916 0.501453
-0.775547 0.172478 0.60775
-0.195692 -0.591473 -0.9805
-0.44282 -0.295967 0.444727
-0.397533 0.224703 -0.02383
-0.474999 -0.0424565 0.670193
0.753876 -0.0385005 -0.102634
-0.13472 0.0497848 0.892409
0.405543 0.0336943 0.203724
0.423851 0.387418 -0.508532
0.538065 0.233728 -0.103436
-0.313221 0.111519 0.665583
-0.505939 0.0698932 -0.813236
0.694541 -0.123333 -0.962252
-0.574688 -0.178942 -0.829547
0.617818 0.100732 0.0183726
-0.754154 -0.509943 -0.0958949
-0.529224 0.130518 -0.536828
0.683185 -0.0287901 0.010106
0.805803 -0.222508 -0.333695
-0.497313 -0.238657 -0.983962
-0.0504747 0.254618 0.813884
-0.0925952 0.373382 -0.774734
-0.607163 0.153809 0.652703
0.509815 0.148991 0.0639028
-0.259471 -0.503234 -0.00974226
-0.295609 0.0175544 -0.957147
-0.222005 -0.561634 -0.399686
-0.361838 -0.1984 0.295263
-0.768785 0.142445 -0.181097
0.277933 -0.419955 -0.935822
-0.945359 -0.272859 -0.229827
-0.721569 -0.640598 0.436351
-0.8826 -0.0285861 -0.0876282
-0.202641 -0.531904 -0.0571087
-0.210269 0.209638 -0.759852
-0.746212 0.0649003 0.0364004
0.770869 -0.338753 -0.523823
-0.652729 0.307781 0.499841
-0.635129 0.0557131 -0.874121
-0.53776 -0.509998 0.50822
-0.127883 0.241946 0.0025965
0.532617 -0.0124571 0.153911
0.809317 -0.0646954 -0.48038
0.149878 -0.728019 -0.222767
-0.810131 -0.57219 0.476309
0.183602 0.266686 -0.99088
0.0836354 0.189237 -0.929733
0.200862 -0.698166 -0.771228
-0.606205 -0.148252 0.604556
-0.917472 -0.51129 0.0456354
0.32711 0.352185 -0.193052
0.862432 -0.0772567 -0.514901
-0.577592 -0.620867 -0.269423
-0.144352 0.200565 0.83582
0.025788 0.100829 0.150314
-0.357577 0.0263893 0.776534
0.396544 -0.0979923 0.245256
-0.466077 -0.366743 -0.702914
-0.474163 -0.510891 0.0143559
0.589382 -0.246001 0.12901
0.704999 -0.109208 -0.00870103
0.238992 -0.746063 -0.403283
-0.115843 0.352499 -0.827738
-0.766814 0.503852 0.865348
0.264681 -0.560922 -0.0859862
0.437897 -0.680333 -0.390021
0.256633 0.376221 -0.792788
-0.263076 -0.387243 0.155898
-0.552787 -0.373983 -0.830855
-0.821192 -0.420411 -0.403546
-0.895605 -0.03106 -0.31592
-0.250735 -0.554836 -0.831613
0.259266 -0.656524 -0.161789
-0.326215 0.258115 -0.126332
0.767359 -0.00389687 -0.161978
-0.775165 -0.53967 0.519442
0.248169 -0.303147 0.252729
-0.345528 0.226951 -0.822915
-0.216151 0.169681 0.0870058
-0.635557 0.737751 0.80747
0.550124 -0.490422 -0.0377893
-0.265292 0.209645 0.0395916
-0.436198 -0.480766 -0.97669
-0.0392786 0.276842 -0.0342254
0.554048 0.260913 -0.768078
-0.227142 0.379265 -0.384056
0.697507 -0.454859 -0.212846
0.115058 -0.636979 -0.970089
0.51149 -0.593199 -0.593177
-0.681682 0.194664 -0.279968
-0.416632 -0.307807 0.365355
0.179829 -0.318325 0.248231
-0.861483 -0.678933 0.176392
-0.412238 -0.525897 -0.540431
-0.26374 0.230758 -0.474413
0.326718 -0.60831 -0.137162
0.243604 0.448011 -0.408671
-0.597362 -0.605269 -0.334833
-0.405353 -0.595532 -0.153545
-0.732494 -0.277827 -0.575591
-0.176384 0.0189606 0.862908
0.526715 -0.454296 0.0299099
-0.742645 -0.595 0.485476
0.0345391 0.384412 -0.817308
0.037879 0.334224 -0.938186
0.103182 -0.75863 -0.38074
0.439247 0.229138 -0.924353
-0.771141 0.419696 0.817966
0.256129 0.261678 -0.0151542
0.781695 -0.245714 -0.19228
0.022239 -0.460781 -0.930058
-0.537081 -0.149763 -0.671936
-0.614872 -0.029711 -0.623828
-0.291182 0.172413 0.0890677
-0.131141 -0.471078 -0.930193
-0.0607866 0.263633 -0.986281
-0.424446 -0.112702 0.678828
-0.0232146 -0.402468 0.153076
-0.643354 -0.459629 -0.893412
-0.000329005 0.43065 -0.717715
0.802527 -0.0300582 -0.395117
-0.168968 0.0960871 0.595247
0.608482 0.0448106 0.0669579
-0.419694 -0.0107531 -0.984387
-0.449698 -0.505117 0.179318
-0.00386575 -0.53525 0.0110454
-0.309888 0.0722795 0.800484
-0.438509 0.254756 -0.329687
-0.616968 -0.704934 0.150123
0.866107 -0.117141 -0.871092
-0.619852 0.0804337 0.154493
-0.687285 -0.154615 -0.620152
0.445766 0.0713269 -0.974351
0.217905 0.0668969 -0.929547
0.387273 -0.659848 -0.717701
0.577277 -0.558526 -0.197113
-0.744776 0.1686 -0.310771
-0.739101 -0.596494 0.00605262
-0.0372894 -0.722566 -0.283931
-0.962047 -0.539458 0.104325
0.271261 -0.705257 -0.214779
-0.578432 0.158485 0.573633
0.794993 -0.122071 -0.208947
-0.778796 -0.172664 -0.53505
-0.922326 -0.0634181 0.14318
-0.622912 -0.556546 -0.96102
0.964607 -0.22207 -0.749763
-0.621132 -0.572984 -0.400121
-0.535537 0.0460296 0.347586
0.596547 -0.48623 -0.0994086
-0.631146 0.202633 0.713739
-0.655382 0.185471 0.466807
-0.511431 -0.500849 -0.9767
-0.294412 0.139174 -0.935846
-0.00808477 0.188227 0.683751
-0.691765 -0.688095 0.0523941
-0.68481 -0.324215 0.614318
-0.313184 0.0783657 -0.948913
0.79919 -0.0178545 -0.539748
-0.555389 -0.610553 -0.890803
-0.113886 0.129841 0.628057
0.660981 0.0382995 0.00840284
0.137794 -0.746633 -0.318797
-0.381323 0.0670324 0.668068
-0.323103 0.22678 -0.000890356
0.0132428 0.49911 -0.383311
-0.948409 -0.310766 0.469141
0.727735 0.0480621 -0.886056
-0.467171 0.0242445 0.311833
-0.0979273 -0.311394 -0.937632
-0.430014 0.148084 0.135787
-0.394104 0.254386 -0.0917376
0.502194 0.0784836 -0.931792
0.502341 0.331582 -0.694101
-0.882462 -0.628272 0.0572502
-0.26826 -0.587674 -0.298513
-0.508468 -0.602299 -0.84487
-0.638193 0.408865 0.792246
-0.0489585 0.0808367 0.1648
0.154317 0.329434 -0.872808
0.876231 0.0349884 -0.7899
-0.603299 0.093935 0.610774
0.950854 -0.27497 -0.576351
0.336386 -0.179859 -0.990973
0.693436 0.0756911 -0.0818714
0.6155 -0.385208 -0.863123
-0.591286 -0.558073 0.325698
-0.398995 -0.0821915 -0.986606
-0.54673 -0.298298 -0.981386
-0.627939 -0.490282 -0.516209
0.3309 -0.13566 0.266012
-0.670614 0.150326 -0.0490854
-0.600514 0.135829 0.471777
-0.681901 -0.012147 -0.585105
0.197153 0.42206 -0.688982
-0.217051 0.202452 -0.673123
0.309807 -0.46321 -0.983529
-0.819197 -0.482356 0.538472
-0.634919 -0.368826 -0.916642
-0.135432 -0.0342041 0.638405
0.688723 -0.406907 -0.721859
-0.644044 0.20618 -0.229333
-0.215263 0.253891 -0.974635
0.0100178 -0.623787 -0.794436
-0.698001 0.355956 0.508152
0.467251 -0.616137 -0.237213
0.25531 0.341259 -0.847095
0.0328924 0.495843 -0.322023
0.196837 -0.140513 -0.985009
-0.228639 0.148281 -0.923494
-0.410643 -0.489548 0.0391102
-0.996485 -0.292334 0.192382
-0.4218 -0.616066 -0.28505
0.421645 -0.51043 -0.00427812
0.111342 0.349067 0.816637
0.805477 -0.150154 -0.282578
-0.479547 -0.201768 -0.697477
-0.586842 -0.456979 -0.563235
-0.605233 -0.618267 0.274536
-0.231919 0.254629 -0.539315
0.538727 -0.602393 -0.235795
0.731317 0.09586 -0.825697
0.00842604 -0.0190505 0.215937
0.000480854 0.300201 0.942832
-0.255302 0.0687139 0.56163
0.505869 0.276107 -0.148286
-0.146382 0.171113 0.886155
-0.533168 -0.338346 0.59834
-0.250128 -0.0234961 0.699172
-0.840444 -0.057563 0.428543
-0.930499 -0.33278 -0.176259
0.578909 -0.586954 -0.317874
0.813125 -0.146575 -0.43256
0.375753 -0.43398 -0.994567
-0.523123 0.24525 -0.151099
-0.675923 -0.591501 0.485635
0.645125 -0.171283 -0.976663
0.668149 0.156497 -0.678065
-0.125896 -0.513507 -0.00757013
0.252554 -0.361262 0.229553
-0.695751 0.526555 0.867492
-0.922295 -0.0857556 0.284324
-0.416126 0.179304 0.075789
0.00331461 -0.516502 -0.935728
-0.192687 0.376653 -0.960536
0.101682 0.328654 -0.946356
0.276673 0.431088 -0.278743
-0.587533 -0.498779 0.553181
-0.554012 -0.55513 0.264367
0.274888 -0.00896421 0.251237
-0.653496 -0.677867 0.282288
0.211597 0.440317 -0.261248
-0.588986 0.753762 0.772609
-0.200996 0.0276902 0.741443
0.384081 0.363503 -0.239632
-0.724617 0.168482 0.484821
-0.256297 -0.567907 -0.142678
-0.594329 0.173597 0.00490603
0.0277718 0.290667 -0.990174
-0.268277 -0.538723 -0.0833045
0.06272 -0.654756 -0.929251
0.955253 -0.0109265 -0.675426
-0.653537 0.0238867 0.631077
-0.619005 -0.169726 -0.649604
0.235621 0.240267 0.0626386
0.538189 0.314283 -0.354588
-0.862267 -0.672842 0.106647
0.517038 -0.403011 -0.954049
0.671401 -0.50349 -0.450218
0.676125 0.0298044 -0.93202
-0.153819 -0.495765 -0.648571
-0.854931 -0.0988206 0.478358
0.0510899 0.281984 0.762445
0.506722 0.182562 0.00783937
0.859271 0.0759694 -0.668226
-0.442937 -0.549371 -0.977989
-0.580562 0.70378 0.816083
0.337804 -0.579323 -0.917171
0.363888 0.41112 -0.542815
0.843356 -0.348999 -0.613762
-0.127616 -0.29614 0.170789
0.244708 0.108955 0.183537
0.701892 -0.45945 -0.497592
-0.583581 0.240851 0.555616
0.70491 0.132465 -0.622989
-0.647432 0.329383 0.776962
-0.61457 0.133667 0.06066
-0.79536 -0.512621 -0.280856
-0.0705516 -0.638155 -0.984356
0.780308 0.0332889 -0.390049
0.441358 0.295111 -0.822983
-0.708098 0.660137 0.87196
-0.52629 -0.397779 -0.612766
-0.668259 0.117142 0.447082
-0.133713 -0.697171 -0.881411
0.524449 0.319956 -0.558023
-0.143261 0.262353 -0.981229
0.0302579 0.478379 -0.536479
-0.70754 0.077287 0.252536
-0.916218 -0.0473669 0.221995
-0.67376 -0.622325 0.025013
-0.7762 0.0105884 0.498086
0.416822 0.384258 -0.580124
-0.313037 0.130668 -0.665724
0.115005 -0.113088 0.254552
-0.598114 0.0785305 0.449612
-0.400737 -0.175643 0.507703
-0.156975 0.0579439 0.804116
0.797449 -0.248286 -0.268457
-0.435402 -0.394708 0.343671
0.205393 -0.577952 -0.118201
-0.0186179 0.329559 -0.971504
0.266632 -0.726872 -0.279616
0.546927 -0.0102428 -0.980544
-0.726076 0.458217 0.848035
0.74242 -0.161603 -0.0717065
-0.0715037 -0.234765 0.206919
-0.839498 -0.458633 -0.290109
-0.684916 -0.224969 -0.620095
-0.837143 -0.263698 -0.462942
-0.660854 -0.719039 0.100696
-0.2134 -0.53317 -0.59278
-0.939102 -0.272888 -0.152308
-0.489055 -0.531745 0.129217
0.702942 -0.412079 -0.159016
0.104857 -0.733591 -0.527348
-0.594144 0.186665 0.50756
-0.625511 0.0920008 -0.537234
0.811165 -0.0929049 -0.410249
-0.600366 -0.0691724 -0.983104
0.685207 -0.289314 -0.935727
0.69252 -0.333639 -0.0257987
0.605226 0.27072 -0.479916
-0.661837 -0.19405 0.613773
-0.49945 -0.0105504 -0.9844
-0.487975 -0.0141407 0.460431
-0.478613 0.0737215 -0.750062
-0.572969 0.291625 0.615311
-0.431287 -0.235697 0.484325
-0.303486 0.135485 0.149288
-0.0288711 0.351072 -0.910411
0.669834 -0.467589 -0.681301
-0.571545 -0.426664 -0.976688
-0.160061 0.198046 0.760294
-0.624691 0.279855 0.738294
-0.104014 -0.388848 -0.934771
-0.858151 -0.421572 0.552504
-0.43396 0.22379 -0.400657
0.407512 -0.673993 -0.603665
-0.188357 0.262036 -0.0437604
-0.9143 -0.0783211 -0.135484
0.737607 0.0924235 -0.570271
-0.665808 -0.0911726 -0.617724
-0.0743798 0.0753917 0.608538
-0.255555 0.121508 0.814709
-0.153789 -0.651151 -0.828926
-0.704828 -0.433571 0.588642
0.0783856 0.00743677 0.225944
0.786713 -0.0608906 -0.18482
-0.0573231 0.0164434 0.191025
-0.576982 0.0788495 0.205144
0.479493 0.122426 0.107536
0.335377 0.0262881 0.229059
-0.889488 -0.399526 -0.14828
-0.731994 0.101059 0.471423
0.45908 0.213575 -0.0129341
-0.936784 -0.430396 0.309921
0.578994 0.276835 -0.550974
-0.269355 -0.583987 -0.374586
0.903646 -0.323413 -0.592823
-0.459882 -0.371424 -0.980784
-0.542646 -0.505085 0.338614
0.637185 0.230417 -0.526355
-0.710819 0.530211 0.706373
0.996691 -0.145061 -0.635457
-0.728825 0.450435 0.534708
0.0815152 -0.527044 0.0524747
0.770923 -0.311814 -0.205281
0.811867 0.0833789 -0.791305
-0.170788 -0.56113 -0.376859
-0.927905 -0.360553 0.407418
-0.94158 -0.154275 -0.248998
-0.6307 -0.597731 0.448269
-0.790159 0.132657 -0.249399
-0.310466 0.262711 -0.327014
-0.736404 -0.72825 0.221152
-0.193854 -0.00777916 0.667924
-0.197499 0.044158 0.561388
-0.498722 0.12232 -0.979871
-0.476968 -0.498633 -0.558069
-0.906772 -0.0906517 0.349933
-0.671444 0.684278 0.822069
-0.744012 -0.367471 0.603402
-0.388242 -0.140503 -0.964996
-0.311705 -0.160978 -0.964559
0.266618 -0.595443 -0.136859
-0.989589 -0.235702 0.186714
-0.700529 0.174029 -0.174206
0.177047 0.35141 -0.154118
0.0951765 -0.502505 -0.946418
-0.841477 -0.704768 0.243911
0.63192 -0.285744 0.0830964
0.585127 0.256144 -0.661643
-0.178928 0.45166 -0.366009
-0.00659623 -0.705989 -0.535974
-0.55802 -0.585494 -0.390675
-0.215821 -0.507676 -0.771052
0.197411 -0.445759 0.169624
-0.622889 -0.245884 -0.642761
-0.641137 0.0769619 0.291821
-0.697376 -0.438314 -0.518518
-0.38123 -0.517844 -0.611924
0.30771 0.32477 -0.882656
0.685173 -0.495563 -0.269322
0.0172456 0.340947 -0.863234
-0.347034 -0.0364487 0.249091
-0.424592 -0.0487019 0.715086
-0.464567 -0.311093 -0.755688
0.159392 -0.268484 -0.939
0.599661 -0.295334 -0.956786
0.404912 -0.178639 -0.983261
-0.752804 0.142189 0.556163
0.318445 -0.723113 -0.391959
-0.245283 -0.00904839 0.53107
-0.36028 -0.0356997 0.474024
0.356334 -0.516459 0.00622283
0.241019 -0.738922 -0.513452
0.0682285 0.424091 -0.191862
-0.631255 -0.542684 0.52452
0.480759 0.1769 -0.880049
-0.0775431 0.406956 -0.199318
0.354748 0.261305 -0.0771846
0.430278 0.288782 -0.888824
-0.967743 -0.495741 0.173921
0.578494 -0.589122 -0.402264
-0.0912265 0.0893453 0.921602
0.320696 0.0100082 -0.997064
-0.255251 0.243567 -0.0314643
0.264134 0.0435838 -0.97552
0.212767 -0.544409 0.0411897
0.195691 -0.00739262 -0.939228
0.0737656 0.226185 0.785067
0.786237 0.0532034 -0.853169
0.98282 -0.223706 -0.675138
-0.486527 -0.347022 -0.64904
-0.173545 0.320437 -0.219049
0.551679 0.316759 -0.486261
0.151358 -0.518136 0.0769103
0.540492 -0.330897 -0.960976
0.496194 -0.43262 0.10355
0.282377 0.277561 -0.0878932
-0.519346 0.0507832 0.284912
-0.437653 -0.613648 -0.961444
-0.309572 0.00218842 0.504663
0.36966 -0.247045 -0.991396
-0.553493 -0.218125 -0.669009
0.169019 0.324618 -0.954579
-0.339421 -0.529018 -0.735354
-0.311694 -0.36954 -0.983114
0.717521 -0.447915 -0.323713
-0.285778 -0.555096 -0.614786
-0.551941 -0.285659 -0.654282
-0.204083 -0.466198 -0.95996
-0.448555 -0.603448 -0.861534
-0.0926479 0.179424 0.937488
0.151041 0.21665 0.0616086
-0.163604 -0.0215764 -0.931304
-0.417251 0.258099 -0.234626
0.635382 -0.0881388 -0.980482
-0.0846818 -0.670569 -0.819866
0.354352 -0.216214 0.25975
0.590775 -0.526793 -0.149171
0.692344 -0.477677 -0.3906
-0.634599 -0.572823 0.0294538
0.735233 -0.00719813 -0.923755
0.37437 -0.350262 0.221604
-0.414691 0.223954 -0.974053
-0.864037 -0.622866 0.373975
0.088987 0.0438174 -0.929992
0.0873436 -0.436282 -0.931965
-0.749597 -0.665647 0.0449833
-0.40758 -0.121507 0.424049
0.727508 0.157038 -0.375354
-0.980715 -0.200439 0.131963
0.0668477 0.350192 0.947056
0.914658 -0.0965598 -0.827148
-0.741773 -0.0050403 -0.515295
-0.20019 -0.498371 -0.705883
0.368324 0.205251 0.0780468
-0.120783 -0.611688 -0.786383
-0.664868 -0.0651665 -0.826325
-0.631796 -0.180427 -0.977951
-0.443006 -0.222955 0.556297
-0.736485 -0.129618 -0.914007
-0.373528 -0.517568 -0.979004
-0.524812 -0.502566 0.051743
-0.129244 0.366518 -0.945393
0.588848 -0.467492 -0.796594
0.434195 -0.481068 -0.991476
-0.315911 0.290813 -0.832617
-0.579638 -0.0545604 -0.798207
0.463955 0.135279 -0.927932
-0.738278 -0.72233 0.114579
-0.949254 -0.500708 0.253793
-0.31536 -0.10856 0.606126
0.869501 -0.367471 -0.674177
0.461263 -0.580765 -0.105837
-0.789543 -0.706985 0.325899
0.705438 0.164142 -0.548834
-0.473813 -0.42009 0.401798
-0.932594 -0.580889 0.0713747
0.109054 0.287029 -0.986818
0.090026 0.47867 -0.30222
-0.550137 -0.554986 0.103195
-0.074339 0.185767 0.0750238
-0.559732 -0.542405 -0.975399
0.714437 -0.437277 -0.572735
0.433728 -0.0748504 -0.982824
-0.569709 -0.60697 0.215504
-0.27852 -0.526311 -0.784793
0.442469 0.190693 0.0553635
-0.725468 -0.560568 -0.288387
-0.102927 -0.173719 0.208276
-0.529473 0.202258 -0.00188472
0.49934 -0.056267 -0.997237
-0.770741 0.0991781 0.621277
0.482886 0.335453 -0.316483
0.218364 -0.212627 -0.98995
0.210687 0.206782 -0.976334
-0.138606 -0.190503 -0.941375
-0.688163 0.191565 -0.351795
-0.724998 -0.718462 0.299685
-0.675456 0.669479 0.673236
0.411707 0.3732 -0.641408
-0.818756 -0.0380995 0.490994
0.378802 -0.367334 -0.992641
0.329481 -0.385277 -0.955429
0.205616 0.459953 -0.341481
-0.273441 0.168397 -0.784962
0.305157 0.200705 0.10162
-0.257434 0.0451521 0.846022
-0.924759 -0.635839 0.126017
-0.102323 0.227878 0.79173
0.15302 0.175233 -0.928248
-0.117895 0.481809 -0.340668
-0.989386 -0.347905 0.220876
0.057142 0.329314 0.822649
0.189714 0.257286 0.0103216
-0.61139 -0.324187 0.613171
-0.271884 -0.469401 0.0526979
-0.220632 0.319595 -0.987015
-0.842375 -0.402091 0.0096335
-0.0955566 -0.360082 0.15115
0.298038 0.310774 -0.94241
-0.820673 -0.479524 -0.218442
0.604292 0.268481 -0.355734
0.530416 -0.494407 -0.851603
0.021165 0.237492 0.928548
-0.0857006 -0.609523 -0.541593
-0.985685 -0.353972 0.144801
-0.0251846 -0.286941 -0.9377
-0.879449 -0.0323292 0.300506
-0.663984 0.46859 0.8261
-0.0177504 -0.67156 -0.837699
-0.360242 -0.318131 0.251991
0.673146 0.101607 -0.733193
0.685907 -0.0455055 -0.956787
0.0400171 0.229293 0.713013
0.796811 -0.0175538 -0.893417
-0.574861 -0.204494 0.609846
-0.151506 -0.26644 -0.944326
-0.746709 -0.681052 0.380659
-0.422553 0.13113 -0.878651
0.0642306 -0.552452 0.00213603
-0.067849 -0.509238 -0.931633
0.862647 -0.0143011 -0.548796
-0.855442 -0.021139 -0.401112
0.987274 -0.153611 -0.565957
-0.77214 0.390264 0.71415
-0.38626 0.123399 -0.809003
-0.176961 0.116739 -0.927382
-0.331342 -0.543046 -0.817617
0.468286 -0.20486 -0.978427
0.619516 -0.00511432 -0.963398
0.236256 0.312172 -0.969428
0.740027 -0.400424 -0.519554
0.0463301 -0.723418 -0.500358
0.273142 -0.513715 0.0824209
0.673893 -0.509434 -0.339077
-0.377558 -0.142728 0.630785
-0.956494 -0.419645 0.127064
0.294221 0.441572 -0.467174
-0.337986 -0.5807 -0.281883
0.45436 -0.608362 -0.172231
-0.299128 -0.00786033 0.806312
0.168496 -0.577483 -0.0494485
-0.830089 0.0785683 -0.267534
-0.905261 -0.381871 -0.215781
-0.699594 -0.576801 -0.227958
-0.521146 0.126615 -0.931589
-0.696714 -0.179075 -0.962216
-0.134806 -0.597249 -0.981343
0.464026 -0.130395 -0.981733
0.79247 -0.364579 -0.648118
-0.571718 0.115185 0.113612
-0.906289 -0.567208 0.363461
-0.566544 0.0784428 -0.56654
-0.158308 -0.587686 -0.260224
0.659217 0.0990544 -0.038785
-0.440989 0.263152 -0.153569
-0.445406 -0.541992 -0.0295923
0.286248 -0.585191 -0.976401
-0.58054 -0.141097 -0.982517
0.00917057 -0.663266 -0.977052
0.229208 -0.465105 -0.954504
-0.887415 -0.110496 0.413865
-0.615547 0.503725 0.788349
-0.210062 0.320018 -0.566418
-0.252953 0.300697 -0.30975
0.0619238 -0.0625881 0.23944
0.356504 0.296982 -0.135036
-0.604198 -0.293981 -0.962536
-0.376504 0.0251411 0.524512
0.0173149 0.0449285 0.191165
0.84223 0.0160004 -0.842868
-0.346981 -0.545323 -0.570042
-0.0185136 -0.750337 -0.33654
-0.550244 -0.342096 -0.630609
0.370184 0.322837 -0.870593
0.798792 -0.26804 -0.528605
0.147295 0.0257862 0.232887
-0.774734 0.530813 0.810955
-0.288468 0.124968 0.743436
0.0684781 0.417672 -0.759789
-0.33695 -0.105829 0.256715
-0.622967 -0.257151 0.614291
0.530935 -0.532552 -0.0937158
-0.277671 -0.0561879 0.652512
-0.103533 0.115038 0.783162
0.542891 -0.55297 -0.713051
0.338756 0.399272 -0.256842
-0.596166 0.30685 0.541758
0.629668 -0.544588 -0.377494
-0.0500548 0.335601 -0.169217
-0.461862 -0.12996 -0.980493
-0.965946 -0.578803 0.160063
-0.32716 0.0276448 0.230206
0.704369 0.015742 -0.050049
-0.203031 -0.4526 0.0598597
-0.0244554 0.180533 0.921865
0.376887 -0.0312564 -0.988091
-0.735961 -0.463704 -0.469951
-0.478234 -0.305875 -0.982812
0.670345 0.185833 -0.478364
0.298157 -0.724301 -0.632362
-0.185163 -0.161216 0.215358
-0.367003 -0.590633 -0.961395
0.907711 -0.162705 -0.838983
-0.301099 -0.239348 -0.965997
0.201525 -0.0392898 0.257125
-0.686091 0.703544 0.940648
0.28399 -0.649514 -0.82336
0.172495 0.466265 -0.412282
-0.179977 0.36135 -0.616217
-0.341142 -0.296918 -0.970642
-0.534145 0.253729 -0.232954
-0.802176 -0.673892 0.0981156
-0.505946 -0.591316 -0.975038
0.307852 -0.114238 -0.991762
-0.598168 0.0626893 0.339573
-0.88987 -0.650255 0.249899
-0.208109 -0.55324 -0.461833
-0.775406 -0.514596 -0.336261
-0.250028 -0.0737989 0.579692
-0.151053 0.103418 0.14047
-0.898437 -0.0932784 -0.0605139
-0.225352 0.22941 -0.601791
-0.775911 -0.490514 -0.0192096
-0.78013 -0.432149 0.577737
0.244545 0.179963 0.119736
-0.585233 -0.526623 0.0445569
0.723549 0.113153 -0.213642
0.679659 0.158973 -0.192949
-0.592212 -0.442966 -0.825145
-0.81606 -0.00925362 -0.461303
0.394098 -0.486371 0.0549168
0.0713118 -0.656142 -0.788076
-0.0756942 -0.108847 0.213
-0.06075 -0.163492 -0.936445
-0.790054 0.121667 -0.326569
-0.696871 0.58333 0.658689
0.949654 -0.0398566 -0.73589
-0.490469 -0.602391 -0.186937
0.55862 -0.408359 0.0684982
-0.0490411 0.238982 0.945278
0.323671 0.257107 -0.0210082
-0.121498 0.155895 -0.925893
-0.887928 -0.151132 0.472911
-0.140203 -0.615767 -0.320933
-0.362469 0.269939 -0.984405
-0.434735 0.0179713 0.666621
-0.925376 -0.20725 -0.295934
-0.0792292 -0.565717 -0.966592
-0.325229 0.245042 -0.0624921
-0.979996 -0.295113 0.273418
0.480048 0.343234 -0.625062
0.146405 0.103697 -0.927291
-0.748541 0.108191 -0.0558673
-0.0651636 0.14336 0.879469
-0.517278 -0.467352 0.552632
0.0733113 0.310871 -0.129761
0.814581 -0.239355 -0.892858
-0.586699 0.223277 -0.262103
-0.591187 0.149964 -0.512091
-0.203056 -0.0135853 0.811953
0.377342 -0.62128 -0.794915
0.129086 -0.683409 -0.170753
0.0990033 0.360104 -0.155304
-0.886891 -0.00943877 0.168031
-0.258272 -0.328391 0.191276
-0.291991 0.249788 -0.983522
0.729413 -0.336399 -0.894086
-0.321585 0.342007 -0.882377
-0.154432 -0.0945016 -0.934821
-0.417631 -0.256943 -0.973386
-0.334696 -0.098981 -0.987292
-0.250766 0.0709982 -0.926079
-0.538615 0.0138223 -0.77937
0.691674 -0.392463 -0.788229
-0.455214 -0.16119 0.621736
0.911252 -0.0253168 -0.805197
-0.570383 -0.609233 -0.954325
0.437729 -0.555597 -0.81667
0.477668 0.240839 -0.0821828
-0.867301 0.0292816 -0.283304
-0.667125 0.597846 0.890376
0.215257 0.03062 0.232045
-0.387885 0.0629638 0.221164
-0.445154 -0.355397 0.409082
0.0812562 -0.68192 -0.723655
0.957308 -0.155769 -0.776747
-0.0862716 0.460324 -0.254057
-0.869272 0.0406466 -0.204808
0.563522 0.292258 -0.290701
-0.888065 -0.453542 0.505359
-0.596184 0.632165 0.70035
-0.71202 0.523961 0.615495
-0.617702 -0.594065 -0.202393
0.333307 -0.612977 -0.843084
-0.261372 0.306974 -0.811807
-0.621658 -0.664533 0.072954
0.715484 0.140286 -0.447076
0.614518 -0.528159 -0.516118
-0.41446 -0.604428 -0.907715
0.293006 0.299031 -0.151791
-0.496577 -0.600353 -0.399411
-0.414674 -0.425299 0.285243
-0.664111 -0.715431 0.2248
-0.754102 -0.288509 0.611918
-0.758421 0.076672 0.536172
-0.628711 0.597864 0.622952
-0.736582 -0.0650783 -0.965559
0.864311 -0.289519 -0.835708
-0.0201185 0.0477811 0.649051
-0.0179695 -0.717462 -0.469257
-0.386189 -0.40136 0.156148
-0.144216 0.405041 -0.233427
-0.387682 -0.601832 -0.343756
-0.146262 0.116015 0.9131
-0.739166 0.449464 0.718322
0.612698 0.251172 -0.600848
-0.380452 -0.534365 -0.0176133
0.603396 -0.559322 -0.253163
0.616123 -0.524554 -0.591393
-0.612991 -0.225866 -0.884273
0.439808 -0.660684 -0.275529
-0.568159 -0.56813 -0.0722936
0.441029 0.297315 -0.139076
-0.262846 0.265382 -0.105496
-0.0245414 0.181133 0.988074
-0.245559 -0.25973 -0.985333
-0.864904 -0.430101 -0.224416
-0.0193328 0.477127 -0.592491
0.754385 -0.224111 -0.113661
0.64564 -0.51284 -0.211249
0.32918 -0.692028 -0.243278
-0.163926 0.296772 -0.162308
0.580115 -0.440551 -0.859483
-0.11934 0.470808 -0.512948
0.795011 -0.295324 -0.334138
0.104738 -0.226795 -0.938441
-0.575472 -0.279046 -0.904453
0.13597 0.219705 -0.977235
-0.242529 0.13346 -0.678398
-0.193876 0.409699 -0.313506
0.419256 -0.547202 -0.974876
-0.767609 0.0594354 0.215336
-0.331072 -0.576209 -0.162066
0.0141129 -0.592749 -0.152502
0.48365 -0.208988 0.206252
0.331351 -0.650525 -0.183616
0.976957 -0.0874721 -0.570728
0.0831666 0.488285 -0.404041
0.33723 -0.489656 0.0917704
0.649053 -0.240778 -0.963215
-0.201735 0.274616 -0.780358
-0.723563 -0.0599419 -0.571259
-0.346822 -0.0219185 -0.986264
-0.779597 -0.429617 -0.448231
-0.716072 0.105927 -0.00822024
-0.0342656 -0.582 -0.110927
-0.709328 0.0655662 0.106603
-0.974413 -0.170155 0.209429
-0.297374 -0.55518 -0.878422
-0.787558 0.232498 0.655224
-0.361172 0.163868 0.119416
-0.633085 0.203428 -0.389139
-0.594901 -0.598161 0.072172
-0.644923 -0.241544 -0.952582
0.162696 -0.194696 -0.945528
0.790947 0.00526282 -0.462541
-0.877043 -0.237592 -0.408189
-0.0726778 0.410986 -0.713433
-0.40825 -0.00483708 0.260382
0.776478 -0.323995 -0.271123
-0.46503 0.248453 -0.0922356
-0.665889 0.681013 0.752441
-0.536758 -0.0938746 -0.692566
-0.15103 0.175254 0.691694
0.0489343 -0.704336 -0.574978
-0.0794138 -0.687338 -0.443114
-0.909043 -0.185644 0.416828
0.0992935 0.465101 -0.539238
-0.46865 -0.484373 -0.783418
-0.197439 -0.144429 -0.97036
0.746101 -0.410784 -0.379133
