-4.4383 -4.08121 4.39262
-8.10851 -6.11504 -0.624127
10.1126 2.67021 -10.0073
-6.62871 -5.1317 -3.09294
-4.40323 -10.0075 8.14978
5.13091 -6.15958 15.3502
-6.08385 -10.013 2.93639
7.07252 -4.63074 -17.1057
11.6471 9.86009 1.79178
-3.28677 -0.556378 -19.0048
-6.23539 10.0065 0.578907
9.24412 3.24116 5.04618
-6.27912 -10.0084 -0.890557
8.15079 -9.89686 -9.81874
8.33123 1.95935 18.903
9.58363 -10.0055 -6.35737
-8.20938 -1.97433 7.87438
-1.8431 -5.96964 -11.8967
-4.76784 -10.0155 -4.35421
-8.13355 1.36313 -9.83309
11.7137 2.93904 -9.8172
0.6427 6.91259 -15.3256
11.7134 9.85776 -4.66519
7.58702 3.5732 18.8671
6.4234 8.34159 -3.80766
4.10366 6.36219 5.53985
11.6819 4.17422 -4.5719
5.16654 5.64656 -4.97538
8.05695 10.0069 7.87177
-8.20812 -8.00386 0.980638
3.94693 -6.67337 17.0928
-4.27187 9.8642 -9.873
-6.73208 -0.681165 10.0145
-4.45553 -3.17826 17.0858
-2.89771 -9.79789 -3.91877
4.9768 -3.83638 19.0051
7.73081 -8.00051 0.723577
7.55459 10.0035 -5.88199
-8.06624 1.13863 6.03984
-6.28178 0.564295 5.98227
-1.17787 -3.07396 5.26324
-6.48885 -9.86805 -9.89962
-1.43818 1.70696 -5.75004
7.70377 5.94889 1.61863
-6.00554 -5.61491 2.09351
-5.72782 -10.0079 6.50164
-8.20711 -5.83743 -8.15878
5.74434 -6.16312 -4.52083
11.6947 1.09157 6.08878
11.6351 -9.91946 2.1346
-8.12556 -5.55163 2.61251
11.7158 5.21687 -3.27512
10.0315 3.03372 10.0043
-8.21358 7.73897 3.39778
8.65779 0.472485 -18.8581
7.69753 -3.7776 -15.4613
-8.11096 3.70116 -4.99807
-1.59942 -9.84587 5.04558
-6.32435 4.33868 -4.1484
5.37036 -6.01996 11.9172
5.06697 -6.18511 -11.8548
7.15018 4.52029 -15.5396
-8.21661 8.00202 1.49294
11.712 -5.87908 1.68521
-8.20662 -8.31968 -5.61614
-8.07611 4.88343 -3.80441
7.11992 7.97132 -10.0134
-8.20708 -7.90196 6.04111
-4.77079 -2.42222 -13.5726
-4.69408 -10.0111 4.45894
-8.21416 8.22648 5.53145
-5.09992 1.24632 -17.1465
-2.01278 2.78663 19.0065
7.68509 -5.92521 -1.81083
11.7393 -7.77542 9.79784
-4.52955 3.94665 -4.51839
-1.20562 -6.452 -10.112
-4.97577 -5.00696 -3.29145
-3.04977 -5.05219 -15.3799
11.8079 7.93801 -1.61596
3.86786 -10.0106 7.69861
-1.83657 -5.9967 17.0789
9.75872 -10.0122 1.30697
-2.44044 9.90075 4.45615
2.55302 -6.802 18.9105
11.5969 9.79689 9.81759
7.97291 3.30677 -15.0926
-3.64672 -5.40609 2.91035
3.34234 6.84531 15.3311
4.36226 -6.52178 13.5949
7.78202 9.79689 9.85935
-2.49563 -7.61363 -4.19035
0.807836 3.67303 5.92831
-8.07674 9.85874 -1.44231
-1.26878 9.86581 9.86423
1.81181 -10.0152 8.02837
-8.20712 -6.47727 -4.42711
-8.09882 -4.57194 9.86022
-8.10964 2.34388 -5.72899
11.8085 2.09712 7.83519
-5.74083 -9.86902 9.90696
1.61357 6.99092 11.834
-1.28884 0.405088 19.0028
-0.0131766 7.67611 5.71319
11.6814 9.87008 -6.35656
-5.01833 -1.63286 -15.3172
11.6855 9.82322 6.72044
0.503936 9.91257 -6.08538
1.716 7.00263 -13.5612
-1.81615 -10.017 -8.54626
9.92727 4.08961 -4.37742
4.45902 6.48212 -15.3581
7.2207 4.62672 -10.1197
11.6715 -5.18202 3.26564
-2.5654 -4.35606 4.21879
11.5998 4.64677 -9.93786
-8.20654 -7.88224 7.99532
9.51364 -5.477 2.43138
-8.21144 -7.90973 2.88926
7.74349 3.68769 -11.8922
11.7132 9.82879 -2.95054
11.7048 9.84868 0.0613699
-4.73653 -2.74221 -10.1235
-2.76885 4.57186 -4.01617
9.93254 10.0123 7.99824
3.52154 6.36102 -5.75328
5.94655 -9.87098 4.5719
0.146215 -6.70008 -18.9407
-8.21004 8.1811 -8.0904
11.6956 -3.84652 -4.85898
-2.56582 5.47217 15.2846
-3.16001 8.1798 -10.0127
11.6526 -9.86057 -1.79115
4.20805 -6.69314 -5.49724
-6.29643 2.89424 -5.26781
8.00052 9.86487 -9.84478
-4.41489 2.86394 18.9303
8.11798 -2.99788 11.9948
-4.41332 3.25653 -17.2362
5.4 1.35052 -5.87682
-3.56325 -10.0107 -5.92713
5.1506 9.97213 5.27958
-3.51251 4.33706 -18.8325
-1.84799 -10.0081 -6.86874
11.8051 7.49937 6.25873
-6.57805 -10.0135 -4.93554
-8.20528 5.50363 -5.96442
-0.596703 -3.98745 19.0049
-8.20423 -5.59336 6.031
1.8108 4.78639 -19.0037
-4.85521 -2.17736 15.359
-8.20726 4.69701 6.32445
0.95222 6.96214 -11.8453
2.57146 0.949981 5.9616
9.85309 9.89687 -9.86344
-8.06927 9.8531 0.299999
-6.32369 9.85473 -9.88997
-6.41934 -1.55491 5.7874
-3.55992 -10.0075 6.17214
-8.07011 4.81929 9.88154
9.77883 -10.0071 -0.785601
10.0544 10.0181 -7.86756
-0.613072 -6.56809 11.9447
5.9209 9.88698 9.8229
-2.66216 -5.60592 -10.118
11.6438 6.5351 9.89784
7.18433 -4.24413 -18.917
-8.20755 7.85407 -2.42486
11.8114 -7.92844 -8.20356
4.69438 -6.20502 -18.9136
-8.20356 6.62338 -4.26157
-6.24007 -5.99201 0.385939
7.72805 -3.71028 -11.9638
-5.13799 0.957411 13.6663
-0.420809 4.17813 19.0056
6.90347 7.89615 10.0082
11.807 -6.89578 3.42572
7.96855 -6.28043 10.0039
-8.08375 -3.33605 -9.84256
3.92256 9.89375 9.84725
-8.05175 3.34439 -9.84481
-1.45504 -1.15756 5.88831
7.00397 2.8753 5.26569
-8.02896 -8.27839 9.85939
11.6983 -2.24503 -5.76109
5.9503 -8.05751 -4.31644
-3.90495 -10.0091 -7.9343
5.89721 -10.0114 8.24678
-2.71151 4.53478 4.12456
-8.21704 8.04546 7.89685
-3.42509 9.8567 -3.21919
10.1365 2.00022 5.65157
9.88493 -9.79697 -9.91941
8.10138 -10.0111 -7.76744
4.30248 1.02926 5.92264
3.48686 4.43456 19.0051
-8.05222 -9.89337 5.97658
0.966154 7.05766 10.1107
-8.20925 -8.30115 -3.63673
6.0354 5.76339 10.1123
11.8059 -7.78769 -6.39036
5.60066 5.88472 -13.6282
4.67081 10.0089 -7.969
11.5969 1.20668 9.94891
9.63748 -4.60247 3.8381
10.0631 6.51156 -10.0101
-4.34234 3.35977 -13.7715
-3.15666 4.96842 -16.7632
11.8084 7.94589 -5.83502
-1.57465 -10.0141 6.73099
5.3405 3.59943 19.0064
11.7076 -9.84024 -3.65293
-2.43784 9.80276 -4.39565
-2.91729 7.46515 -3.71277
-8.07057 9.89076 2.22065
8.71804 -1.08201 -13.6422
-6.18468 -10.0077 1.08379
11.7124 2.92475 9.81897
-4.68853 2.6237 -11.9671
-8.20691 -3.90455 7.54821
-0.346159 -4.40442 -5.6004
8.3489 -10.0048 -4.43631
-8.21413 0.0823492 8.02553
-8.02611 8.24912 -9.94415
-8.11486 5.85847 1.92728
11.8079 4.38568 -8.27758
-0.053435 0.632002 -5.98678
-6.14921 3.99682 10.0063
-4.51859 3.00642 13.6059
-8.20908 8.01795 -0.481279
-1.78342 6.0264 17.0461
9.04823 -0.0245612 -10.1055
-1.66587 -9.82778 -5.02725
1.74099 -6.81839 -18.8592
-8.15697 -2.31788 -5.8194
11.8037 -3.92445 -7.38795
3.55984 -6.117 5.74415
-6.11331 7.79688 10.0134
7.14371 -4.26243 18.9407
-1.40625 -9.87241 9.86091
11.8079 -8.43087 3.04615
7.92887 -10.0068 7.62539
10.1464 -10.0115 -4.60266
11.8109 0.195578 8.05456
-8.21322 -8.25265 -0.861038
-4.46527 4.59239 3.8423
0.0685268 2.08562 19.0026
-2.95392 0.893211 -5.94618
7.87288 -3.4876 15.5966
9.93407 -10.0123 -8.2437
-3.08185 2.8572 -5.27929
2.75419 -8.15414 -5.92157
11.6763 5.8189 -1.95259
7.18783 -5.26901 3.07017
-6.35926 10.0069 -5.84579
11.6376 5.25091 3.10221
-4.84902 -2.15593 11.9642
6.34009 -5.33025 -15.4278
7.33978 9.8817 -2.59763
4.20411 9.88127 -9.79693
0.851172 10.0079 -8.05177
-8.21311 3.88357 7.97432
9.48941 4.66459 -10.0018
10.0125 4.46547 3.99678
1.78288 5.41262 -6.01675
11.8024 -5.89236 -7.84095
-4.10479 -3.79529 -4.64443
11.7083 -9.84419 -5.60201
-2.4318 5.27994 18.8525
-4.06616 3.82671 -15.5584
7.24034 4.39609 11.881
4.49253 -8.43281 -5.34433
-0.101931 -9.87108 -5.82754
4.62367 -6.57422 10.1223
-4.74213 -9.8528 -9.88766
-3.75165 -9.88667 -2.5671
-8.20728 -6.97972 4.41951
-7.99699 9.93537 -8.20843
3.6206 4.38191 -5.72573
-4.73134 9.87071 9.86847
8.20634 -2.85615 -17.1556
8.01478 -8.22582 -10.0087
2.1744 6.82683 18.8803
11.6464 9.91338 -1.43764
-7.97013 -9.8767 9.79693
9.68487 9.83785 9.87225
-6.39149 -3.33 10.0049
0.163658 -10.0168 -7.88199
-8.04835 9.85693 -9.85841
1.8453 -4.66499 -6.02178
-6.60635 -2.4237 -5.47662
2.89661 10.0121 7.93862
3.70738 6.75461 11.8952
9.83129 -6.53918 10.0062
7.15141 -4.51417 -13.7472
-1.49662 3.48394 -5.04154
-0.855626 6.4946 -11.8906
5.90393 5.68612 17.0647
0.664655 2.9717 -19.0036
11.7065 -0.617334 6.13032
7.39475 0.986752 -5.92379
4.75682 8.27367 10.0115
3.21793 -6.71812 -18.9254
-0.914127 9.91457 5.50953
8.52993 -1.97791 -15.4483
-4.87645 -1.71105 -18.9123
11.5969 -0.515449 9.89976
5.90351 -2.76119 5.31995
-8.03664 -9.90706 -8.15673
-4.50695 -6.32401 -10.0053
3.78811 4.66043 -19.0078
6.83407 4.86631 15.3721
-5.05791 0.00566349 -18.8717
-3.75165 -4.05534 18.8618
2.96365 7.0291 10.1136
-4.84114 1.57299 -18.9084
1.65181 -6.09536 6.00588
-3.29732 4.79536 13.5558
-8.21176 -7.38797 -2.31877
2.55187 -6.96089 -15.3096
10.153 10.0076 -3.92435
-6.09008 -3.91333 -4.56073
-8.07306 -6.45131 9.88575
4.74662 10.0132 7.88901
9.90675 0.267991 5.99773
8.50415 -2.03939 -11.8867
-4.03606 6.78815 -10.0022
-3.17418 4.92708 -14.4709
2.83457 10.0156 -7.98341
8.83562 -1.51548 -10.1105
4.41291 -6.26824 18.8552
-5.19563 -0.134804 15.3839
-8.21228 2.20264 -7.89043
9.62571 -10.0087 -2.71583
-4.2843 6.08112 -1.02351
5.78302 6.12351 4.48123
-8.21029 5.90106 8.17864
-3.81659 7.84039 -2.09023
6.0511 -2.34881 -19.0072
-7.99427 -1.7303 -9.93153
9.82503 -3.20392 5.06049
-3.32682 -4.78901 17.0563
-1.54608 7.92302 -4.98455
6.56908 -5.11408 -11.9225
-5.641 10.0118 -8.18818
2.25899 -6.37395 -5.99857
-0.227701 8.31585 10.0052
-8.08565 4.97198 -9.85647
8.45185 -2.20801 14.4609
4.40576 -0.176019 19.0037
6.52498 -2.3538 -5.51935
-6.06566 -5.81584 -1.45247
3.77861 9.91302 5.87672
-2.45565 -5.55124 11.9195
-8.20918 -5.91599 7.97842
-2.41428 -10.0115 8.19841
7.93989 -3.95531 4.51845
-1.4372 -8.24318 -10.0093
7.2056 -10.0055 -6.02503
0.563289 -6.75284 18.9021
-5.92769 10.0054 4.35164
-2.96234 -9.86955 3.89313
11.5969 -0.455073 -9.8793
-0.00901123 4.52201 -5.71258
-0.209391 -6.71327 -11.8635
8.0922 3.0942 -17.0201
-8.07197 -0.627628 6.15211
11.7139 -0.649551 -6.13071
0.364719 -6.85553 13.736
-1.38288 6.06771 5.08646
-6.27979 4.11295 4.37405
-4.43126 -3.19022 13.6437
-0.312458 6.67954 -13.752
7.67912 -9.90028 9.83543
-1.22892 10.011 7.91542
11.6588 -6.74541 -9.89018
-3.97292 3.95528 11.883
-3.58612 5.52638 -2.76107
4.50419 6.28731 -18.9164
11.8078 0.243501 -8.01209
3.74282 6.73229 -13.5581
6.3445 -7.85356 10.0134
5.93245 -0.543916 -5.99248
3.06712 -4.53255 19.0057
3.81363 9.94253 -5.85216
5.62357 5.8563 11.9226
-0.291332 9.91056 -9.81791
8.00466 -2.83017 18.923
-6.36252 -7.66171 10.0155
9.58329 10.0078 -2.03862
6.53776 9.83132 3.91877
1.15891 6.76192 -18.8871
8.80484 1.48734 10.1047
-1.79226 5.83454 -4.81383
9.82216 -1.57911 5.78991
4.67823 -0.750543 -19.0035
-6.48043 9.82236 9.87726
1.88969 9.89656 -9.82763
6.1828 1.70137 19.003
3.14511 8.43441 -9.99864
-5.19737 0.317627 -15.3649
8.30021 -2.628 17.118
9.97328 -2.90578 -5.25083
-5.53104 -10.0031 -6.40524
0.428209 5.60936 5.8478
-8.05533 6.66367 -9.84971
-8.09533 -4.78266 3.93113
-8.11105 0.878327 -6.10422
11.8086 7.6293 2.56908
-4.18528 8.01442 -0.108069
5.22192 -10.0062 -6.68401
6.71931 2.76622 -5.32971
-6.06963 -10.0182 -8.06929
6.73525 -4.9658 15.3807
11.8026 -4.51057 6.51018
-3.93136 -4.02313 15.333
11.808 -1.73222 7.83554
-5.09841 -1.18116 13.6639
-8.20387 6.67214 6.5485
-2.94492 -2.7148 5.3565
8.82078 1.42178 -10.1235
11.6712 9.84525 -8.12647
11.8064 6.43026 4.50623
-6.17529 -5.3684 10.0074
-8.20774 4.10521 -7.53084
8.47608 10.0053 -4.1032
2.97572 6.91414 -11.82
7.38449 7.82344 -2.17459
11.8071 7.95063 8.06484
-3.3843 4.72267 17.0258
-8.03307 6.09029 0.505026
6.68694 -0.31919 -19.0037
6.95613 -4.727 11.9671
-8.2051 7.65413 -6.23369
7.9497 -6.17578 -0.100465
6.08291 5.34708 -18.9184
-0.092877 6.44195 -5.69371
11.8109 -5.82436 8.23927
-8.08991 -3.66843 5.01792
1.95439 3.35668 -6.01006
11.627 -9.89787 4.21137
8.35306 2.46037 11.9477
0.26339 8.29047 -5.80495
6.23591 -10.0114 -8.14121
4.24521 -9.83167 5.65164
0.834397 8.48733 -10.0027
-3.8293 -4.16177 -13.6388
8.16712 -2.91055 -13.7124
11.5969 -4.00805 9.91236
-6.42791 -10.0175 8.25398
6.00021 5.60153 -15.4264
-3.24881 -5.21287 -3.37472
8.07772 4.34027 4.1343
-8.06846 -9.87495 2.06409
4.02503 -10.0103 -8.11537
11.8088 -7.99279 -0.915052
-8.20366 -4.87219 -6.17515
-4.29611 1.39428 5.834
9.80681 10.0094 0.0789962
-4.74612 2.82093 10.1235
0.510492 6.65779 18.8918
-2.4484 -8.19843 4.23912
-5.06517 -1.38851 -11.8123
-0.614698 -9.79697 -9.86372
-4.13075 -5.95834 1.54419
7.58157 7.95409 1.55699
-8.05059 -5.04176 -9.85473
11.6648 4.25082 4.44101
-2.33899 -6.36781 4.34259
4.14471 -9.90549 9.79207
-8.02541 9.9134 5.84273
4.51865 -4.24287 5.35343
2.86436 2.8889 5.90095
-2.75011 1.39955 -19.0048
-8.07294 -9.88866 -2.13825
7.39996 -4.48553 10.1355
-6.09619 5.7927 10.0094
-5.16518 -0.754017 -17.0873
-2.84231 -1.05113 19.0041
6.01229 4.18994 4.37891
-8.20371 -6.69054 -6.43038
7.781 8.04393 -0.354639
-5.20075 -0.10396 11.9661
8.79388 0.65069 17.1796
-0.2886 4.69585 -19.0047
5.26166 8.03519 -10.0029
-4.4941 3.20212 5.07874
11.8064 -8.11612 5.26349
4.90057 -0.741237 5.96277
-6.58252 1.93968 10.0027
-0.0475155 -6.77689 17.1498
-8.20659 6.2555 4.75329
11.6101 -9.87707 -9.64369
3.69475 8.15566 5.68567
3.26583 0.817214 -19.0018
6.70629 -9.8651 -3.71468
0.1479 6.81889 17.0532
-4.5787 -6.38916 10.002
6.12495 -4.32786 4.26894
2.91334 6.78079 -18.8851
8.66853 1.35822 15.4576
-8.20526 6.18012 -7.91153
11.8057 -5.93824 5.069
-0.951559 6.58796 10.1226
-8.08074 -3.59969 -4.98614
-8.04848 9.79689 9.74604
9.63588 10.0048 2.17104
11.805 -7.92469 1.13099
-8.20934 8.33724 -4.38736
5.261 6.09059 15.3491
9.78445 5.94924 0.801045
-5.92804 10.0075 -3.52468
-4.14773 -3.41774 -18.8275
-3.72148 -4.33872 -17.0761
9.65148 10.0033 -5.89927
8.0666 6.31469 -10.0016
-1.0293 9.88261 -5.47734
1.48196 4.88759 19.0055
7.87473 -6.39642 -10.0013
6.95586 4.76539 -17.2694
5.40215 -9.89919 -4.9678
6.03347 9.87718 -9.89503
-0.477228 -6.6498 -17.1652
3.71888 -2.30411 19.0029
-1.41373 -0.587437 -19.0034
-8.06334 -5.67602 -2.38223
8.22118 -3.11615 10.1202
-3.1404 1.02184 19.0056
-2.09589 5.82741 -13.4093
7.9319 -10.0044 5.34366
-8.08203 4.19759 4.49423
4.06059 2.08823 19.0028
5.06977 7.69226 -5.01847
6.18947 -5.66689 10.1235
11.8055 6.19723 -7.44372
-0.405271 -1.70088 19.005
11.624 1.11914 -9.91906
6.62873 4.89843 18.7411
-4.01654 3.90059 15.2871
0.732427 -4.71612 -19.0036
1.91241 2.92522 19.0021
-8.09225 0.991281 9.85795
-2.44463 5.28359 -18.8364
9.96392 -4.31063 -4.15974
0.599843 -9.83488 9.90074
5.87197 5.87812 -10.0977
-4.3482 -6.14781 -0.16202
7.6064 -3.91373 13.6885
-8.11473 5.75488 -2.33208
1.4509 -2.93167 19.0028
4.27088 -1.52523 -5.80526
3.79898 0.256945 -5.99993
-8.05261 9.8769 4.02309
6.82937 7.60757 3.2561
6.56994 9.88996 -3.94365
7.97757 -9.87545 -0.0681564
11.8088 7.97511 -7.93638
11.7383 -3.41182 -9.83038
4.39607 4.55188 5.41819
2.6393 6.94945 -15.2951
2.3463 -6.98199 13.6228
-3.3943 -9.84902 9.87944
-2.50039 -5.52329 -13.6471
0.648826 0.104785 19.0024
-8.06411 9.90067 7.71376
-8.1303 5.21815 3.20677
-2.47031 5.54363 11.8718
-4.29425 -3.45472 -15.3364
2.85487 -8.01463 5.89523
11.6961 -2.36106 5.73034
-8.06741 6.64901 9.90622
-6.45872 1.02699 -5.90871
11.6881 -9.8517 -7.57005
-8.21469 -1.80955 -7.96205
8.73829 1.13979 -17.1055
-2.47517 5.53669 -11.6852
5.91346 -5.44682 18.8879
11.6008 -5.8048 9.9044
9.43223 5.2386 -2.92702
8.38088 10.0085 -7.75905
11.8055 3.91156 7.71429
4.1303 6.61407 17.1178
8.12777 3.30646 10.1156
-4.04763 -5.86461 -1.82563
-4.9648 1.29121 18.9111
-1.42873 -5.99408 -18.8965
-8.07931 6.04693 -0.919321
8.39465 2.36916 13.8317
-2.33989 7.8896 10.0096
0.496857 -1.02991 -5.93396
-1.64001 6.1023 -15.3667
-6.19489 -5.56088 -10.0068
3.6047 6.78646 -17.1075
-4.32147 6.1184 0.82713
5.86984 -9.85482 9.91819
2.94762 2.81976 -19.0031
7.6814 -5.92778 1.60729
1.98158 -2.51957 6.00653
-4.31802 -9.86763 0.639534
-3.91711 -4.02838 11.9238
4.57722 -6.42844 -15.3356
7.69661 -9.87089 1.74063
-5.04802 5.24017 -2.92569
9.75068 5.8809 -1.14712
2.53121 -0.963341 -19.0033
-2.88143 -5.40271 10.1235
-5.3329 -1.23236 -10.0537
5.98943 -4.21349 -4.4359
-4.38438 -3.26791 -11.8963
11.6807 -9.85245 0.077714
2.42103 6.97219 13.5665
-1.61294 6.11586 13.5851
11.6257 -8.46127 -9.91395
-4.55054 2.9671 17.0921
-0.792501 -8.27842 10.0075
1.55321 -7.19772 10.053
-8.04821 -9.89051 0.0417292
1.74106 8.28067 6.01703
-5.18497 -0.500251 -13.5662
3.45389 -9.92437 -5.93223
-1.69112 8.05276 4.88349
7.24678 -7.85932 2.50613
9.22395 10.005 4.08753
7.60747 -9.90504 -2.01653
11.6419 5.9741 1.39944
-4.75388 0.457793 -5.99859
-2.26428 -5.72301 -17.1355
5.35458 5.87812 18.9087
-8.04624 -9.4704 -9.8322
8.65779 0.343369 18.9336
-0.920702 -6.44946 -13.7046
7.94461 -2.3569 5.52843
7.22831 4.72151 10.1171
-1.57966 -6.13131 13.6267
6.06149 -10.005 6.48023
-6.24689 2.43819 5.48108
0.48824 -6.88325 -15.4561
-4.44981 10.0082 -4.84388
-3.0443 8.29683 3.52265
5.44138 -5.99405 -17.0686
-8.06324 8.27558 9.90734
-2.27835 9.88721 -9.80885
4.1103 -6.61362 -13.562
2.18525 -1.06792 19.0032
-0.710344 -6.54009 15.3759
-2.84782 6.51448 3.78632
-8.20809 2.06299 7.82428
-1.79226 6.20021 -10.0909
-8.20654 0.172869 -8.046
5.39366 6.02508 -17.186
7.36058 4.27812 17.1002
1.2652 -6.97936 15.5135
4.02555 -2.43264 5.61442
3.75447 -2.60247 -19.0031
-3.49759 -7.66384 2.813
4.71246 6.52324 10.1062
7.25499 -4.42525 17.2399
0.232105 -6.16848 -5.79109
5.76015 -5.78621 17.0963
2.12038 9.92322 9.80114
9.42508 5.42245 2.58762
9.55163 -9.91302 9.83889
7.94785 6.13756 -0.147316
-0.643744 1.29724 -19.0048
4.83317 -9.86857 -9.87519
4.83828 2.75627 5.36591
-0.953461 -8.02536 5.34822
7.57883 10.0023 5.61832
-8.07988 -4.67331 -4.00959
0.858707 10.0104 7.95399
-8.06675 -7.2138 -9.8776
10.1987 2.48194 -5.4646
6.14772 -5.48495 13.6515
1.09223 -2.89066 -5.96292
7.88955 9.88913 -0.930766
8.33801 2.55278 17.1671
-2.83272 -7.78693 10.0041
11.6553 0.973771 -6.05137
11.7484 2.63164 -5.55251
-0.184994 6.73738 -16.8783
6.56761 -0.180563 19.0045
8.55978 1.85089 -11.8607
-2.53815 -5.32755 18.908
-3.8332 4.36472 10.1179
11.6814 4.77447 9.86603
2.45076 -6.97211 -13.4818
8.73824 -1.05873 16.619
-4.34443 2.91692 -18.8909
11.7426 -5.20064 -3.42055
8.78573 -0.484598 14.8231
-4.85493 2.18843 -15.5012
9.5121 0.77463 -5.96199
9.38421 -10.0033 3.38371
-6.03727 -4.80979 3.59684
-4.69218 -2.37895 5.51369
-1.72443 -5.89406 -4.86312
-4.07821 9.90216 -1.90635
1.34798 -6.97827 11.9236
-1.25944 8.19052 -10.0084
7.40493 3.87197 -18.8969
0.00146145 6.85781 -10.1054
6.00309 -2.06134 19.0077
11.8104 -8.09373 7.75297
2.2723 8.44986 10.0013
-4.20681 10.0052 5.33689
11.8048 -3.59153 8.00761
-0.25572 -2.44068 -19.0033
4.9491 1.35087 -19.0044
0.917496 -8.04408 5.95528
3.24481 -6.85999 15.342
2.15047 -10.0141 -7.96336
3.75933 6.58576 18.9101
-5.18546 0.649155 -11.8768
0.104146 -6.91322 10.1235
-1.1474 10.0086 -7.7362
9.79799 -10.0104 7.62011
6.68329 10.0098 -8.19365
4.43587 6.49461 13.6343
11.8039 -5.66753 -5.72145
6.56987 -9.84972 -9.84766
6.30657 10.0047 7.24703
-8.04139 9.93497 -4.87498
11.6328 8.16407 9.90842
8.58791 1.74503 -15.3231
1.81611 0.991477 -6.00419
11.5969 -9.82057 9.7802
-4.68328 2.17939 -5.5932
0.203759 -1.96222 5.8047
-3.61786 -0.866831 -5.94125
11.7298 9.83744 8.31002
11.6113 9.79743 -9.8441
2.13352 9.92321 6.11981
7.94087 -3.8972 -4.56649
-3.68628 4.35005 -12.2374
4.86146 -3.10724 -5.26583
11.8056 -7.51292 -4.53988
7.67345 -8.0417 -1.21587
5.23561 3.3518 -19.0047
-1.07013 -6.20476 18.9015
-3.248 4.99403 -10.1216
0.770613 -6.93017 -13.6759
0.594363 -0.654392 -19.0034
8.76273 0.791217 -13.6128
6.51911 -6.52963 3.70943
0.840212 -8.02303 -5.923
-5.04053 -0.590188 18.8871
-5.04346 1.50166 -13.67
-2.83849 10.0069 -6.29069
-1.71144 3.18262 -19.0037
6.13237 -8.1741 4.12206
11.7478 6.3794 -9.79693
2.80714 -9.84745 -9.8802
-8.21278 -8.02344 -7.94182
-8.20922 -3.73555 -7.76297
0.493626 9.8917 9.87534
-4.27393 6.36748 9.99968
-3.90057 5.66388 2.49483
-5.99161 -7.87348 -10.0163
-4.59254 -2.49588 18.9034
8.62217 -5.09858 -3.14884
-3.62962 4.19513 18.9073
9.66274 5.21644 10.0045
-2.66061 2.81199 5.29217
-6.29909 4.01951 -10.013
-3.51838 -7.89581 -10.0097
5.97868 -7.88181 -10.0067
-8.1026 -2.3172 5.74952
8.51461 2.58433 -5.41791
11.8045 5.15931 6.11765
-6.3004 -3.40874 4.93432
4.03359 6.73105 -10.1117
11.807 6.08569 -5.23436
11.7019 2.93698 5.47429
-8.07351 -9.83812 7.75784
-5.34399 0.273053 -10.0483
-2.98621 -9.83798 -9.85332
6.16183 -5.28611 -18.7972
-1.58929 -6.33726 10.1419
11.6813 -6.17862 -0.100617
7.8823 9.85265 0.893503
-2.33185 0.922904 5.94434
1.69437 -2.84326 -19.0029
-4.10413 -7.9973 -0.945467
9.61328 -4.5726 10.0045
-1.13281 4.05814 5.2378
6.48085 5.20082 -11.915
10.2354 -8.34609 10.0286
-4.92337 1.96437 15.3839
2.83475 -4.70945 -19.0033
-5.28369 -0.407383 10.1235
-6.04327 5.32608 2.77719
3.57788 -6.79405 -17.0558
-3.22831 -4.87156 13.6037
9.80771 -5.95831 0.748762
5.30096 9.80443 -5.00179
-1.57597 -0.653166 -5.98019
11.808 7.99095 0.540529
-0.737322 2.35301 5.57053
7.14111 4.52838 -13.6379
1.99628 -7.01857 17.2436
7.27839 -4.5517 -10.1149
2.63562 -4.27781 5.9417
11.7027 -4.99671 -9.82003
8.51272 -1.24876 18.8891
11.683 -9.85012 6.31264
-6.50127 -10.0087 4.84153
-3.84384 7.79804 1.92654
-4.19733 8.19494 10.0136
6.28029 0.984215 5.92595
-8.06893 -9.89626 -4.18383
9.94714 -1.03198 -5.91409
4.06576 -4.88201 -5.55522
-8.03868 9.8922 -3.17186
11.8066 2.33356 -7.77114
-1.18723 -4.0686 -19.0068
-5.55353 8.18103 -10.0151
7.64875 5.83056 -1.91915
8.37145 -2.3659 -5.51534
6.21318 5.43478 13.6098
3.7966 -8.35525 -10.0058
-3.93774 -4.32074 10.1007
11.6301 8.13964 -9.89316
8.66974 -1.34203 12.6146
11.8065 7.60402 -3.67095
8.06241 4.15108 -4.32786
-6.1052 10.0197 8.17816
-8.06149 -2.73905 9.86892
-0.455775 0.396997 5.99635
11.6011 9.90419 5.10757
-0.543923 6.5992 11.8012
3.02505 -0.856603 5.96057
-2.21863 -2.91058 19.007
2.32497 -1.09269 -5.99819
2.13818 7.01935 17.011
9.83922 -10.0085 5.486
-2.46337 -2.47288 -19.0043
0.499482 9.8534 6.01655
-8.01366 -0.224018 -9.94227
-8.10227 -9.83825 4.10561
7.09705 5.29951 3.10728
-3.6778 9.90467 2.92488
9.62112 10.0052 6.05771
0.585268 -4.1974 5.88366
11.6248 9.87074 3.36399
11.6479 -3.93779 4.67966
-4.31601 -9.9042 -1.01266
8.50374 -1.48462 -18.9415
11.8065 -1.93283 -7.92908
11.8077 8.27993 4.426
-2.13596 -3.9817 -4.64086
7.98592 3.2948 15.4703
9.24123 8.16713 -10.023
9.79835 -7.44888 -10.0093
9.4769 7.75577 10.0148
8.16017 -0.388095 5.99833
-4.01069 -4.24433 -10.122
-0.289663 -6.34807 5.62706
8.21177 -3.24593 -10.1235
2.36699 -9.82315 9.89451
-4.35856 9.89657 -0.334972
1.08368 -9.80377 -9.9103
6.01852 4.2216 -4.33854
7.55282 3.98657 13.6261
-3.28855 -4.80242 -11.8588
6.97792 5.13124 -3.2303
-5.99102 10.007 6.3518
2.44079 0.966947 19.0016
1.53764 -7.00253 -11.8318
8.78355 -0.134634 -11.8571
5.48359 8.03309 4.73087
5.75122 -5.77937 -13.6599
-6.17106 10.0137 -1.51183
1.43455 1.14465 -19.0029
11.6681 -9.88629 8.09114
-6.04898 -10.0085 -2.82738
-5.1513 0.863568 17.1152
-6.6484 1.90022 -10.0126
1.81799 7.48461 -6.01613
1.00754 1.74667 5.95358
-2.99633 9.8741 9.81696
2.96749 -7.05898 10.1045
-4.78919 -2.28673 -5.55143
-8.11101 -1.04974 9.79693
4.66404 -7.95761 5.27339
-1.77369 6.04546 -17.335
4.25723 -6.69634 -10.1134
-6.61201 5.405 -2.59012
11.803 -6.68688 6.65131
1.61976 -9.87657 -6.14316
-6.19143 5.90312 1.03721
-8.08757 -6.09537 1.02247
0.311968 6.84408 13.4616
9.68763 -5.90898 -1.0435
-1.15078 -4.94298 5.23605
2.44653 4.79058 5.97326
11.7306 -2.262 9.82543
-0.719107 6.538 15.316
-2.50455 -5.52541 15.3074
7.02497 -9.9267 3.26564
-4.62135 -8.36597 10.0118
8.79831 -0.138402 -15.4411
-3.19698 -0.773277 5.96246
4.84394 -4.09404 -19.0068
8.28378 2.28591 -18.8376
11.7083 6.1341 -0.322384
4.25365 -8.35392 10.0078
-3.52501 -7.67195 -2.75633
-5.20342 1.0963 10.1284
8.22075 1.55598 5.79339
-8.06747 9.85483 -6.52387
-3.92817 -9.8761 2.30098
8.76145 -1.52352 10.1744
-3.20934 10.0149 -8.13848
0.273259 -9.88466 5.90507
8.1181 6.39515 10.0019
7.02637 -7.57466 -2.94235
-2.47334 5.69448 10.1152
-2.7278 -2.38295 -5.5036
6.48622 6.6294 -3.75814
3.45125 2.0601 -5.75476
5.93719 -5.81509 -10.1138
-8.09547 2.76184 5.5503
-5.96093 10.0066 2.54065
-6.31402 -3.40414 -10.0098
6.93742 -5.24698 -3.25735
10.1575 -2.40818 10.0059
-0.142982 -10.0095 8.01887
11.5969 -1.78358 -9.89463
-2.86307 -4.968 -18.8303
2.21759 -9.85107 6.15079
10.1688 -5.38186 -2.6276
-4.06453 10.0071 7.81825
8.22233 3.16537 -10.1235
9.00997 -0.0539201 10.0451
11.8062 5.94631 7.93548
-6.41016 6.4644 -10.0097
9.59877 -5.22935 -10.0025
1.24071 6.97779 15.2088
8.77802 0.664685 13.4127
0.56633 -7.12032 -10.0729
-5.05791 1.99163 -10.1511
-0.957097 -7.86947 -5.32375
1.56603 -7.01205 -17.0954
-5.07129 5.35156 -9.99963
3.03667 -3.09142 -5.87261
8.77913 0.356209 11.7003
7.96539 -0.701061 -5.97357
3.44668 8.2911 -5.75943
-4.10574 -7.99099 0.99573
10.0447 -3.1501 -10.0062
-4.23048 9.84402 1.28307
-2.62847 10.0057 6.67591
1.73307 7.01708 -17.1071
7.35489 9.90088 2.60476
-8.08184 2.98159 9.82007
-8.07871 -0.708646 -6.10741
-5.09222 -1.26021 17.1249
-6.11333 5.93965 -0.863944
4.85996 6.2877 -11.851
0.311349 2.50188 -5.81159
4.85833 3.13089 -5.1947
8.25423 2.7033 -13.48
1.21292 -0.405687 5.99862
5.81774 10.0047 -6.58543
11.8046 4.33279 -6.49099
3.41785 -6.82797 11.8737
-4.61987 -3.19974 10.1289
2.01707 7.09438 -10.1081
-4.70217 -2.63487 -17.1079
-4.8176 10.0063 -6.72847
-6.06203 -0.797896 -5.95239
-4.91203 2.01217 11.932
-0.791567 -2.55114 -5.49588
1.11692 -4.98417 19.0054
6.69539 1.77282 -19.012
2.24533 -7.1638 -10.0739
-0.529205 6.48287 -18.8023
-1.02456 6.23621 18.904
2.09182 9.89211 -6.08393
11.8056 -7.73662 -2.8043
-5.12405 -1.78369 10.1235
-1.44352 -6.21129 -15.4621
7.94084 -3.07268 -18.8891
-8.01347 -9.88991 -6.45291
2.1249 6.60181 6.01459
11.7169 -5.87281 -1.85366
3.34835 -6.84116 -11.7158
6.56393 -1.01207 5.92786
-4.83662 -0.507246 5.99311
5.2721 -6.08876 4.8981
-4.35709 3.55361 -10.1311
8.76947 -0.873241 -17.2306
8.32778 -8.15494 10.0085
