-0.594412 -0.392753 -0.596322
-0.810256 -0.472343 -0.361213
-0.501969 -0.570126 -0.0705395
-0.378475 -0.387739 0.227713
0.219978 0.396026 -0.739752
0.376889 0.289032 -0.934332
0.385007 0.230962 0.0224606
-0.469573 -0.582101 -0.127749
-0.820842 0.0391997 -0.412797
0.506163 0.3106 -0.262705
0.772708 -0.202613 -0.92072
0.952071 -0.279538 -0.711013
-0.0759192 -0.724089 -0.357684
-0.658246 -0.390205 0.604008
-0.252966 0.0444279 0.20627
-0.574121 0.214143 0.617661
0.0260404 -0.738632 -0.266566
-0.195428 0.0562733 0.169388
0.724543 0.08664 -0.148167
0.464526 -0.648574 -0.33668
-0.890857 -0.2952 -0.00330818
0.130813 0.443962 -0.64994
0.934542 -0.22439 -0.523949
-0.606408 0.195262 -0.0557992
-0.257974 -0.596436 -0.969487
-0.943837 -0.245839 0.436499
-0.643406 0.079104 0.223703
0.206841 0.442856 -0.609788
-0.61576 -0.526448 0.00233067
-0.125787 0.0272252 0.588859
-0.431821 -0.599967 -0.219367
-0.291855 -0.0790651 0.730739
-0.70222 0.0699241 -0.499015
-0.252611 -0.186582 -0.985086
0.076101 0.206886 0.0684214
0.747477 0.130411 -0.319643
0.261805 -0.166352 -0.997826
-0.812822 0.00881598 0.34363
-0.641154 0.722791 0.720496
-0.113638 0.0727005 -0.929239
0.252446 -0.139375 0.269799
-0.530545 0.000169286 -0.704001
-0.653241 0.728633 0.871695
0.592068 0.216453 -0.715409
-0.375895 0.330018 -0.960178
0.328918 -0.662528 -0.780658
0.643244 -0.541966 -0.295077
-0.850988 -0.0766173 -0.445176
-0.12054 -0.465601 0.0524716
-0.875745 -0.352431 -0.0375729
0.671104 -0.48781 -0.618105
0.685363 -0.374796 -0.865946
-0.533815 -0.143236 0.612044
0.622613 -0.552363 -0.447784
-0.919027 -0.0954558 -0.207088
-0.449341 0.096307 0.182481
-0.34654 -0.345009 0.176315
-0.0096603 0.496472 -0.455968
-0.560728 -0.496738 -0.806267
-0.762647 -0.538424 -0.223327
-0.498802 -0.208936 0.600309
0.749619 -0.0691979 -0.933545
-0.0950529 -0.560402 -0.6054
0.318041 0.42529 -0.401402
-0.704108 -0.365493 -0.551129
-0.906578 -0.235987 0.01824
-0.556637 -0.0335746 -0.645004
0.640545 -0.0153549 0.0636109
-0.250515 -0.606648 -0.888201
-0.692804 -0.122625 -0.850777
-0.953005 -0.472909 0.0909963
0.0851336 0.336566 -0.872255
0.261253 0.252391 -0.992236
0.600764 0.156441 -0.0346675
0.606431 -0.356187 0.0756808
-0.306853 0.0879829 0.197817
0.465958 -0.622044 -0.639117
0.752617 0.101635 -0.38984
-0.266985 -0.0306467 0.233514
-0.922726 -0.289171 -0.0800288
-0.131111 0.39735 -0.664138
-0.595415 0.690758 0.876582
-0.457622 -0.614017 -0.329397
0.797535 -0.014772 -0.32213
0.568063 -0.575465 -0.485817
-0.508843 0.0598311 -0.675051
0.126646 -0.623952 -0.829463
0.433889 0.371173 -0.440621
-0.805566 0.419084 0.761257
-0.76925 0.0521045 -0.471186
-0.00103282 0.456998 -0.657604
-0.88662 -0.280421 0.576479
-0.923934 -0.494121 0.325725
0.628763 -0.193917 0.0936551
-0.590361 0.433708 0.622929
0.800683 -0.391311 -0.78583
-0.213954 0.308903 -0.262735
-0.272108 -0.528549 -0.705659
-0.644664 0.657405 0.916259
-0.0704297 -0.0473092 0.204695
0.736714 0.0297377 -0.112947
-0.178576 0.373212 -0.882546
0.699991 -0.26898 -0.0097536
-0.694349 -0.736645 0.157975
-0.755699 0.0391008 0.37685
-0.526245 -0.428777 -0.798578
-0.461643 -0.0613031 -0.985725
0.562704 -0.556359 -0.555135
-0.0536939 0.155875 0.805919
0.0590736 0.242966 0.0195074
-0.395973 -0.170829 0.371255
0.720256 -0.0463618 -0.0406501
0.636389 -0.337941 -0.917016
-0.754973 0.208735 0.726919
-0.202861 0.374438 -0.508337
-0.696704 0.0760058 0.172131
0.507011 0.33872 -0.420272
0.877637 -0.216034 -0.857725
-0.723054 0.44276 0.599001
0.350099 -0.705181 -0.587759
0.0168339 -0.501047 0.0681803
-0.208693 -0.078539 0.219904
0.0789767 0.122161 -0.9274
-0.36646 -0.588887 -0.222436
0.0585366 0.486867 -0.466642
-0.389637 -0.0617605 0.291927
0.665703 0.194605 -0.596824
0.0659941 -0.631202 -0.838014
-0.413078 -0.430064 -0.977985
-0.843529 0.0130893 -0.044491
-0.759811 0.218538 0.539031
-0.448882 0.101681 -0.81082
0.12518 0.176381 0.116504
-0.613997 0.73767 0.922733
-0.227587 -0.527571 -0.647916
-0.838075 0.049231 -0.115463
-0.50106 -0.431967 -0.976695
-0.328909 -0.107193 0.677205
-0.468131 -0.352638 0.568679
-0.898753 -0.429592 0.0556284
0.63728 0.203403 -0.664199
-0.0553698 0.295259 -0.0976027
0.716718 0.155414 -0.261559
0.488041 -0.488901 -0.00513185
-0.371429 0.242264 -0.356763
0.201658 -0.652661 -0.812686
-0.334251 0.142866 -0.794335
0.254818 -0.0761546 0.265116
-0.494342 -0.546249 0.210878
0.324587 -0.0627108 0.258992
-0.700607 0.319742 0.797307
0.175322 -0.0663204 -0.947462
-0.905825 -0.190838 -0.369453
0.341512 -0.723072 -0.319223
-0.13985 -0.236379 0.196825
0.532406 0.231253 -0.826574
-0.699007 -0.142901 0.609892
-0.00874451 -0.0914895 0.227263
0.020048 0.0885495 0.668051
0.315171 0.0986691 0.191604
-0.304285 -0.100447 0.546992
0.00450718 0.287871 0.819153
-0.222926 -0.369632 -0.97743
-0.586367 0.645831 0.771195
0.373436 0.372539 -0.74545
-0.871823 -0.564346 0.0247083
-0.13525 -0.0243503 0.189688
0.686058 0.139847 -0.132626
0.248139 0.359172 -0.173452
-0.0452663 -0.360179 -0.935044
-0.14744 0.453129 -0.28881
0.202649 -0.69837 -0.186889
-0.294965 -0.0578788 0.51027
0.344888 0.388648 -0.677718
-0.667873 -0.577851 -0.34167
0.235668 0.433751 -0.539133
-0.118826 0.0464136 0.16971
-0.94771 -0.168224 0.065993
0.553308 0.274714 -0.220605
-0.234192 -0.420417 0.114164
0.405951 -0.687304 -0.328598
-0.973745 -0.225884 0.274169
-0.681364 -0.537139 -0.417315
-0.676231 0.0331251 -0.549168
0.490273 -0.571705 -0.768802
-0.743318 0.229695 0.594959
-0.0530452 -0.623346 -0.604612
-0.804966 0.00380745 0.423165
0.359829 0.402385 -0.460813
-0.331596 0.182052 -0.544192
-0.847849 -0.485459 0.019081
0.268273 -0.522568 -0.995031
0.374817 -0.284918 0.243374
-0.459007 0.156685 -0.523951
-0.942757 -0.294724 0.391972
-0.291866 -0.573297 -0.218356
-0.142123 -0.512455 -0.584837
-0.0581013 -0.667726 -0.514596
-0.444705 -0.0389577 0.397113
-0.0387353 0.488893 -0.520638
-0.0769437 0.00196268 0.64526
-0.919271 -0.271908 -0.295313
0.0403266 -0.697055 -0.650623
-0.548435 -0.58665 -0.136899
0.373081 -0.702185 -0.387296
-0.885345 -0.11453 0.014824
-0.0124505 0.19524 0.861655
-0.0215038 -0.219561 -0.9377
-0.810214 -0.668042 0.370933
-0.200795 -0.295028 0.191588
-0.25751 0.200927 -0.942846
-0.471713 0.19595 -0.453108
-0.467302 -0.412516 -0.623353
0.126683 0.422517 -0.715145
0.212678 -0.499888 0.112803
-0.0886041 -0.425366 0.112064
-0.318165 0.372305 -0.949501
-0.884151 -0.074233 -0.353801
0.107075 0.12753 0.164164
0.141053 0.299266 -0.123244
0.0104045 0.252184 -0.00856271
-0.655078 0.177089 -0.109184
-0.528272 -0.412345 0.583724
0.401068 -0.639545 -0.200764
0.289633 -0.238134 -0.995553
-0.251106 0.380634 -0.905325
0.23353 -0.599403 -0.860697
-0.407459 -0.0940954 0.360985
0.166156 -0.750165 -0.396598
-0.966304 -0.363521 0.286525
0.0161672 0.188903 -0.926302
-0.854622 -0.675573 0.309368
-0.663393 -0.642368 0.405452
0.204377 0.415248 -0.201737
0.00235522 -0.700673 -0.215839
-0.743273 0.384263 0.534308
0.423591 0.161332 0.105899
0.263779 -0.68592 -0.771862
-0.287911 -0.570824 -0.453938
-0.897682 -0.1751 0.0100951
-0.234316 -0.0017707 -0.936806
-0.0135272 0.401158 -0.778067
0.211717 -0.406249 -0.932601
0.0481144 -0.655894 -0.169214
-0.497401 0.109371 -0.870691
-0.381575 0.261127 -0.166804
-0.838997 -0.165155 0.583383
-0.635817 0.0623494 0.404814
0.92801 -0.227556 -0.808787
-0.050535 0.0518055 -0.929515
-0.747828 -0.214463 0.612062
0.570391 0.296932 -0.423366
0.81097 -0.227986 -0.466994
-0.610342 0.0230099 -0.983057
0.556921 0.0918027 0.0739913
-0.875103 -0.0664188 0.059033
0.668212 0.0902025 -0.861663
-0.883384 -0.355812 0.564765
0.729213 -0.302245 -0.0769865
-0.442766 -0.194552 -0.973689
-0.676498 0.0421039 -0.975882
-0.0651177 -0.704981 -0.882743
0.279245 -0.197202 0.271094
-0.231082 0.112358 0.138208
-0.685514 -0.0314919 0.622913
-0.343824 -0.569044 -0.499753
0.413943 0.279039 -0.100197
-0.610147 -0.539997 -0.466765
-0.0832377 0.495334 -0.464616
0.114269 -0.312425 -0.9377
-0.901486 -0.030712 -0.185975
0.56126 0.144413 0.0147345
-0.595524 -0.103896 -0.646504
-0.697245 -0.540902 -0.0963689
0.798786 -0.351281 -0.840583
0.653543 0.106162 -0.794864
-0.266281 -0.256767 0.221574
-0.633422 0.557107 0.833662
-0.251747 0.161473 -0.617484
-0.459922 0.105458 -0.668294
0.792444 -0.300261 -0.46243
-0.934415 -0.379247 0.502305
0.0459251 0.304782 0.979242
-0.683003 -0.00985839 -0.869032
0.986557 -0.215126 -0.591879
0.313982 -0.332938 0.240967
-0.449065 -0.245899 -0.72061
0.52071 -0.512839 -0.794947
-0.476251 -0.412372 0.541806
0.277335 0.422812 -0.598122
0.226102 -0.730146 -0.647974
0.11657 -0.182457 0.257414
-0.880673 -0.394033 -0.285281
0.459692 0.342908 -0.760807
-0.575412 0.0922793 -0.89807
0.581024 -0.506092 -0.741927
-0.431333 -0.00954286 0.483457
-0.0802538 0.46688 -0.573892
0.278082 0.175072 -0.962891
-0.181203 0.213778 -0.925872
0.0203257 0.0414646 -0.930008
0.536763 0.281123 -0.708678
-0.963022 -0.23479 0.0662973
0.114638 0.385043 -0.826532
0.430372 -0.563583 -0.902369
-0.574637 0.100358 -0.971824
-0.472968 -0.460933 0.329413
0.963634 -0.281586 -0.636729
-0.768243 0.357789 0.793203
0.700397 -0.370569 -0.0898702
-0.616215 0.000898557 -0.828442
-0.0653382 0.496405 -0.394356
-0.466117 -0.260469 -0.820326
-0.501394 -0.10129 0.646033
-0.202583 0.42373 -0.430246
-0.165511 -0.342184 -0.940789
-0.329195 0.193528 -0.98132
0.479367 -0.00328902 0.186204
0.827943 -0.146184 -0.499252
-0.185964 0.376542 -0.262248
-0.443929 -0.439946 -0.681064
-0.32853 0.209076 -0.480967
-0.652824 -0.432504 -0.962925
0.756795 0.0935248 -0.263463
-0.491493 -0.351377 -0.80282
-0.190896 -0.494406 0.00925727
-0.692954 0.24916 0.767394
-0.731497 0.361211 0.598353
0.167967 -0.741046 -0.537332
-0.746326 0.0411752 0.452992
-0.0788479 0.345278 -0.9703
-0.887849 -0.155488 0.534585
0.453121 0.362641 -0.373992
0.0451984 -0.271842 -0.938879
-0.64897 -0.600188 -0.273387
-0.7884 -0.70175 0.170059
-0.186355 -0.410408 -0.937454
-0.402198 0.20144 -0.457934
-0.808303 0.479946 0.810192
0.667229 -0.153157 0.0484686
0.857204 0.0782668 -0.732292
-0.782795 -0.732848 0.248151
0.160781 -0.461928 -0.93504
-0.532092 0.179121 -0.489837
-0.91512 -0.162649 -0.0537877
-0.135679 0.194928 0.0513878
-0.715823 0.288318 0.504342
-0.157781 -0.408146 0.109393
-0.845392 -0.0955034 0.544213
-0.909882 -0.135033 -0.325704
0.152853 0.404068 -0.768364
-0.680923 0.0992283 0.0476292
-0.740087 0.598749 0.845284
0.13098 0.453138 -0.236353
0.00500092 -0.0798825 -0.934127
-0.11123 0.100469 0.843319
0.32863 0.358772 -0.812891
0.462959 0.0546478 0.164163
-0.578182 -0.637478 0.1398
-0.660295 0.127236 -0.486764
-0.674834 -0.576862 -0.161895
-0.373181 0.278871 -0.880386
-0.321842 -0.395415 0.135128
0.0538038 -0.554492 -0.974483
0.306686 0.421689 -0.530283
-0.827586 0.0693971 -0.339469
0.424025 -0.23967 0.233469
0.413437 -0.640739 -0.676304
0.230569 -0.0822054 -0.994765
-0.587668 0.36993 0.587847
-0.724564 -0.05038 -0.889359
-0.126072 0.368028 -0.724319
-0.200522 0.215504 0.0213687
0.660279 -0.308666 0.0404026
0.152686 0.0382852 -0.92937
0.348015 -0.567639 -0.982738
-0.660964 -0.485014 0.567166
-0.591263 0.709019 0.719771
-0.512176 -0.15018 -0.738296
0.658986 0.244377 -0.348486
-0.599054 0.038509 0.573507
-0.225358 -0.593894 -0.247691
-0.605803 0.44404 0.759604
0.276215 -0.744975 -0.342418
-0.550089 0.161809 0.06638
0.449677 -0.160082 0.225044
-0.85878 -0.176314 -0.433122
0.858575 -0.335745 -0.797162
0.221106 -0.734697 -0.583301
0.0532359 0.16412 0.119917
0.810003 -0.206665 -0.400622
-0.789809 0.103593 -0.122099
-0.679984 -0.504501 -0.473719
0.803192 -0.271451 -0.39758
0.414066 -0.451481 0.118194
-0.779982 0.0231352 0.0744588
-0.205662 -0.594274 -0.82418
-0.109853 0.223645 -0.933782
-0.495347 0.141814 0.120611
-0.173765 0.438182 -0.484292
0.398726 -0.405123 0.178852
-0.926339 -0.0853614 -0.278847
0.471828 0.36568 -0.559761
-0.57453 0.366939 0.656383
-0.575784 -0.528888 0.390693
-0.650447 0.0831158 0.10731
-0.830977 -0.12711 -0.482712
0.442001 0.338682 -0.259767
-0.123772 -0.135926 -0.936647
-0.904944 -0.267018 -0.357796
0.395668 -0.611168 -0.123726
-0.787742 -0.502052 -0.151289
0.485079 -0.524058 -0.934189
0.0504628 -0.0218014 -0.932582
0.171244 -0.698765 -0.693459
-0.915853 -0.433876 0.380025
0.448466 -0.262263 -0.994387
-0.929089 -0.139116 -0.11181
-0.828821 -0.198203 -0.493741
-0.375306 -0.374595 -0.98502
-0.146082 -0.52865 -0.958424
0.175149 -0.606429 -0.86587
0.54695 0.159015 -0.840802
-0.77844 0.0913496 -0.396129
-0.885656 -0.334096 -0.329772
0.535852 0.197647 -0.0416333
-0.62884 0.530102 0.599982
-0.536896 -0.57414 0.165285
-0.691937 0.577665 0.577859
-0.101899 -0.672931 -0.299293
-0.858004 -0.409562 -0.0759156
0.430575 0.107648 0.146563
-0.548871 -0.271251 0.607477
-0.50874 -0.189106 -0.804546
-0.737942 0.286653 0.617599
-0.756138 0.0537633 0.304595
-0.392383 0.157823 -0.588527
0.533297 -0.375141 0.129435
-0.478995 -0.280798 0.585568
0.126003 -0.752319 -0.466107
0.0682622 -0.750643 -0.32306
-0.677533 -0.523432 -0.00809212
-0.609039 -0.566226 -0.899597
-0.229869 0.358148 -0.440908
-0.503917 0.0896332 -0.59867
-0.110172 -0.619287 -0.242701
0.134322 0.485025 -0.357768
0.399613 -0.549254 -0.0602065
0.914416 -0.289102 -0.782133
-0.187687 -0.0276085 0.581358
-0.455248 -0.347499 0.490086
0.179904 0.140141 0.148938
-0.765825 0.0558334 0.151171
0.637795 -0.458829 -0.746093
0.808706 -0.0852894 -0.334058
0.598008 0.127535 -0.796614
0.613132 -0.513283 -0.676145
-0.207545 -0.660454 -0.884442
-0.812636 -0.374028 0.586448
-0.200193 0.281767 -0.634463
0.406192 -0.314605 -0.994807
-0.572786 -0.0845585 0.594327
-0.323294 0.151249 -0.607163
0.657989 -0.435373 -0.100447
0.709286 -0.20245 -0.948383
0.217156 0.15719 -0.93068
-0.441579 0.208898 0.0243648
0.308391 0.24261 0.0443232
0.633058 0.250932 -0.418434
-0.449891 -0.482942 0.254704
0.0788865 -0.0881443 -0.93511
0.382894 0.043084 -0.995148
-0.185193 -0.355529 0.152002
-0.628597 0.375327 0.53203
0.147829 -0.485741 0.127031
-0.0682858 -0.0828449 -0.934207
0.331346 0.27984 -0.981624
-0.813464 -0.624421 0.0297422
-0.95758 -0.159299 0.288829
-0.825148 0.0900764 -0.184826
0.760125 -0.370434 -0.450068
-0.754126 0.302587 0.546114
-0.948777 -0.576601 0.230329
-0.859595 -0.516874 0.487823
0.492124 0.3538 -0.489545
0.668606 -0.23282 0.0436364
-0.0226808 0.239272 0.756921
-0.685765 -0.681033 0.346314
0.398344 0.315385 -0.19559
-0.392804 -0.568437 -0.843473
0.511076 -0.0662673 0.183435
-0.106754 -0.536542 -0.682873
0.0116776 0.190258 0.789844
0.0747298 0.294682 0.901247
0.625787 0.157341 -0.735359
-0.0274848 -0.173095 0.227289
-0.620459 -0.509762 -0.860188
0.340879 0.407353 -0.3276
0.921539 -0.333549 -0.663981
0.561791 0.0495177 -0.941645
0.110453 -0.718778 -0.669294
0.748186 -0.264382 -0.917395
0.121745 -0.63472 -0.900086
0.657714 -0.081874 0.0559466
-0.43311 -0.469176 -0.605229
0.638554 -0.375524 0.0226309
-0.512759 -0.544608 -0.804718
-0.899856 -0.0217958 -0.248805
-0.491693 0.0105523 0.386609
0.754688 -0.28682 -0.140295
-0.633422 0.200257 -0.164709
-0.577668 0.0392476 0.504822
-0.7757 0.168913 0.606977
-0.186154 -0.591295 -0.980699
-0.442376 -0.293893 0.442146
-0.388203 0.224937 -0.0209506
-0.473351 -0.0424883 0.672435
0.754125 -0.0383678 -0.103496
-0.137587 0.0482707 0.889876
0.409917 0.0286777 0.204418
0.424439 0.387068 -0.50676
0.537105 0.232968 -0.101318
-0.314388 0.111785 0.672924
-0.507296 0.0690018 -0.813016
0.701901 -0.118763 -0.958916
-0.575526 -0.177089 -0.82899
0.616238 0.102002 0.0186999
-0.753107 -0.507821 -0.0855899
-0.520533 0.128494 -0.539719
0.683705 -0.0333136 0.010984
0.805208 -0.218128 -0.326589
-0.497877 -0.238914 -0.984055
-0.0548463 0.255486 0.824419
-0.0808481 0.379465 -0.774547
-0.606708 0.161082 0.657892
0.512068 0.147783 0.0634557
-0.257966 -0.504053 -0.0114531
-0.302496 0.0178231 -0.960989
-0.223411 -0.562013 -0.401621
-0.365863 -0.202863 0.301624
-0.769611 0.141605 -0.179393
0.274974 -0.42227 -0.936715
-0.944819 -0.279987 -0.227763
-0.723408 -0.639559 0.437958
-0.881748 -0.027942 -0.0854531
-0.199456 -0.533073 -0.0568514
-0.210646 0.207391 -0.75964
-0.747403 0.0680378 0.0282834
0.77165 -0.338087 -0.519574
-0.647536 0.304868 0.500737
-0.636066 0.0547884 -0.873531
-0.540927 -0.513267 0.504342
-0.133251 0.238579 0.00413306
0.538409 -0.0109238 0.148605
0.811162 -0.074472 -0.485651
0.150227 -0.727652 -0.221984
-0.820036 -0.571652 0.469491
0.183854 0.268241 -0.990548
0.0820667 0.191994 -0.931434
0.199712 -0.70239 -0.763393
-0.6117 -0.146029 0.604583
-0.914669 -0.508987 0.043858
0.325484 0.354394 -0.195089
0.863607 -0.0795485 -0.514228
-0.572468 -0.62134 -0.266247
-0.140767 0.204729 0.828053
0.0301062 0.101452 0.151051
-0.349043 0.0274317 0.783297
0.391929 -0.0975359 0.24652
-0.465905 -0.368546 -0.706499
-0.469824 -0.509041 0.0162852
0.588383 -0.244626 0.129989
0.702308 -0.11444 -0.00490271
0.236728 -0.746561 -0.401932
-0.121239 0.349519 -0.820719
-0.758854 0.503416 0.868066
0.266578 -0.559831 -0.0839278
0.437498 -0.683199 -0.397086
0.260543 0.375405 -0.792578
-0.260238 -0.379047 0.16181
-0.555905 -0.372751 -0.833252
-0.822593 -0.421821 -0.401051
-0.897134 -0.0311096 -0.312058
-0.258946 -0.542092 -0.831272
0.259507 -0.656985 -0.162159
-0.332752 0.257251 -0.128167
0.766836 -0.00233232 -0.161362
-0.782741 -0.535039 0.520023
0.246386 -0.306799 0.251701
-0.341032 0.226944 -0.819753
-0.214033 0.170829 0.0860942
-0.637129 0.735939 0.792123
0.549871 -0.489373 -0.0357773
-0.269773 0.208644 0.0411548
-0.443463 -0.484173 -0.976695
-0.0417892 0.275082 -0.030727
0.557607 0.257641 -0.765036
-0.226208 0.381265 -0.379825
0.697734 -0.453518 -0.211349
0.113282 -0.636206 -0.97226
0.517488 -0.587825 -0.592491
-0.681992 0.196781 -0.290822
-0.415747 -0.308694 0.362713
0.179497 -0.31891 0.248074
-0.864459 -0.678071 0.181293
-0.412546 -0.524885 -0.542055
-0.263981 0.229349 -0.476214
0.326219 -0.611977 -0.145156
0.244259 0.448044 -0.409973
-0.604672 -0.605385 -0.335029
-0.4001 -0.594895 -0.151261
-0.732129 -0.273463 -0.577582
-0.175232 0.016339 0.855811
0.529792 -0.45223 0.0314503
-0.75376 -0.591976 0.486305
0.0413222 0.382641 -0.820933
0.0404188 0.334634 -0.935519
0.103815 -0.75867 -0.388124
0.440546 0.221515 -0.926387
-0.771753 0.422686 0.818974
0.25738 0.262038 -0.0137821
0.780119 -0.240797 -0.184842
0.0317519 -0.478474 -0.928688
-0.535581 -0.150987 -0.672479
-0.621778 -0.0343376 -0.622566
-0.288461 0.166485 0.09599
-0.130746 -0.465468 -0.930014
-0.0680171 0.266533 -0.98666
-0.430577 -0.109549 0.679356
-0.0309423 -0.399277 0.152314
-0.642743 -0.453093 -0.895775
0.00729174 0.43084 -0.719706
0.802992 -0.0307526 -0.397601
-0.169397 0.0961348 0.595225
0.617607 0.0477662 0.0561428
-0.418361 -0.00402609 -0.984369
-0.449126 -0.504584 0.17744
-0.002721 -0.535554 0.0107006
-0.30524 0.0698628 0.807645
-0.431357 0.254778 -0.327076
-0.616322 -0.70425 0.151097
0.866388 -0.119555 -0.871331
-0.617635 0.080437 0.159153
-0.678372 -0.156527 -0.623934
0.44644 0.070997 -0.974067
0.221395 0.070413 -0.929366
0.372118 -0.667941 -0.729233
0.578761 -0.556002 -0.195469
-0.747286 0.167248 -0.31006
-0.736098 -0.59487 0.00580771
-0.0466896 -0.717485 -0.283972
-0.963216 -0.536435 0.108202
0.264787 -0.705882 -0.212223
-0.578903 0.156333 0.583578
0.79542 -0.124468 -0.210965
-0.780211 -0.175348 -0.533983
-0.925924 -0.0676368 0.145914
-0.618134 -0.561312 -0.962493
0.963378 -0.227702 -0.748952
-0.623497 -0.57133 -0.401994
-0.534965 0.0461803 0.343497
0.596111 -0.485037 -0.0962401
-0.636474 0.210128 0.720407
-0.652279 0.185267 0.467415
-0.512749 -0.500935 -0.9767
-0.290092 0.137437 -0.931808
-0.013205 0.186242 0.682691
-0.691133 -0.689381 0.0536052
-0.683858 -0.322388 0.614752
-0.313339 0.0775821 -0.949118
0.801706 -0.021729 -0.535264
-0.554322 -0.612215 -0.891822
-0.115738 0.1313 0.629004
0.661962 0.0402715 0.00563694
0.142583 -0.746255 -0.315336
-0.379181 0.0690825 0.665045
-0.320361 0.22625 0.000135535
0.00870937 0.498366 -0.3894
-0.94957 -0.305081 0.467598
0.724312 0.0563041 -0.881314
-0.467406 0.023777 0.313381
-0.0980996 -0.315581 -0.937633
-0.428047 0.147069 0.137548
-0.399535 0.2527 -0.0863091
0.49939 0.0800616 -0.931919
0.499786 0.333854 -0.695881
-0.874164 -0.6354 0.0569194
-0.266124 -0.58822 -0.300287
-0.51109 -0.600523 -0.842757
-0.642155 0.397565 0.793178
-0.0469905 0.0875557 0.1612
0.157471 0.328992 -0.872184
0.871344 0.040433 -0.788807
-0.604813 0.0957938 0.615885
0.952316 -0.268983 -0.571359
0.335146 -0.181287 -0.991194
0.694432 0.0800833 -0.0864461
0.621842 -0.38075 -0.861763
-0.593479 -0.563268 0.322209
-0.399733 -0.0802553 -0.986737
-0.546504 -0.290181 -0.98191
-0.630263 -0.487545 -0.51786
0.325674 -0.134631 0.266693
-0.67754 0.149329 -0.0544159
-0.602422 0.134721 0.46959
-0.679729 -0.0163485 -0.589212
0.196493 0.424336 -0.680318
-0.214838 0.202517 -0.681851
0.304928 -0.465777 -0.982889
-0.821813 -0.479922 0.538726
-0.640528 -0.376523 -0.919432
-0.134776 -0.0334065 0.635698
0.69229 -0.402181 -0.721727
-0.651124 0.202668 -0.229951
-0.211726 0.25738 -0.976872
0.0126695 -0.62418 -0.797224
-0.695715 0.356132 0.507959
0.472791 -0.61323 -0.231355
0.253013 0.341656 -0.847118
0.0296186 0.495789 -0.316565
0.196827 -0.137193 -0.98501
-0.224848 0.148545 -0.923495
-0.401795 -0.488429 0.0397867
-0.996232 -0.293773 0.197095
-0.401362 -0.613299 -0.280961
0.424983 -0.510357 -0.004037
0.111801 0.350715 0.818945
0.804932 -0.15658 -0.286316
-0.481225 -0.196107 -0.698007
-0.578286 -0.462182 -0.562315
-0.603865 -0.617038 0.273294
-0.229839 0.257596 -0.543656
0.540022 -0.600997 -0.233765
0.733531 0.100095 -0.818881
0.00209126 -0.0205802 0.214738
-0.00407601 0.295196 0.944969
-0.254133 0.0651564 0.558672
0.512637 0.273056 -0.150195
-0.154796 0.166862 0.880257
-0.532294 -0.336406 0.598552
-0.248117 -0.0214006 0.696338
-0.839286 -0.0571245 0.43074
-0.92959 -0.334494 -0.175482
0.58262 -0.584726 -0.322002
0.813896 -0.149847 -0.442093
0.372532 -0.439377 -0.994791
-0.52295 0.244048 -0.147224
-0.684646 -0.596 0.483401
0.650556 -0.169325 -0.975294
0.674497 0.147868 -0.677486
-0.129981 -0.514594 -0.0102926
0.255339 -0.368735 0.224852
-0.690126 0.527521 0.864595
-0.926159 -0.0933317 0.280361
-0.420454 0.177726 0.0797828
-0.00759647 -0.524933 -0.940244
-0.194745 0.375581 -0.965881
0.110424 0.331335 -0.936135
0.278211 0.430896 -0.284276
-0.586005 -0.50024 0.551551
-0.554008 -0.558728 0.259908
0.279255 -0.0071023 0.250294
-0.651456 -0.677094 0.279557
0.211143 0.441388 -0.265535
-0.580723 0.748513 0.778518
-0.203773 0.0250075 0.739263
0.386726 0.363147 -0.241936
-0.723035 0.169731 0.483316
-0.265497 -0.564821 -0.14119
-0.590413 0.174079 0.00856007
0.0393933 0.295828 -0.988265
-0.266665 -0.537067 -0.0802053
0.0599634 -0.655925 -0.923076
0.958417 -0.0158048 -0.675183
-0.650936 0.0300181 0.632678
-0.613175 -0.175015 -0.652189
0.238317 0.236503 0.0685978
0.535446 0.316781 -0.355762
-0.863245 -0.675834 0.11489
0.512339 -0.39555 -0.959297
0.669188 -0.505007 -0.452726
0.673698 0.034839 -0.929181
-0.152358 -0.495287 -0.649308
-0.856759 -0.104368 0.478547
0.0447321 0.276784 0.761333
0.502635 0.182672 0.0139494
0.85821 0.0760829 -0.667865
-0.446596 -0.552141 -0.977993
-0.581795 0.691648 0.817381
0.351879 -0.577387 -0.915664
0.367716 0.412212 -0.53272
0.854257 -0.348481 -0.613949
-0.129464 -0.300821 0.168154
0.233452 0.10833 0.182106
0.701242 -0.459352 -0.500148
-0.583708 0.240117 0.554982
0.704559 0.136374 -0.616425
-0.641549 0.332639 0.773439
-0.614469 0.130678 0.0647219
-0.793983 -0.513871 -0.282064
-0.0710899 -0.640878 -0.984368
0.78173 0.032777 -0.394443
0.441462 0.294608 -0.823795
-0.708285 0.664086 0.878524
-0.532098 -0.405067 -0.607728
-0.669193 0.117425 0.447235
-0.134289 -0.698244 -0.883378
0.521866 0.321255 -0.55933
-0.139147 0.261469 -0.980586
0.0277241 0.480051 -0.535613
-0.70704 0.0769357 0.256957
-0.916547 -0.0485426 0.224829
-0.67534 -0.632585 0.0276016
-0.776624 0.00976634 0.502429
0.410824 0.385891 -0.583919
-0.31346 0.130064 -0.668871
0.115574 -0.113315 0.254663
-0.595898 0.0752391 0.449991
-0.397079 -0.172239 0.510789
-0.160899 0.0571475 0.797157
0.795658 -0.25675 -0.261336
-0.436911 -0.39212 0.347783
0.205121 -0.578504 -0.118884
-0.0198396 0.323437 -0.975377
0.271356 -0.726113 -0.280666
0.554961 -0.0106992 -0.978733
-0.718787 0.455664 0.845262
0.744448 -0.163975 -0.0763059
-0.0692295 -0.230773 0.208656
-0.839104 -0.459108 -0.289211
-0.678698 -0.226721 -0.623339
-0.8381 -0.258049 -0.465612
-0.664075 -0.720851 0.102364
-0.213017 -0.535445 -0.582266
-0.939068 -0.273089 -0.15142
-0.488677 -0.529472 0.123473
0.701946 -0.412082 -0.155628
0.103457 -0.729714 -0.53446
-0.589761 0.181843 0.514475
-0.629179 0.0839252 -0.540302
0.811113 -0.0895135 -0.410898
-0.606684 -0.0720495 -0.982449
0.686812 -0.290827 -0.93451
0.688913 -0.337891 -0.0232199
0.61028 0.265177 -0.482241
-0.660676 -0.195751 0.613934
-0.498109 -0.00966184 -0.9844
-0.485162 -0.013985 0.451754
-0.488908 0.0657674 -0.744537
-0.572739 0.293087 0.617358
-0.431534 -0.235557 0.482056
-0.298738 0.131711 0.153012
-0.0340401 0.352203 -0.910685
0.667976 -0.46698 -0.68641
-0.575024 -0.421627 -0.976689
-0.159286 0.198058 0.759169
-0.62608 0.275593 0.73802
-0.109217 -0.397458 -0.933885
-0.859565 -0.418353 0.553706
-0.436669 0.226169 -0.396838
0.411758 -0.673147 -0.600738
-0.184258 0.261699 -0.0414992
-0.914527 -0.0772508 -0.137367
0.736266 0.0968225 -0.570504
-0.670105 -0.0859564 -0.613868
-0.0761564 0.0728003 0.60793
-0.256195 0.118918 0.817538
-0.15806 -0.652955 -0.832621
-0.70752 -0.432805 0.588688
0.0712383 0.0100579 0.223911
0.785848 -0.0625514 -0.18153
-0.057893 0.0198455 0.189611
-0.571359 0.0780808 0.205906
0.485152 0.119228 0.107298
0.337991 0.035387 0.224744
-0.890248 -0.398853 -0.149286
-0.733203 0.105194 0.475373
0.457164 0.216164 -0.0178542
-0.937048 -0.42786 0.310847
0.578717 0.276941 -0.55165
-0.271366 -0.582055 -0.379083
0.91578 -0.318394 -0.595438
-0.459257 -0.375113 -0.980054
-0.546574 -0.509354 0.334314
0.643129 0.22574 -0.534014
-0.711209 0.5327 0.711013
0.996238 -0.146612 -0.639147
-0.729421 0.453154 0.536709
0.0815491 -0.527957 0.0509886
0.772291 -0.309302 -0.206321
0.80757 0.0855796 -0.790663
-0.168875 -0.562926 -0.378229
-0.933822 -0.360766 0.423573
-0.940424 -0.152306 -0.254918
-0.631893 -0.596732 0.451681
-0.786095 0.136859 -0.249904
-0.309429 0.262915 -0.329613
-0.727092 -0.728047 0.213942
-0.191439 -0.0039109 0.670226
-0.192719 0.0399251 0.561869
-0.496767 0.116754 -0.982107
-0.47502 -0.500014 -0.55681
-0.905383 -0.0849589 0.34292
-0.672384 0.683866 0.825275
-0.741823 -0.364556 0.604199
-0.387838 -0.140339 -0.964996
-0.314978 -0.159801 -0.964531
0.262432 -0.593914 -0.13576
-0.988446 -0.232452 0.191378
-0.700928 0.173806 -0.172191
0.173117 0.35755 -0.157705
0.100462 -0.507327 -0.951532
-0.840522 -0.705491 0.242691
0.627691 -0.277297 0.0897815
0.584154 0.256843 -0.661321
-0.176364 0.454786 -0.367908
-0.00877786 -0.705219 -0.534776
-0.561225 -0.584071 -0.393848
-0.215692 -0.509788 -0.773067
0.194844 -0.446591 0.169292
-0.614558 -0.24781 -0.644858
-0.648915 0.0772656 0.290494
-0.698358 -0.434263 -0.520228
-0.384839 -0.51476 -0.613598
0.309636 0.323664 -0.884869
0.690476 -0.489024 -0.270667
0.0196036 0.339973 -0.865302
-0.33805 -0.0390631 0.248228
-0.420488 -0.0403175 0.719678
-0.464394 -0.310648 -0.75842
0.17047 -0.260164 -0.939425
0.598445 -0.294861 -0.957215
0.405931 -0.189369 -0.983178
-0.757371 0.141255 0.549999
0.310226 -0.724145 -0.397846
-0.239566 -0.0227454 0.536792
-0.358578 -0.0333093 0.475516
0.357855 -0.515953 0.00302947
0.242312 -0.737237 -0.517387
0.06641 0.422782 -0.190721
-0.634465 -0.54673 0.521704
0.486944 0.172748 -0.876677
-0.0723469 0.407762 -0.19848
0.344357 0.267839 -0.0904267
0.432749 0.286026 -0.889978
-0.967356 -0.496903 0.176069
0.582115 -0.58517 -0.398181
-0.091034 0.0899295 0.926042
0.320133 0.0129264 -0.996789
-0.250599 0.243977 -0.0326734
0.2661 0.04432 -0.976622
0.21237 -0.541744 0.0471268
0.204091 -0.00175601 -0.941441
0.0800299 0.225331 0.778444
0.784596 0.0533013 -0.854105
0.98424 -0.218301 -0.66982
-0.488059 -0.345665 -0.648326
-0.170475 0.320387 -0.215734
0.551517 0.316916 -0.489692
0.145268 -0.52225 0.0727379
0.546553 -0.334363 -0.957805
0.493843 -0.433871 0.103301
0.276053 0.278771 -0.0860967
-0.516156 0.0498838 0.2725
-0.439304 -0.617771 -0.957304
-0.303377 0.00818322 0.509848
0.367551 -0.253858 -0.992075
-0.545678 -0.219147 -0.671045
0.171464 0.323449 -0.957871
-0.344504 -0.527813 -0.735406
-0.312535 -0.373659 -0.983116
0.718185 -0.446504 -0.329962
-0.283002 -0.554555 -0.61788
-0.542165 -0.281262 -0.66013
-0.203337 -0.470253 -0.960772
-0.454082 -0.604376 -0.859397
-0.0976881 0.17347 0.935671
0.148694 0.219068 0.0586696
-0.169589 -0.0162638 -0.930675
-0.41965 0.258248 -0.23563
0.637406 -0.0936905 -0.980892
-0.0861401 -0.669315 -0.818689
0.349925 -0.215105 0.260955
0.59019 -0.524712 -0.145348
0.695651 -0.4733 -0.396862
-0.639005 -0.578895 0.028433
0.738187 -0.0038988 -0.919882
0.374225 -0.351924 0.220784
-0.414345 0.225722 -0.973994
-0.862121 -0.622963 0.376458
0.0877101 0.0475236 -0.929992
0.0919316 -0.444834 -0.9313
-0.752598 -0.659701 0.0423101
-0.407052 -0.121348 0.430786
0.724339 0.162616 -0.37661
-0.980363 -0.202531 0.12678
0.072262 0.349471 0.948866
0.912394 -0.0938914 -0.828286
-0.735504 -0.000923902 -0.517395
-0.204153 -0.500277 -0.705452
0.370536 0.203556 0.0811361
-0.127386 -0.609732 -0.787745
-0.664973 -0.0624789 -0.827252
-0.637146 -0.181393 -0.977981
-0.442347 -0.225969 0.5538
-0.733605 -0.122154 -0.900684
-0.378761 -0.515735 -0.978792
-0.524045 -0.503256 0.0555969
-0.135413 0.367022 -0.955557
0.582339 -0.468333 -0.803648
0.432103 -0.486633 -0.99137
-0.315651 0.294654 -0.834312
-0.579185 -0.0487826 -0.799303
0.458696 0.139082 -0.932629
-0.744064 -0.716156 0.102216
-0.95004 -0.503026 0.251061
-0.318222 -0.106465 0.608587
0.861732 -0.370694 -0.672038
0.463523 -0.577973 -0.103484
-0.787234 -0.712025 0.318053
0.699224 0.171749 -0.537224
-0.476331 -0.423535 0.40034
-0.929078 -0.584168 0.0697573
0.110141 0.288209 -0.986233
0.0883156 0.481459 -0.307961
-0.554959 -0.559226 0.102498
-0.0714319 0.18254 0.0781199
-0.555698 -0.548062 -0.975388
0.712088 -0.440646 -0.5721
0.431798 -0.0728496 -0.982719
-0.568247 -0.606483 0.210356
-0.279991 -0.525164 -0.772749
0.445464 0.191072 0.0520426
-0.726764 -0.559363 -0.289712
-0.112866 -0.169383 0.206104
-0.528067 0.201952 5.46808e-05
0.492813 -0.0509906 -0.997156
-0.770334 0.097933 0.622673
0.481805 0.33835 -0.321509
0.211533 -0.212002 -0.987097
0.211718 0.207762 -0.977648
-0.139766 -0.194331 -0.94244
-0.690234 0.1892 -0.358504
-0.717835 -0.717694 0.29016
-0.674161 0.673497 0.674905
0.409017 0.371966 -0.648435
-0.819553 -0.0418218 0.49761
0.387519 -0.376348 -0.993199
0.329358 -0.394222 -0.954092
0.208651 0.45826 -0.342772
-0.277322 0.179051 -0.787615
0.304342 0.198955 0.103569
-0.248294 0.0439978 0.85048
-0.923997 -0.635416 0.120454
-0.0977473 0.228709 0.787786
0.149845 0.178267 -0.929023
-0.111271 0.484415 -0.342031
-0.987157 -0.360361 0.219414
0.0579644 0.328079 0.818818
0.194554 0.256452 0.009985
-0.611708 -0.320917 0.613178
-0.255005 -0.467696 0.0470417
-0.231907 0.317384 -0.987048
-0.845654 -0.399228 0.0112713
-0.102695 -0.360509 0.148169
0.293021 0.310979 -0.94812
-0.814863 -0.48428 -0.218245
0.593448 0.273 -0.35878
0.531755 -0.493021 -0.862847
0.0256469 0.242565 0.924958
-0.0841695 -0.61041 -0.54544
-0.986284 -0.352775 0.145687
-0.0300668 -0.287332 -0.9377
-0.876031 -0.0286945 0.302111
-0.656204 0.469567 0.821173
-0.0127407 -0.66819 -0.835717
-0.361973 -0.322057 0.252375
0.673436 0.101519 -0.733978
0.681159 -0.0394629 -0.957411
0.0337025 0.224286 0.710351
0.79964 -0.0146184 -0.890737
-0.573583 -0.204776 0.60984
-0.152707 -0.266064 -0.944685
-0.743039 -0.680582 0.380892
-0.424126 0.131231 -0.880298
0.0604801 -0.555652 -0.00637353
-0.0733794 -0.504421 -0.929683
0.861847 -0.0112851 -0.55118
-0.856054 -0.0284739 -0.404286
0.987586 -0.152381 -0.56706
-0.764136 0.392952 0.710403
-0.387334 0.122619 -0.807014
-0.172941 0.116202 -0.927382
-0.336309 -0.541332 -0.813001
0.473136 -0.206537 -0.978637
0.620378 -0.00487536 -0.963186
0.235019 0.311017 -0.971804
0.740467 -0.40014 -0.517314
0.0468878 -0.722185 -0.502701
0.272973 -0.512936 0.0837627
0.678202 -0.503884 -0.341004
-0.379524 -0.141608 0.636616
-0.954971 -0.423277 0.121897
0.289328 0.442981 -0.46872
-0.331147 -0.577063 -0.284993
0.454159 -0.607427 -0.166946
-0.287108 -0.00960968 0.809902
0.176834 -0.576662 -0.0524252
-0.826718 0.0805412 -0.259894
-0.905147 -0.382028 -0.215976
-0.697544 -0.577304 -0.227929
-0.519887 0.126637 -0.930968
-0.699761 -0.180623 -0.959351
-0.120971 -0.594501 -0.981226
0.458258 -0.136457 -0.981063
0.782196 -0.354703 -0.639265
-0.572149 0.110826 0.117039
-0.905858 -0.569982 0.360972
-0.565539 0.0784694 -0.566927
-0.15896 -0.587849 -0.262875
0.656539 0.102497 -0.0379145
-0.444097 0.263108 -0.151985
-0.444608 -0.540936 -0.0285531
0.285556 -0.586592 -0.973213
-0.583222 -0.140065 -0.982227
0.00483967 -0.66705 -0.975867
0.227831 -0.473198 -0.960725
-0.889923 -0.108738 0.408285
-0.614039 0.509025 0.788516
-0.207619 0.327764 -0.569734
-0.256017 0.298986 -0.311811
0.0610478 -0.0603353 0.239044
0.355386 0.300621 -0.15003
-0.604232 -0.296407 -0.963105
-0.374498 0.0230605 0.520184
0.0134369 0.0461914 0.189704
0.842964 0.0187327 -0.840031
-0.34374 -0.546908 -0.569536
-0.00632847 -0.753704 -0.332717
-0.554692 -0.343869 -0.628618
0.375868 0.322394 -0.865634
0.805571 -0.266554 -0.535272
0.142175 0.027959 0.231226
-0.764456 0.538106 0.811285
-0.28709 0.12466 0.748023
0.0692194 0.416959 -0.760533
-0.336296 -0.102804 0.256297
-0.623361 -0.255533 0.614272
0.534884 -0.532569 -0.0968469
-0.282656 -0.0594995 0.652122
-0.0993215 0.113798 0.769135
0.541667 -0.552691 -0.715048
0.337807 0.399909 -0.258462
-0.594232 0.310719 0.545417
0.634049 -0.542171 -0.375392
-0.0450722 0.338001 -0.168082
-0.461109 -0.128677 -0.980789
-0.965838 -0.578415 0.158351
-0.326354 0.0247978 0.230808
0.702835 0.0191716 -0.0493827
-0.190012 -0.452103 0.0639589
-0.0197022 0.185802 0.926441
0.371673 -0.0385863 -0.987033
-0.731915 -0.463238 -0.4737
-0.480728 -0.308622 -0.983292
0.663933 0.194507 -0.471129
0.294503 -0.723778 -0.642777
-0.184499 -0.153439 0.214566
-0.372896 -0.590462 -0.962879
0.907393 -0.164844 -0.839098
-0.302183 -0.237922 -0.965738
0.199661 -0.0286778 0.254455
-0.675725 0.709567 0.940949
0.280751 -0.644829 -0.829203
0.171377 0.466427 -0.410094
-0.177893 0.364846 -0.615757
-0.342537 -0.296365 -0.970781
-0.533168 0.254046 -0.237234
-0.800324 -0.673475 0.0956953
-0.50226 -0.596049 -0.974164
0.299971 -0.114248 -0.99286
-0.603294 0.063568 0.346201
-0.892412 -0.648268 0.245336
-0.213961 -0.555549 -0.459987
-0.768613 -0.517875 -0.340669
-0.250539 -0.0863181 0.602564
-0.153232 0.102964 0.140805
-0.89854 -0.0938053 -0.0601359
-0.226188 0.22542 -0.605446
-0.777532 -0.486599 -0.0203536
-0.780148 -0.432179 0.577727
0.244556 0.172748 0.12598
-0.581062 -0.523634 0.0443987
0.720205 0.112767 -0.206419
0.675278 0.164203 -0.199357
-0.601354 -0.44806 -0.828452
-0.812003 -0.00639725 -0.465194
0.392197 -0.486147 0.0567797
0.0724112 -0.662383 -0.778271
-0.0701807 -0.116664 0.214883
-0.0598619 -0.159969 -0.936449
-0.792153 0.120718 -0.323725
-0.696241 0.586992 0.660867
0.947656 -0.0366794 -0.737067
-0.488075 -0.6014 -0.186632
0.557976 -0.405 0.0726153
-0.0491141 0.236737 0.948465
0.329727 0.256319 -0.023576
-0.122308 0.159492 -0.925646
-0.88853 -0.155815 0.460553
-0.14158 -0.615555 -0.326877
-0.357979 0.265212 -0.984394
-0.432098 0.0200789 0.667966
-0.924128 -0.206566 -0.298086
-0.0688826 -0.559715 -0.961994
-0.326715 0.245144 -0.0615592
-0.982268 -0.295408 0.264621
0.477934 0.3446 -0.628543
0.153664 0.107811 -0.926465
-0.746803 0.113601 -0.0636901
-0.0632636 0.145081 0.881825
-0.515364 -0.470402 0.548206
0.0733496 0.311071 -0.130352
0.82116 -0.241075 -0.889539
-0.59236 0.220909 -0.262718
-0.591838 0.143523 -0.517477
-0.2089 -0.0167336 0.816182
0.382904 -0.614696 -0.795989
0.127774 -0.683554 -0.170845
0.0956175 0.364433 -0.156813
-0.885831 -0.00811935 0.1709
-0.268417 -0.324836 0.194111
-0.281563 0.253559 -0.983099
0.730932 -0.337634 -0.892588
-0.325365 0.344175 -0.890789
-0.148523 -0.0754975 -0.932794
-0.420114 -0.260854 -0.974047
-0.332582 -0.0995287 -0.987308
-0.248436 0.0724263 -0.92608
-0.539999 0.0127338 -0.781198
0.677226 -0.391753 -0.785201
-0.456568 -0.156452 0.625861
0.911723 -0.0212133 -0.80205
-0.564776 -0.61256 -0.955315
0.440618 -0.5529 -0.816817
0.473738 0.241359 -0.0813375
-0.866269 0.0298843 -0.286275
-0.666272 0.600608 0.891817
0.211788 0.0346336 0.23013
-0.38417 0.0648681 0.220675
-0.445707 -0.357533 0.410522
0.079398 -0.685384 -0.712917
0.953965 -0.157278 -0.782817
-0.0844086 0.460961 -0.254503
-0.871748 0.0387596 -0.21088
0.563661 0.292199 -0.291353
-0.892291 -0.446371 0.505458
-0.595609 0.626577 0.702315
-0.709002 0.52942 0.624941
-0.61916 -0.592861 -0.200731
0.337691 -0.610895 -0.842946
-0.253092 0.3074 -0.809565
-0.621564 -0.669108 0.0771351
0.714754 0.141581 -0.445368
0.61819 -0.525657 -0.515882
-0.410977 -0.602805 -0.906487
0.289213 0.300675 -0.152836
-0.497102 -0.602389 -0.394135
-0.413969 -0.426654 0.282229
-0.65928 -0.715038 0.220905
-0.758606 -0.290055 0.611272
-0.761358 0.0784077 0.531299
-0.630605 0.60228 0.620762
-0.739614 -0.0699007 -0.961824
0.861481 -0.283138 -0.842515
-0.0245582 0.0428155 0.652348
-0.0194345 -0.716833 -0.468463
-0.383315 -0.398829 0.143653
-0.137448 0.409088 -0.231014
-0.379777 -0.600515 -0.344341
-0.147717 0.114771 0.912425
-0.740216 0.449535 0.720158
0.614091 0.249871 -0.599529
-0.380478 -0.532907 -0.0157111
0.595509 -0.566438 -0.257867
0.618009 -0.522856 -0.592519
-0.612492 -0.2235 -0.881151
0.444827 -0.654555 -0.269756
-0.579016 -0.562913 -0.0658689
0.44824 0.297587 -0.14308
-0.269681 0.264492 -0.105284
-0.0236428 0.187605 0.990592
-0.244229 -0.257586 -0.985887
-0.86299 -0.432609 -0.221911
-0.0126907 0.477364 -0.593872
0.754622 -0.225113 -0.114919
0.641611 -0.518065 -0.215206
0.32532 -0.695904 -0.24745
-0.163124 0.296132 -0.157263
0.578733 -0.43817 -0.864228
-0.119716 0.468771 -0.517307
0.79478 -0.294932 -0.330573
0.104666 -0.234359 -0.938998
-0.574374 -0.27489 -0.90254
0.138021 0.222215 -0.980604
-0.241668 0.132594 -0.681975
-0.193832 0.414618 -0.320288
0.415916 -0.552222 -0.971632
-0.762953 0.0624284 0.225835
-0.330418 -0.575664 -0.155889
0.00692585 -0.588769 -0.148987
0.485578 -0.208922 0.205234
0.332793 -0.657966 -0.190938
0.976906 -0.0869261 -0.571312
0.0808731 0.488424 -0.397555
0.337118 -0.490944 0.0894895
0.649095 -0.243174 -0.962683
-0.203018 0.273201 -0.78067
-0.735222 -0.0583127 -0.560541
-0.349133 -0.0228403 -0.9861
-0.780164 -0.435329 -0.439832
-0.717947 0.105761 -0.0106154
-0.0410589 -0.583289 -0.106789
-0.720803 0.0603532 0.0953494
-0.974494 -0.171048 0.21032
-0.296644 -0.554958 -0.878123
-0.787317 0.228629 0.653435
-0.357678 0.164733 0.116947
-0.631352 0.202464 -0.396629
-0.59654 -0.607619 0.0728787
-0.645095 -0.241383 -0.953679
0.157562 -0.190038 -0.943869
0.791921 -0.000886712 -0.464143
-0.875129 -0.23959 -0.41049
-0.0634912 0.416112 -0.710981
-0.404659 -0.00185407 0.255365
0.773005 -0.332302 -0.270013
-0.473312 0.249847 -0.0988535
-0.668857 0.672431 0.754661
-0.538638 -0.0877066 -0.689903
-0.150766 0.175226 0.69145
0.045407 -0.704312 -0.577106
-0.0839966 -0.687028 -0.436287
-0.910911 -0.187128 0.411421
0.0940183 0.4669 -0.534833
-0.476554 -0.485287 -0.786194
-0.190246 -0.141696 -0.965579
0.746689 -0.408716 -0.383472
-0.355489 0.226987 -0.415919
0.293416 -0.584516 -0.879853
-0.696368 0.060222 0.417413
0.578287 0.0236439 0.103287
0.41334 0.175353 -0.979512
-0.737707 -0.132035 -0.957965
-0.419448 -0.459643 0.133099
-0.657289 0.0858421 0.669748
-0.872575 0.0011803 0.240382
-0.261273 -0.12003 -0.988161
0.981075 -0.163666 -0.716331
0.338478 0.153631 -0.9927
-0.258764 -0.41901 -0.982147
0.0667718 0.235004 -0.981954
-0.0214283 0.118283 0.635347
-0.768829 0.0389111 0.580006
-0.208586 0.09742 0.875505
-0.105244 0.274967 -0.0392888
-0.405027 0.275347 -0.941917
0.930264 -0.105031 -0.514922
-0.45978 0.0512948 -0.984402
-0.271482 -0.47583 -0.983115
-0.747866 -0.494829 -0.410181
-0.718648 0.658093 0.942006
0.614827 0.0675282 -0.909034
-0.69499 -0.255609 0.616101
-0.930181 -0.418109 0.445857
-0.469029 -0.412355 -0.761394
0.286583 -0.722568 -0.571041
-0.370116 -0.279306 0.300749
0.770677 -0.109518 -0.131099
-0.116531 0.350114 -0.192948
0.114253 -0.355071 0.224474
0.847256 -0.374009 -0.743207
0.123244 -0.029132 -0.932677
-0.451214 0.0355638 0.236387
-0.859129 -0.363654 -0.382656
0.269826 0.0562513 0.219636
-0.597343 0.367983 0.730645
0.135726 -0.682055 -0.764985
-0.574486 -0.222421 -0.982004
-0.284322 -0.559859 -0.547751
0.579979 0.193213 -0.783383
-0.449967 0.13052 -0.594677
-0.373076 0.119172 0.176542
-0.621498 -0.359591 -0.97279
-0.540948 -0.566229 -0.462138
-0.809571 -0.439001 -0.0147294
-0.204046 -0.0659472 0.635798
0.65358 -0.397938 -0.0381532
0.0265949 -0.332893 -0.936382
-0.407436 0.209581 -0.901547
0.181701 -0.524251 -0.985051
0.357973 -0.680542 -0.652269
-0.788962 -0.0544164 -0.497521
-0.90577 -0.48286 0.44762
0.269176 -0.349992 -0.937704
0.479997 -0.534075 -0.861356
-0.315608 -0.533386 -0.0263973
0.470987 -0.636476 -0.574614
-0.943751 -0.256029 0.528093
-0.56982 -0.0242316 0.549066
-0.350518 0.274752 -0.226289
-0.766241 0.633847 0.91282
0.892752 -0.166902 -0.501777
0.072537 -0.48966 0.11253
0.0143443 -0.561697 -0.0635806
-0.756008 0.291294 0.770284
-0.803114 -0.314281 -0.487502
-0.350413 -0.580305 -0.891563
-0.591388 -0.548458 0.468301
0.587553 -0.150399 -0.993329
0.137838 0.450931 -0.588679
-0.572794 0.2259 -0.371541
0.891804 -0.272131 -0.534133
0.241575 -0.702351 -0.702854
-0.488495 -0.612155 -0.263897
-0.296327 0.275906 -0.180601
-0.49931 -0.0111758 0.534862
-0.252408 0.2957 -0.373071
-0.535933 0.0504416 -0.98442
-0.115425 -0.668512 -0.372038
-0.751757 -0.321323 -0.533215
-0.679535 -0.300369 -0.604349
-0.844198 -0.451719 -0.150734
-0.0120223 -0.594081 -0.984974
-0.0167112 0.149653 0.114323
0.170233 -0.620459 -0.964959
-0.162637 0.324661 -0.765161
-0.00343458 -0.252841 0.224611
-0.583809 0.308996 0.690356
0.520003 0.0585857 0.128676
-0.86358 -0.0497926 -0.0127643
0.105357 -0.629034 -0.14273
-0.518894 -0.169629 -0.985694
-0.541708 -0.00133637 0.475798
-0.741216 -0.00334886 0.618169
-0.532295 -0.535144 -0.0153898
0.493018 -0.656268 -0.406472
-0.153428 -0.550951 -0.450444
-0.925792 -0.107407 0.0827931
0.108364 -0.299641 0.243213
-0.749565 0.491249 0.763654
0.224766 0.318314 -0.899454
-0.222375 -0.649023 -0.958103
0.808814 -0.148699 -0.363995
-0.96807 -0.420826 0.182798
-0.18993 0.143929 0.643661
-0.898181 -0.616665 0.302799
-0.610488 -0.31179 -0.626802
-0.0824867 0.204939 0.724892
0.208109 -0.746406 -0.331927
-0.703556 0.389085 0.82065
0.594779 -0.429536 0.0158686
-0.372691 0.0517175 -0.983169
0.733612 -0.37379 -0.675976
-0.398374 -0.517055 -0.780022
-0.447559 0.153151 -0.944595
0.618979 -0.118595 0.103178
-0.58862 0.240299 0.674958
-0.270643 -0.323201 -0.976031
-0.0651025 -0.597638 -0.183246
0.0860607 0.0772648 0.198941
-0.859259 -0.307109 -0.412369
-0.142822 0.0702714 0.7344
-0.120908 -0.558591 -0.524146
-0.0687338 0.0800375 0.700071
-0.152536 -0.658658 -0.981787
-0.393297 -0.238883 0.350404
0.738251 0.11135 -0.756634
-0.959921 -0.432762 0.247267
0.340629 -0.572482 -0.0926283
0.707944 0.0826232 -0.682984
0.78017 -0.340412 -0.388832
-0.0184863 -0.639889 -0.184655
-0.689842 0.611452 0.724513
-0.725537 0.147293 -0.115035
-0.281827 -0.0501604 -0.975961
0.0072376 -0.677995 -0.896908
-0.947093 -0.217116 -0.212163
0.76455 0.0478893 -0.520499
-0.540878 0.216734 -0.429662
-0.308337 -0.522501 -0.980181
-0.746539 0.34085 0.663895
0.442772 -0.664538 -0.523107
-0.720716 0.516919 0.557843
-0.549933 -0.615478 -0.206992
-0.651691 -0.507696 -0.947675
-0.305461 0.322357 -0.985748
0.477769 -0.335105 -0.988557
-0.623993 0.217495 -0.322951
-0.139652 -0.0927994 0.201342
0.0298058 0.329515 0.885469
-0.289385 0.288608 -0.254237
-0.530744 0.215021 -0.0694428
-0.0758833 0.16438 0.665108
0.493852 0.0191349 -0.976807
0.520314 -0.619365 -0.522215
0.140007 -0.578352 -0.115734
-0.298744 -0.44092 0.0934426
-0.0155061 -0.34752 0.181572
0.31875 -0.53927 -0.043868
-0.225037 0.349948 -0.325534
-0.150701 0.15477 0.103287
-0.165138 -0.551994 -0.772586
-0.327574 -0.487995 0.0344987
-0.370789 -0.0892803 0.720153
-0.22457 -0.533531 -0.982419
-0.2101 0.275106 -0.107617
-0.0432144 0.49537 -0.319875
-0.548028 -0.0584176 -0.744257
-0.793559 0.588981 0.891497
0.106038 -0.449552 0.160994
-0.397864 0.18499 -0.522036
0.910982 0.038439 -0.661467
-0.479966 0.25711 -0.204691
0.0398632 -0.203858 -0.9377
-0.815629 -0.364248 -0.444262
0.538254 -0.291131 0.164408
-0.897278 -0.214073 0.566686
-0.151299 0.318389 -0.989183
0.203513 0.283903 -0.0718282
0.525116 -0.267912 -0.989143
0.291479 -0.537123 0.0257738
-0.42789 -0.473033 -0.738794
0.120243 0.265329 0.0174561
0.129757 -0.0416203 0.248461
0.129179 0.469738 -0.464833
-0.622778 0.447551 0.571659
-0.808857 -0.460397 -0.0883512
-0.360338 0.126717 -0.727733
-0.203616 -0.225732 0.216426
-0.0165895 0.474154 -0.257301
-0.649962 -0.358313 -0.590126
0.576294 -0.0713404 -0.990883
0.517101 -0.623578 -0.293708
-0.819457 0.0272825 0.197753
-0.622757 0.673371 0.65339
-0.605668 0.183694 -0.458522
-0.412192 0.177088 -0.983045
0.0473102 -0.132768 0.243227
0.790563 -0.0179813 -0.235661
0.0999142 0.2552 0.726568
-0.56395 -0.0216514 -0.984401
-0.05394 0.132568 0.962429
0.30669 -0.0523179 -0.988712
-0.741711 -0.490435 0.559684
0.0403297 -0.193517 0.243461
-0.367798 -0.215751 -0.965806
-0.621157 0.245149 0.495803
-0.717292 -0.543625 -0.361645
-0.257429 0.382417 -0.968281
0.156766 0.465385 -0.296442
0.763643 0.0722163 -0.45431
-0.56592 0.0557071 -0.839377
-0.473642 -0.287877 -0.686042
-0.560456 0.0358984 0.414029
-0.327138 0.088503 0.608544
0.709411 -0.427624 -0.644309
0.213454 0.458006 -0.47292
0.483457 -0.660932 -0.472589
0.217972 0.301561 -0.139642
-0.799556 0.342263 0.727766
-0.0107476 -0.458148 0.117043
0.191692 0.192188 0.0997519
0.705391 -0.186004 -0.00819033
-0.551116 -0.515415 -0.520531
0.0711181 -0.247085 0.245136
-0.216761 -0.0734996 -0.953118
-0.50068 -0.516677 0.281369
-0.0487274 -0.607403 -0.785205
-0.675175 -0.18485 -0.902281
-0.580387 0.105209 0.533422
-0.919605 -0.231025 -0.0495326
0.850501 -0.309422 -0.562164
-0.102754 0.367244 -0.889536
-0.172528 -0.528965 -0.520338
-0.461722 0.222314 -0.0368907
-0.946162 -0.367033 0.0860758
0.905547 0.0169279 -0.594837
0.80027 -0.392724 -0.700985
0.150472 -0.246757 0.257829
-0.00195144 0.242234 -0.979653
-0.731937 -0.524767 -0.0201977
0.147324 0.287629 -0.0427541
0.196721 -0.330636 -0.936133
-0.71625 0.480306 0.663367
0.27479 -0.464938 0.137348
-0.769809 0.155868 0.679365
-0.305392 -0.570899 -0.955747
0.979383 -0.097118 -0.709297
0.741349 -0.395068 -0.829669
0.266667 0.402387 -0.664981
-0.422732 -0.59602 -0.401052
