4.60318 5.55821 -5.33125
3.92907 6.65744 -18.9997
-4.67523 1.99243 -5.69146
-4.78607 -9.99963 4.10512
1.04598 9.97089 -5.95842
5.53471 5.92567 -13.6319
11.7995 5.71619 -5.72139
-2.31916 5.6726 17.2172
6.47466 -9.99947 9.96219
-8.19955 -1.26544 8.0608
-6.36463 6.06637 -9.9994
-5.44159 8.24108 9.99944
2.49871 4.98676 5.95951
-4.19643 7.97233 0.0691196
7.69721 3.77647 -11.8502
11.7994 2.00127 -7.86836
-8.15948 -9.99942 -5.47838
-2.83621 6.52687 -3.81276
-5.06344 -1.38158 17.1645
2.71653 -4.846 19
11.7995 -6.3467 -4.54575
-6.41701 0.921169 -5.9385
5.78992 6.36277 -4.47914
1.80496 -9.934 -9.99951
6.2166 9.99949 -4.12629
-8.19928 -6.57045 9.97086
4.64335 -9.99955 -5.35103
11.7996 6.03576 -0.490369
-8.19939 -3.49091 4.95479
1.91548 -6.77071 -6.02104
-0.365899 6.67309 -17.1728
-8.1995 7.81697 2.13998
7.56931 4.07244 -10.0005
8.44593 -9.99933 -9.97098
7.07844 2.63288 5.39049
11.7995 6.35166 4.82205
1.43348 1.04367 19
-4.78788 -8.28534 9.99948
9.98466 6.01593 9.99944
7.24352 4.39797 18.9703
-2.38736 9.99924 4.39299
-4.04815 -7.97621 1.35033
4.14772 -6.5949 15.2989
8.376 2.4055 15.3249
4.86993 -3.12869 5.1673
11.7995 0.114305 6.05218
5.44832 5.95702 -18.9999
3.87001 -6.73875 -10
2.95867 -6.18017 5.88485
-8.1995 3.2768 -9.9553
7.66657 -3.82052 -17.095
-8.19954 -7.85146 -2.33738
9.77423 -9.99956 -0.941832
2.14805 6.99419 18.999
7.7624 3.64315 -18.9998
-1.31954 8.19428 5.13111
6.47779 -5.20503 -17.1308
-6.45306 -7.39276 9.99938
0.704239 2.90958 19.0001
-8.19915 9.96624 -6.53587
11.7994 7.8003 -6.02065
2.60083 0.706313 -5.98365
1.14937 -7.82965 5.96652
-8.1995 -0.892091 -5.99482
11.7486 -9.94139 -9.99861
-3.45292 -7.96694 -9.99951
4.06624 -6.62208 -15.3179
11.7995 -1.28374 9.96151
-3.09013 8.33098 -3.48312
-8.19951 5.93684 -7.84113
-0.145086 -6.72724 -15.2192
9.87585 -2.16489 -5.60466
7.61889 5.76915 -1.68945
7.61305 5.75525 1.69634
11.7995 -7.83467 3.85905
11.7057 9.99958 9.95189
-4.19421 -9.99963 -0.873045
2.67927 6.94214 -11.8638
7.02576 -4.66567 13.8077
-6.5983 9.99954 -4.00775
4.61764 9.97638 -9.99942
-8.19954 -8.09578 5.62492
6.87384 5.0429 -3.26546
-4.33853 3.39021 11.9517
-4.99523 -1.64196 18.9991
4.9941 6.22593 17.1174
-4.21272 -9.99942 0.696099
-8.19954 -9.97375 2.52253
-6.46926 4.31377 4.17167
-8.19951 -2.49788 -7.95512
11.7995 6.98259 2.90553
-8.19998 5.96499 1.05225
-8.19956 -8.55112 3.64531
-3.50118 2.46189 5.47793
-2.23469 -5.73785 -15.4812
11.7994 -6.01068 -0.740729
0.496804 -9.99947 9.96567
-1.1747 -6.34369 -18.9691
8.63608 -1.43268 -18.9998
3.95579 -2.34061 -19.0001
-4.7687 -2.43131 15.4098
-2.10254 3.80658 4.63968
-0.254076 -9.99958 -7.7803
4.00496 6.64053 18.9705
4.03398 6.63732 11.8698
9.96125 -3.92069 -4.56602
-8.19949 -5.76792 8.31548
11.7998 0.923599 -9.96899
-4.64591 2.7379 17.1071
-4.42405 -3.20723 18.9716
-6.53651 6.69643 9.99946
-4.18369 3.64184 18.966
-6.08999 -9.99963 -2.1619
11.7586 -4.60154 -3.87389
9.51496 -5.54969 2.31933
-6.06429 4.16753 -9.99956
11.7995 0.0520446 -7.95045
-5.02325 1.59565 11.9209
-1.89622 9.96692 -4.72286
-3.36771 -4.71059 18.9697
4.1145 7.913 -5.53151
-0.508224 9.99896 -5.60801
9.97632 9.99955 -4.37319
-4.42773 6.13945 -9.99954
-1.65767 7.91172 -4.90881
-4.89803 0.854568 5.95517
10.1403 -2.28682 9.9996
0.694586 6.92416 -11.8785
6.33342 8.27232 3.9606
-3.80371 -9.99897 2.31306
0.608878 4.52113 5.91724
6.24091 -8.19983 4.05627
6.25261 -6.31325 4.0353
-8.14808 9.99968 -9.93894
1.87659 -7.0142 18.9706
1.73569 7.00432 -13.6337
8.17639 -9.9997 -4.40823
-3.97503 9.9995 -5.74738
11.7994 -8.08253 -7.91677
-6.32869 2.85323 -5.28937
6.69958 5.00348 -18.9681
8.49905 2.02385 -18.9994
-4.49183 4.16937 4.31668
-8.19948 -3.52132 -9.95417
11.7995 -2.68113 7.74112
8.80234 0.493621 15.4033
-1.23831 5.80401 -5.16558
-4.95417 1.85293 15.3886
8.47754 -9.99957 -6.40045
-8.19949 7.77102 5.97565
-8.19953 8.06266 0.0989379
-8.19951 8.42933 4.0382
11.7758 2.79361 -9.99943
0.153129 -0.819245 -19.0001
4.7136 -6.80876 5.25696
8.18322 -2.883 13.738
1.74443 9.9995 7.99372
-8.19944 8.34451 7.87198
-5.0583 -1.42096 13.6574
4.84294 8.16976 5.17375
2.01612 -7.02527 -15.2374
9.79425 -5.74757 -1.77505
1.71428 -7.00186 11.922
8.06163 -3.1302 -18.9712
-3.97892 -5.82601 1.66274
5.90468 -5.67197 -15.332
11.7998 5.9355 1.1762
-4.30929 -3.44665 17.1398
-3.4366 -5.26167 2.98343
9.30858 9.99962 2.9422
-1.20866 -6.32617 13.6399
9.92205 3.92481 -4.55639
-8.19971 5.46372 2.60629
-6.24364 9.9996 0.077282
3.6613 1.53875 5.81495
-2.76598 2.19776 -18.9998
11.7995 -0.663283 8.03554
-1.60169 -9.99942 9.96488
-0.615558 -8.28597 9.99956
-1.20586 -8.23052 -9.99952
-0.279553 9.99961 -7.86413
0.792895 -4.89708 18.9999
11.7995 -1.77972 -8.17186
0.710143 -3.85905 5.93313
10.3223 -0.0341887 9.99965
-1.89306 -5.95128 18.9651
2.26579 6.97939 -18.9995
-8.1672 9.99929 -0.968725
2.47112 -1.08627 -5.97937
-0.867574 -4.97018 5.38979
-3.802 -9.9994 -2.33507
-4.23121 3.57747 -15.3569
0.841512 -6.95539 13.675
8.29835 4.62677 -3.84097
-2.96045 -5.15207 17.1342
9.76223 5.31873 -2.80259
1.66605 9.99965 -7.9482
-4.92049 1.91444 18.9998
8.5484 1.90588 -15.2924
-2.78408 -5.26621 -18.9997
-8.1663 -4.81298 9.99955
4.50828 -0.741391 -5.98559
0.993408 9.97294 -9.99945
8.81675 0.892497 -10.0002
6.60738 -9.99967 3.68091
11.7684 -9.99933 -8.29419
-8.19955 -8.08667 -0.336981
-5.8539 5.34049 2.7562
-0.593444 -6.58442 -17.0178
11.7997 -4.30097 4.26626
0.308144 6.82991 18.9994
-3.64851 4.41093 17.0754
8.32143 2.69444 -9.99986
-8.17579 1.49825 -9.9996
6.56401 -9.99966 -6.11867
9.7617 5.94875 -0.825788
-6.05316 -2.60147 5.39987
-5.94846 -5.29418 2.85127
-1.2793 0.747608 -19
-8.19948 -5.22839 -8.19489
7.40899 -4.19943 -15.3207
0.967115 -5.73467 5.95225
-1.37087 -6.25752 -13.7596
11.7994 -8.35391 9.97053
-3.71312 -9.99964 5.96741
6.4033 -5.27452 17.0779
8.03749 -3.21528 -13.6326
11.7708 8.37397 9.99926
-1.87029 -6.0375 -10.0002
11.7395 -0.818333 -9.99948
11.7996 -1.5283 5.85894
-5.19083 -0.123615 -18.9706
5.38076 -5.92071 -4.81025
1.96848 1.198 6.01238
8.32527 -9.99965 4.21041
4.70411 9.96246 -5.2417
11.7994 4.45128 4.12131
8.69608 -1.20336 -13.5896
-6.02342 -9.9996 1.951
1.95767 4.79186 -6.02542
7.53127 -9.99948 8.1062
3.85805 6.56235 5.63379
-6.03678 5.92715 -1.04161
-1.55693 6.14499 18.9724
-0.499237 -9.99851 -5.61434
7.65173 9.99908 1.53369
1.81472 -9.9994 -8.03219
11.7783 0.820791 9.99949
-1.58826 -9.99972 5.01628
11.7996 9.96025 -6.80227
5.15232 -3.92358 -18.9999
-2.41535 5.59413 15.3694
2.10972 -9.99997 6.04811
-6.6953 -0.632341 -9.99971
11.7995 8.02032 -0.148736
8.71366 -1.01495 18.9997
11.7995 6.57541 9.96605
-0.761096 -6.51236 -12.0251
-0.992356 9.97001 -9.99929
1.06842 9.99951 9.97391
-5.20401 -0.447788 11.878
5.77513 5.75542 18.9706
9.87748 2.05401 -5.65645
7.76353 -8.01174 0.706414
11.7683 0.511298 -5.97608
11.7995 -7.77547 2.07942
3.51578 9.9996 -8.24103
11.7644 -8.24454 -9.99967
11.7995 8.23793 -9.972
5.27255 -6.08926 13.5433
5.7977 9.99958 -8.28029
3.73519 -4.39946 -5.69953
11.7997 -9.96283 2.75074
-4.81797 4.9849 -3.33909
-8.19955 9.95003 -4.74871
-2.05977 6.43853 4.589
-4.75337 -2.46609 11.8645
1.51065 -9.99962 8.02024
8.86951 -0.619052 -10.0001
3.57337 4.85698 18.9999
0.464051 -1.69048 -5.86058
-8.19957 5.66628 -5.67897
-2.97315 5.14141 -11.8177
10.1058 -9.96326 -9.99912
-5.70822 2.90075 5.26943
11.7998 2.0896 -5.68949
-8.19949 9.97169 4.93662
-8.17345 -0.224544 5.99909
-6.39337 4.26485 -4.21729
11.7994 -5.52844 -2.50243
-4.25289 3.54605 -11.8247
7.85169 -9.99938 0.37496
-6.31148 -2.90728 -5.25893
0.239365 8.43558 -9.99958
-8.16769 -9.99944 -1.37125
11.7995 -6.74118 -6.48797
1.37228 -5.02627 -19
-2.13081 -5.80419 -17.3368
2.56835 -0.473157 5.99004
-3.62705 4.43534 -17.156
-0.686641 -6.77555 5.47096
1.93838 -1.15961 -19
-1.39333 -3.17982 5.11921
-6.65939 -0.163855 9.99961
5.41848 -3.70521 -4.7829
-3.01159 9.9995 -3.68115
-5.94966 -7.82532 -9.99943
-3.01282 9.96591 -9.99925
7.7709 9.99954 -7.90957
7.08999 -4.57979 -18.9708
7.13903 9.9994 9.97353
6.06657 7.93934 9.99945
11.7994 5.9653 -7.82677
-4.8527 -6.10275 9.99967
-5.19625 -0.838206 -9.99972
-3.21865 -6.63149 -3.2906
-5.19715 -0.337194 15.4047
9.95298 9.99947 -6.35893
-2.17578 -5.7738 11.8606
7.87984 -3.45232 -4.90012
5.12891 -6.16108 -13.596
9.41963 9.99935 9.97379
5.84399 6.4223 4.43073
-8.19952 0.273713 9.95752
3.83556 -6.68213 18.9997
5.85978 -1.26322 5.86397
-3.80763 -4.20592 -11.9005
-8.19951 -6.66112 6.76429
6.10399 -5.53284 15.3372
-4.64706 2.74175 -17.1672
-8.19954 -6.57479 -4.27081
-3.27799 4.81703 13.615
-4.49047 -3.06798 -17.1704
-3.02493 5.0312 18.9998
5.96959 4.12786 -4.38083
8.79339 -0.488567 17.1369
9.59693 -9.99961 -2.99125
-6.2893 -5.52298 -2.3489
-0.730852 8.32265 9.99953
-1.58321 -1.27121 -19
3.82782 -9.99942 5.71623
-6.35077 -0.735226 5.98146
-6.22196 -4.79947 9.99952
10.1174 2.5429 -9.99961
8.11429 -2.98232 19
-8.19927 6.74091 -9.96243
-6.39625 -3.21252 -9.99971
-5.17978 0.774416 10.0305
6.63465 1.63586 -19
-4.87817 -2.25573 -10.0004
-1.29278 6.29648 -11.8566
5.92126 -7.86069 9.9994
6.99932 6.97382 -3.00807
2.98521 8.26543 5.88497
-5.17093 0.717137 17.1442
10.1042 9.99947 8.19233
-4.78409 -9.99951 -9.96714
5.94894 4.20508 4.33345
11.7998 5.35769 2.73958
-4.69406 2.64968 -13.5831
6.1363 -5.51306 -11.8589
11.7997 -9.94725 9.94365
8.33219 6.20658 -9.99957
-8.19929 -8.41652 -9.96542
4.04714 -2.37896 -5.56782
-4.24788 -9.99948 -7.70113
2.3759 9.99978 6.03668
8.00554 3.26737 13.5443
7.00594 -4.68381 18.9756
5.89713 5.67718 11.8527
11.7996 9.97065 4.66476
9.90714 -0.137417 -5.99726
-0.0138079 8.02252 -5.72184
-8.19979 -3.74779 -4.76543
6.64573 -4.79837 -3.64215
3.54171 -0.328957 -19.0001
-8.19944 1.61478 5.85415
-8.19946 -8.04047 7.96832
-5.16578 0.80434 -17.1667
6.31612 -2.30705 -19
-1.43002 6.22745 13.7185
7.23856 -7.69365 2.53588
-8.19952 1.90234 -7.93772
7.50062 -5.66226 -2.01779
0.721557 -6.909 10.0359
4.60696 6.42402 -11.8565
6.06703 9.99952 8.31041
-2.35474 5.63802 -10.0249
-5.195 -0.410447 -11.8518
5.08695 3.72603 18.9998
7.48682 -9.99929 2.11546
9.60316 -7.71973 -9.99945
-8.19965 -6.02751 0.600776
8.5681 1.86668 -11.8214
11.7995 9.9587 8.19565
-8.19943 0.682354 -6.02373
10.0155 0.827978 5.96138
-4.17328 9.99949 0.979175
6.59128 2.4079 18.9999
-3.80905 9.99952 8.16885
8.20428 0.879849 -5.95106
6.5726 -5.1178 11.9542
7.63301 -9.99947 -8.14373
-3.91301 -4.14684 10.0005
6.44204 5.23656 -10.0255
-3.79435 4.29791 -9.99998
-8.19964 -2.31718 -5.59451
8.43849 -2.26084 -17.2349
8.03947 8.26197 9.99951
-1.7759 3.68984 -4.81808
7.49422 9.9751 -1.88766
11.7995 -6.17756 5.00802
4.74028 -5.04132 5.26117
11.7995 -4.69853 8.31323
11.7994 8.3973 -4.05907
4.73071 -9.99946 9.95524
2.02355 -7.01709 15.3809
8.11266 4.09639 4.3973
8.1935 2.85843 -13.5633
-3.72423 -4.3175 11.8836
-2.78824 -5.28517 10.0331
3.1787 -6.87661 -13.5896
3.50161 4.11072 -5.78702
1.72334 4.85448 19
7.21569 -9.9995 -2.7167
4.09554 9.99921 5.60072
6.70959 -6.6031 -3.44114
6.14196 -9.96762 -4.16952
7.74244 8.0353 0.868019
-6.33614 -4.3881 -4.09884
-5.93031 9.99953 2.12644
6.78936 -4.92373 -13.6195
-4.7216 2.57851 10.0302
9.83644 -9.99933 -7.83582
-1.96751 -3.30001 -18.9999
-8.19952 -0.316168 -8.01487
-3.44117 -4.63879 -17.1515
-4.54456 6.25375 9.99951
5.27738 -0.59437 -19.0001
7.85868 9.9993 -0.203023
2.00831 -5.02624 -6.02428
-8.16608 9.99929 1.01717
-3.92012 7.77544 -1.86878
-2.03315 8.0098 -9.99946
-3.64904 5.40123 2.65233
-8.19952 0.710864 7.88288
-1.93011 -9.97129 -4.73042
-3.65932 4.40308 -13.5869
4.87591 3.12487 -5.15179
11.7995 -7.94358 -3.48832
6.45278 9.99968 -6.23414
1.94871 2.81061 -6.02357
8.28323 2.63945 18.9724
11.7995 7.86128 -2.08798
11.7698 -9.99922 -0.760171
-8.19949 5.82576 9.96999
9.01085 -4.93659 -3.41157
2.45896 -7.06121 -10.0002
11.7994 -4.87444 -6.17775
1.93072 7.01798 11.8765
-8.16735 -9.99945 0.673222
-8.19952 -6.8493 3.60307
-4.19704 -7.93429 -0.540616
4.42807 -6.50346 -11.8386
8.42634 -2.28955 17.2003
4.9874 6.23044 13.6073
9.92253 7.9874 9.9994
-2.60706 -8.17971 -4.06916
-2.14265 -5.79595 15.3831
-4.95091 1.8755 -18.9722
11.7997 4.58177 9.96974
10.0075 -4.65826 3.79915
11.7994 3.11125 5.19397
-8.19952 3.70268 6.6477
8.01322 3.09869 -5.16355
-3.61963 9.99915 2.69779
3.10701 6.88198 17.1256
-6.25709 -9.99964 -0.11701
-8.16672 -9.99958 6.57416
-2.21119 9.99955 -8.41169
7.67511 -7.83985 -1.23999
2.55829 -6.95746 -11.9074
9.78229 -5.10604 -9.99943
2.91855 9.99957 -5.95033
-8.19922 -4.73501 -3.77552
-8.19956 6.59043 4.14836
-0.105293 -6.72759 18.9996
3.65333 6.75524 -13.6297
9.44455 2.61872 5.39791
8.2931 9.95513 -9.99964
-5.18412 0.64988 -13.5967
0.201758 0.567136 5.99518
-3.82199 -4.18058 -15.3853
-4.6941 -1.92073 -5.71125
11.7994 7.84675 8.1011
-2.95716 2.70554 -5.35008
11.7664 -9.99912 -6.49654
8.42909 -2.27597 -15.3741
-4.31823 -3.41853 13.6411
-2.7432 2.44783 18.9998
3.31343 -9.94698 -9.99944
-2.76604 -9.9995 8.27823
11.7995 -9.97379 8.25452
-3.3112 -1.21734 18.9998
3.73062 -2.02876 5.698
8.14123 -6.19665 -9.99951
11.7997 -2.71431 -9.96667
-3.94864 8.00744 -9.99936
2.71794 9.93745 -9.99949
11.7995 -5.94936 -8.19678
0.646646 9.99932 5.95886
4.62098 6.41285 -15.4101
-4.19021 6.0269 -0.604653
-4.21995 9.99945 -0.64591
-0.501063 -8.50092 5.56119
11.7996 6.48143 -9.9694
11.7995 -7.99299 0.20307
0.628381 -8.21656 -5.91473
-8.19927 -9.96615 8.3271
11.7994 6.64364 -3.94835
-0.791343 1.26365 19
4.91647 2.90365 5.24616
3.59955 6.77361 -17.1637
-0.256338 -2.64773 19.0001
-8.19957 7.41936 -3.92787
11.7995 -2.93306 -6.83989
-6.04907 8.00387 -9.99933
5.15537 -6.14592 11.6178
6.59841 0.492726 18.9999
-4.62088 9.99955 4.29409
-6.05786 9.99957 5.98993
6.64325 5.05501 17.1367
1.86023 3.08379 6.0177
0.57269 -0.753777 19.0001
-2.36891 -9.99962 -6.54145
6.49283 9.96051 -9.9994
11.7995 1.37421 7.99108
-2.88759 4.72251 3.7726
7.16532 -5.33085 2.79323
-2.67438 5.46285 10.0003
-3.10695 -5.00497 -13.7192
9.60131 -4.26064 9.99954
11.7991 -5.38456 2.77847
6.22569 5.48459 9.99994
-4.36945 -3.3185 -13.6365
2.83825 9.99951 9.96722
4.81743 -6.31499 17.0855
-2.16715 5.7819 -13.6058
10.1281 -9.99939 9.96104
6.85146 -1.33393 18.9999
-2.60106 -8.53632 9.99941
-8.19952 -4.01728 -6.74364
2.10594 -3.16683 -19.0001
4.07056 4.7085 -18.9998
-2.15854 5.78776 -17.1767
8.58503 -1.72646 15.3944
8.42888 -9.99941 9.96414
7.77383 -8.20067 9.9995
2.18283 -2.98472 -6.01601
11.7996 -8.30549 -5.5419
-5.17322 0.73742 13.6813
-3.27882 0.253524 -18.9998
5.52113 5.93563 -17.1687
1.65774 7.00458 -17.1466
8.68842 1.24062 13.5609
-8.16262 9.99972 6.6375
11.7995 8.31415 3.97726
0.201546 2.0719 5.7851
11.7995 8.21497 6.00493
9.593 -9.99944 7.71033
-8.14417 9.92227 9.99982
0.624398 -3.86483 -5.91105
-8.10415 -9.99961 9.95474
5.67109 -5.8217 -18.9992
2.55745 1.21813 -19
4.06032 -6.62312 -18.9686
11.7578 9.99915 2.68507
8.77238 -0.985636 10.0002
10.1475 2.14197 9.99958
-8.19962 2.23924 -5.62878
0.23773 4.14656 -5.80072
-4.80356 -2.32433 -15.3816
5.87212 5.6938 15.3396
-8.19955 -5.84938 5.14228
-8.19944 -8.36843 9.97053
7.84927 -6.0093 -0.351163
7.19669 -7.94646 -9.99937
-2.95546 5.15195 -15.3734
7.70534 -5.85264 1.32114
-3.40056 -7.70445 2.99335
-4.71632 2.67139 -10.0001
-1.74548 -9.99962 6.73795
-8.15939 -4.77278 3.64685
6.04257 -5.63915 9.99981
-8.16982 -1.45824 9.99939
10.1308 9.99952 4.5764
11.769 9.9992 0.64445
-1.85197 -6.22571 -4.75802
3.18638 6.88242 10.0318
8.46338 2.19964 11.8041
8.14297 9.99949 8.19032
4.80812 -0.818576 19.0001
5.79194 -7.99183 -4.48378
-4.99957 1.71406 -15.3687
2.65928 -9.99948 9.96086
-6.11611 -9.99938 9.97012
-0.929848 -2.64387 -5.37814
3.12494 -6.88536 -17.0855
4.74235 -8.44399 5.23657
-3.29207 4.8015 11.7303
0.843764 -6.95585 -13.5315
-8.19864 -9.96321 -7.70423
-8.16965 9.99964 -8.26913
-5.06369 -1.38139 -13.6125
2.66737 6.94221 -15.3875
8.78394 -0.763703 13.6765
3.13471 -6.88138 13.6794
-6.43033 5.3741 -2.65582
7.37784 4.23673 15.3197
9.784 -9.99954 5.60096
9.8341 -5.99232 0.451746
8.16419 -1.39604 -5.83026
-5.18979 0.0950247 18.9997
-8.19899 8.39029 -9.96873
-8.19952 1.91615 9.96591
6.25085 -2.15069 -5.63182
8.73856 1.04063 -17.0372
-3.86857 9.99901 -2.16597
-8.15243 -9.9978 -9.89617
11.7593 9.99935 6.48086
-4.57403 2.89314 13.7121
-8.16749 9.99939 2.79977
-4.80415 -4.99781 -3.32677
0.47799 6.88641 -18.9713
-8.19947 4.50454 4.05917
1.02473 6.96738 17.0739
11.7995 -7.84522 -1.70367
6.34958 5.32546 -11.8586
9.83975 4.90422 -9.9995
-8.19961 7.9534 -1.99259
-8.19946 4.94085 -9.95699
-8.19963 6.03411 -0.579585
-0.299325 9.99953 7.98562
7.70967 3.75155 -15.3438
3.46335 3.41087 5.80046
-1.35951 6.22619 -19
8.07679 9.99965 4.64384
-4.48627 -1.09724 5.90515
11.7996 9.96894 -5.08213
-6.25541 5.95509 0.831717
-0.321149 6.69121 -13.6285
0.299339 -9.99981 5.8763
-6.61861 1.36862 5.83711
11.7995 3.95558 -6.67486
-8.19955 -3.62185 8.40231
-3.06102 7.91 9.99936
5.46465 9.99962 6.62634
7.01015 8.70786 -3.00258
-8.15602 9.99961 8.36937
0.618568 1.52864 -5.8984
2.55217 -1.03906 19.0001
-8.1995 6.59915 8.00117
11.7994 -8.07219 5.90092
10.0681 9.95921 -9.99968
-0.206023 -6.71453 15.3927
11.7997 -9.96649 1.00327
-6.55344 2.02541 -9.99963
11.775 2.80801 9.99943
-8.15008 -1.821 5.73598
-1.73685 3.95932 -18.9999
-8.1995 -8.39027 -4.30362
-4.06466 -3.82062 -18.9954
-3.98894 -3.0306 5.20094
0.675249 6.24176 -5.93384
-1.36916 3.53802 18.9999
7.99223 -6.27032 9.99953
-5.15099 -1.13596 10.0006
11.7995 3.95432 -8.40119
7.8016 6.06314 0.0574946
-4.13622 3.70037 -18.9714
-6.15706 -9.99957 -6.22249
-4.67162 -9.99944 7.88589
-3.10893 -9.99977 -3.55849
-3.74153 -8.08843 -2.28994
3.63233 -6.33769 -5.73659
11.7995 3.30545 7.78587
-2.93438 5.14995 -18.9987
-1.09137 -8.00865 -5.25231
11.7988 -2.92545 5.31535
7.08493 4.5931 -13.6137
6.61418 -9.99938 -9.96856
-3.29155 -1.78678 -18.9999
7.18645 7.50066 2.65387
11.799 -3.12963 -5.17967
11.7998 1.78287 5.79698
8.11708 0.93254 5.93919
-0.960516 5.00672 5.33978
-8.19946 -8.09083 -6.26269
4.62232 8.276 -9.99956
11.7641 -4.58932 -9.99934
8.74073 0.831003 18.9998
-5.98648 -9.99957 5.92604
4.91787 -6.265 -17.1098
10.0423 -3.1083 5.14685
-0.769155 6.51161 17.14
3.68855 2.0365 -5.71109
1.21978 -9.99983 -6.03189
-0.539956 -4.64844 -18.9999
-8.19963 -5.56642 -2.39603
3.98684 6.64685 15.346
-8.16783 -9.99942 4.79208
-5.0159 1.66237 -11.8136
9.78617 -0.967079 5.92622
11.7994 -8.06887 8.01309
2.61311 -8.32088 -5.94274
7.10076 4.57329 -17.1363
-0.766238 2.45589 -5.48933
-8.16456 -5.63733 2.11337
-4.17636 -3.76788 -10.0002
0.867821 -6.96357 -11.6852
-8.19967 4.87441 -3.6054
9.69798 9.99946 -8.17372
-8.16951 -3.11203 9.99953
6.15264 -4.29882 4.18969
-1.28959 6.29348 -15.3887
-0.176559 6.58988 5.66802
5.60025 -9.99954 -7.86413
3.5949 -9.99963 7.95428
4.39422 -8.06141 -5.43658
7.44578 -9.99967 6.06865
8.03104 6.27304 9.9996
-0.739135 9.97885 9.99941
5.5952 -5.87881 18.9644
8.26677 2.79056 9.99983
7.7043 -3.76143 15.5352
0.311 -9.95246 -9.99947
11.7995 6.48289 6.74031
2.92177 6.36669 -5.89401
11.7692 -1.21353 -5.87381
8.79943 -0.313406 -15.3044
-3.82701 9.99961 6.15297
0.118274 -6.23896 -5.75553
4.62866 4.97172 5.31546
5.79861 9.99955 4.56239
1.67204 -2.92175 19.0001
11.7997 -3.16283 9.96242
-4.14596 5.87291 1.18725
8.77883 0.96655 10
8.24365 -4.23169 4.25928
8.1049 9.99964 -3.79205
-3.98272 -5.79446 -1.70482
0.868222 -0.905169 5.96085
-2.04566 9.99958 7.3196
11.7477 9.94097 -9.99752
-2.41981 -6.23973 4.28363
5.00535 9.99946 9.96953
-0.244954 -2.13111 5.66509
2.05385 8.09986 -6.02207
-8.19954 7.8374 -5.90606
0.509313 -6.87697 -18.9991
2.89385 2.82742 18.9999
-4.46389 3.74211 -4.69628
-6.24067 -9.99942 -8.18858
-4.36228 -3.67086 -4.74321
9.7273 -9.99953 1.22103
6.36117 5.31373 -15.4038
3.84802 -8.40638 9.9995
-8.15489 3.1587 5.1006
11.7997 -9.96823 -2.53632
0.135783 4.74321 -19
-1.19529 -6.33267 17.1548
-3.09113 -9.96626 -9.99946
-8.19951 4.72902 8.18294
-6.53061 2.361 9.99975
-3.19119 -6.99615 9.99965
3.71734 -2.72953 19.0001
-2.31468 -2.84925 19
0.147847 -2.80012 -19
-2.1763 -3.93198 -4.54436
7.41339 4.19837 10.0226
11.7995 -4.53638 6.37418
-2.18442 -8.14132 4.49786
1.59763 -8.511 9.99964
-1.0971 0.762798 -5.98349
2.97764 6.90292 13.5896
-8.1995 -5.93265 -6.13807
6.79206 -4.96802 -9.99981
-6.61337 -9.9996 3.85999
6.90576 5.16761 3.14673
-8.1996 5.67467 -2.14827
11.7995 8.22422 1.70117
11.7997 9.96589 -1.28179
8.6125 1.61366 17.1722
4.39711 -0.328467 5.99322
-2.86692 8.38461 3.77374
-8.19946 -7.51382 -8.05717
-8.1995 -1.80094 -9.96471
-2.47931 -4.21149 4.27308
-6.4767 -4.11477 4.37179
5.74348 8.20721 -4.52803
9.39633 5.25938 2.91134
3.05853 -9.99908 -5.9383
-3.96581 -9.9994 9.96562
5.21022 6.18427 -9.9999
-6.50964 9.99955 3.98065
9.47358 9.99958 6.37992
5.39178 -9.99933 4.90354
-8.19952 5.61102 6.02398
9.75223 -7.97619 9.99934
3.52274 -6.79265 11.9379
6.71519 4.99066 13.5757
5.95464 0.878866 5.95189
5.55461 3.35528 -18.9998
-3.91849 4.13007 10.0007
7.51009 -4.06588 -11.8729
-4.66197 -4.34784 4.1325
8.79922 -0.682755 -17.1279
11.7643 4.75202 -3.65143
-3.02524 -4.88392 -3.5649
4.82482 1.66024 18.9999
11.7997 -9.97049 -4.35024
7.69283 7.90259 -1.1332
-4.77524 -2.40805 -11.8487
2.11799 5.01985 -19
-1.01152 2.90529 5.30645
0.781926 0.951589 -19
4.93769 -8.18428 -9.9995
-8.15725 -6.71937 -9.99958
8.79209 -0.256449 -11.8382
7.31909 9.99964 6.36863
-1.32104 -9.99948 -9.96543
-2.82223 -2.39459 -5.50267
0.804394 -0.156197 -5.99217
9.66291 9.9995 -2.40614
-0.795034 -4.73144 -5.4311
3.08536 -8.12066 5.86139
-8.19954 2.591 8.11547
-2.22064 -9.99951 -8.31549
8.79327 0.158696 11.8184
-6.10772 4.56143 9.9996
-8.17366 9.99928 -2.8725
-0.51031 2.58374 -19
11.7613 -4.90811 9.99934
3.35854 0.687017 19
4.94028 -9.99942 -9.95942
-8.19949 3.64577 -4.85016
1.84977 6.608 6.01527
-5.90996 9.99945 7.94031
-4.26004 -5.99695 -0.0238585
2.61793 -6.95067 10.0311
9.65445 4.2006 9.99955
-4.43433 9.99943 9.97108
-4.90092 -2.01912 -18.9652
-8.15875 -9.9994 -3.34204
9.84168 -9.9995 3.21809
-8.19957 -4.65695 6.63647
11.7671 9.99916 -8.41656
11.7994 7.9558 -7.99559
-2.83346 -9.96379 3.79388
7.56827 -3.9799 17.3683
8.77585 0.800515 -13.5816
-0.475582 -9.99954 8.11526
3.78032 8.43233 9.99956
11.7994 -6.37269 7.35306
0.33562 6.89986 10
-4.21917 9.99951 -7.84983
4.80279 6.38286 9.99976
-8.19963 -2.82148 6.95092
7.63062 -0.754725 5.9877
-4.17228 -9.99965 -5.38353
11.7637 -9.99922 6.5067
1.9524 7.01407 15.3326
8.21792 9.99963 -5.78593
6.50828 2.0834 -5.66216
-1.32653 -0.647281 5.99573
11.7661 -5.89808 1.09707
8.16077 2.92502 -17.131
9.94084 -6.05788 9.9994
6.9992 7.82882 -9.99948
-6.04509 9.99951 -5.99234
-2.99048 -5.12412 13.6381
-6.14979 -5.99159 -0.695793
8.47718 -2.36372 5.51507
-1.07317 -4.41664 18.9999
-1.9478 5.91057 11.9568
0.807096 -6.94996 17.1428
11.7654 9.99915 -3.0854
-2.79453 4.65234 -3.86359
-2.64354 -1.8881 5.71529
4.61681 9.99968 -6.93479
-0.930381 9.9989 5.41768
11.7659 -9.99918 4.59138
-0.896358 6.51373 -10.0001
-8.19948 7.99658 9.96926
-4.8748 9.99952 -3.9637
-3.13719 0.394233 5.99485
2.92267 -6.9061 17.1437
-6.38247 -0.911014 -5.94373
-8.19955 3.91974 -7.42966
-3.72241 -4.32265 15.3843
11.7996 -6.6535 9.95324
7.3669 -4.33441 10.0006
11.7996 5.6757 -2.09818
-8.19967 -5.9914 -0.928226
-2.22923 9.99967 -6.65216
-0.349203 6.67759 15.3327
-1.21455 -0.870317 -5.95943
-8.16227 -5.07271 -9.99948
-3.76286 5.61835 -2.25913
5.82584 -2.9076 19
10.0876 -9.99951 -5.32148
1.73743 7.09816 9.99985
-3.9973 3.92044 15.309
10.0752 -2.76693 -9.99956
-6.19353 9.99944 -7.9659
11.7996 -3.99451 -8.2278
11.7996 5.42457 8.25912
7.01689 -8.24206 -2.96622
7.73203 -9.99971 -1.20607
-3.04513 -0.73462 -5.98467
-4.68284 0.148523 -5.99689
11.7997 4.69384 -9.97326
9.81981 5.91046 1.11528
1.98722 -2.4763 6.02319
-2.46445 9.99949 9.9588
3.40995 -4.76441 -19
11.7993 3.61466 -4.85372
0.666232 6.92559 -15.3902
-6.13483 -5.38843 -9.99961
-1.38962 -0.790118 19
-3.28923 6.81355 3.17356
-6.50476 -9.99941 -9.9765
3.79389 -9.99954 -7.81909
0.611725 6.94084 -10
7.88879 3.45719 17.149
4.69454 1.40336 -18.9999
-4.4374 -6.29579 -9.99971
-8.19951 -0.0221104 -9.96246
-4.64179 -2.85371 10
8.28628 -2.78751 9.99997
-8.19958 -7.91459 1.67784
9.83929 9.99952 1.24745
7.43305 4.17457 11.8255
1.13647 -6.9708 -17.0278
-0.195855 6.71266 11.9284
8.8018 0.35286 -18.9678
-1.33144 6.32038 10.0009
7.75718 -3.67391 11.9359
3.3852 3.01382 -18.9999
3.83054 9.9995 7.96384
7.85184 -3.64972 -10.0001
2.32538 -6.99703 -18.9689
-2.84632 0.958779 -5.93689
8.47379 -2.10607 -10.0313
-8.19943 7.96127 -7.91464
-6.47462 -9.99943 7.94065
3.57882 6.82286 -9.99989
8.45348 -2.22211 -11.8696
-0.131403 4.85629 18.9999
-0.333261 -6.68242 11.8519
-1.6819 1.29586 5.85609
-3.09094 -5.03561 -10.0312
-5.19979 -0.328517 -15.3761
4.99242 0.870372 -5.95973
5.55988 -9.99961 7.45318
-4.81209 9.96863 -9.99936
0.729217 8.27244 5.92582
-6.47053 -2.61377 9.99963
5.48625 -6.02678 -10.0006
0.769725 6.95048 13.6548
-5.20844 0.796785 -9.9995
-1.20645 -6.37527 9.99982
6.57708 -0.239187 -5.99432
-3.90653 8.03465 1.87674
-8.16626 3.84294 9.9996
-3.01582 0.656733 18.9998
8.56807 -1.868 11.92
9.586 7.75649 -9.99945
4.60257 -4.47351 19
-6.09067 9.99959 -2.00632
11.7995 4.64423 6.26364
4.39303 -6.5593 10.0005
2.97468 -4.19365 5.88226
-5.87832 -9.9996 -4.09678
-6.52281 9.99945 -9.9686
-5.09776 -1.179 -17.154
-6.15577 -5.90525 1.05458
7.02392 -0.283533 -18.9999
9.84698 9.99954 -0.615873
-6.41139 9.9995 9.96828
-0.408731 -6.67225 -10.0311
7.02235 9.99943 3.05328
10.0689 4.14524 4.34056
1.40458 3.04044 -19
1.00628 -7.06508 -10
-2.4082 -5.59993 -11.9354
11.7553 -6.49229 -9.9993
2.11477 7.08097 -9.99998
6.8511 -2.89578 5.2535
