-0.784044 0.0764159 -0.0453341
0.0160847 0.438989 -0.206238
-0.344817 0.191367 0.0493215
-0.334242 -0.0460786 0.77019
-0.931343 -0.12436 0.339958
0.077413 -0.7186 -0.21298
0.575739 -0.16985 0.145067
0.016031 -0.14999 -0.9364
-0.587624 -0.4612 0.575838
-0.335549 0.257649 -0.297181
-0.0561655 -0.440519 -0.931729
-0.273686 0.1208 0.632155
-0.4597 -0.625147 -0.900498
-0.361829 -0.571022 -0.421359
-0.656159 -0.0940154 0.604008
-0.541056 -0.225791 -0.847226
0.0158424 0.304468 -0.140227
-0.548741 0.0866812 0.160245
0.520054 -0.146552 0.186544
-0.000200714 0.290574 -0.0805855
0.479476 -0.453817 -0.973576
-0.66572 0.225266 0.475539
-0.702451 0.17844 0.733166
-0.943503 -0.220857 -0.159643
0.272076 0.413297 -0.222964
-0.404916 -0.491429 -0.66776
0.512964 0.285818 -0.794701
-0.923964 -0.188437 0.499126
-0.220479 -0.0015904 0.207837
-0.538174 -0.507054 0.434156
-0.406375 -0.445598 0.200596
0.79887 -0.204114 -0.252215
0.0417688 -0.312758 0.221951
-0.336808 -0.285399 0.211772
-0.513229 -0.280225 -0.861761
0.578214 0.232234 -0.158581
0.205958 -0.645067 -0.146838
0.769256 -0.127525 -0.927967
0.734289 -0.390617 -0.202419
0.602688 -0.0495476 0.107676
0.460682 -0.116565 0.217946
-0.593454 -0.389095 0.600012
-0.321111 -0.436542 -0.981136
0.398923 -0.137665 -0.983419
-0.610488 0.497076 0.615955
0.187442 -0.765219 -0.477798
-0.0960082 0.222579 0.885174
-0.805476 0.521929 0.835909
-0.582748 0.459931 0.691318
0.737089 -0.238397 -0.071206
0.608996 -0.445595 -0.808024
0.848152 0.036326 -0.600543
-0.38287 -0.149616 0.320041
0.485359 -0.515064 -0.046826
-0.944028 -0.318329 0.521297
-0.646853 -0.420834 -0.559055
-0.12937 -0.58078 -0.147679
-0.904674 -0.350685 -0.0924756
0.41786 -0.00999187 -0.996355
0.280814 0.436835 -0.364738
-0.579285 0.220013 -0.197865
-0.69546 0.0385154 0.657222
-0.170002 0.394064 -0.559467
-0.843734 -0.310292 0.58941
-0.0574679 -0.556096 -0.0460419
-0.686994 0.0495608 -0.912689
0.396094 0.389914 -0.384629
-0.132176 0.415168 -0.613104
0.372983 -0.567705 -0.856089
0.991025 -0.0916679 -0.643026
-0.027383 -0.658744 -0.608466
-0.934122 -0.337917 0.347871
-0.549226 -0.487711 0.373398
-0.291885 0.354125 -0.864868
-0.415332 -0.187046 0.452597
-0.0956948 0.0102594 -0.931351
0.564843 -0.391569 -0.916362
-0.506987 -0.461316 0.479242
-0.0117087 0.2103 0.0646904
-0.807726 0.0269714 -0.000121633
0.28298 -0.273724 0.259859
0.417181 -0.344221 0.209889
-0.335755 -0.562292 -0.0723584
-0.565114 -0.574286 -0.8375
-0.364982 -0.149876 0.568309
0.480687 -0.615122 -0.706696
-0.777548 -0.260148 -0.528511
0.0490568 -0.377036 0.194224
-0.527241 -0.60212 -0.314981
-0.426111 -0.0170087 0.315478
-0.0275554 -0.647052 -0.675468
-0.125406 -0.559607 -0.0817996
0.0161962 -0.428178 -0.931752
-0.535768 0.0457384 -0.611458
-0.763623 -0.403949 -0.487911
-0.241358 -0.582067 -0.179007
-0.430295 -0.533813 -0.804522
-0.247937 0.153051 0.691745
-0.65803 0.141191 0.702546
-0.533746 -0.10181 -0.984505
-0.798093 -0.634857 0.42104
0.424765 -0.664787 -0.254222
-0.141939 0.472181 -0.42891
-0.628545 0.0811972 -0.968281
-0.895619 -0.543241 0.42254
0.346939 0.402434 -0.600425
0.64053 0.18835 -0.145823
0.383172 -0.696753 -0.526013
0.0415394 -0.430375 0.157602
-0.714539 0.178534 -0.249651
0.152757 -0.392748 -0.93432
-0.0756105 -0.284037 0.18756
-0.636803 -0.549683 -0.0641976
0.0477884 0.16495 0.732586
0.21257 -0.254896 0.26109
-0.400112 -0.365142 0.309765
-0.518422 -0.0348916 0.589657
-0.92314 -0.640954 0.175485
0.149693 0.10454 0.195117
-0.229275 0.299086 -0.508307
-0.0720228 0.440837 -0.652174
0.23221 -0.599045 -0.922926
-0.116 0.0362433 0.68093
0.324562 -0.429585 0.176991
0.619805 0.218377 -0.208709
-0.709856 0.101819 0.69096
0.100266 0.282643 0.824101
0.181495 -0.0889999 0.261517
-0.396931 -0.565976 -0.0987392
0.42043 0.373765 -0.725669
-0.468596 -0.417157 0.462648
0.527149 -0.222863 0.180705
-0.0557678 0.354822 -0.843449
-0.345769 -0.539041 -0.637326
0.562249 -0.604549 -0.363096
0.817962 -0.0728839 -0.899825
0.289899 0.159045 0.147739
-0.878031 -0.0410629 0.092885
-0.171685 -0.598312 -0.179055
-0.55656 0.217317 -0.118082
-0.721043 -0.000710816 -0.966599
-0.938656 -0.217594 0.348353
-0.725414 -0.0746143 0.60521
-0.711148 -0.201205 -0.60536
-0.0595377 -0.663087 -0.224888
0.412297 -0.699355 -0.459095
-0.725408 -0.132542 -0.591948
0.0989164 0.370721 0.884863
-0.0601999 -0.51865 0.0211509
0.146532 0.420397 -0.192522
-0.62628 -0.087313 -0.809647
-0.861784 0.0292211 -0.142837
0.93607 -0.041518 -0.545018
0.783599 -0.318698 -0.581367
-0.619027 -0.0332796 0.585894
-0.335252 0.0798827 0.756549
0.65424 0.150186 -0.0858996
-0.594378 0.6299 0.813478
-0.330079 -0.234734 0.240911
0.0652225 0.436203 -0.680015
0.104402 -0.572768 -0.0651924
0.66715 0.21985 -0.271795
-0.20083 0.257961 -0.705872
0.595055 0.199376 -0.0922919
0.246784 -0.437982 0.172954
0.677974 0.211785 -0.406412
-0.16445 0.0372635 -0.929739
0.240916 -0.557469 -0.00747613
-0.429031 -0.576263 -0.458742
0.0611703 -0.652269 -0.971597
0.459271 -0.273222 0.207577
-0.613667 0.562743 0.639629
0.778588 0.0988032 -0.7101
0.576403 -0.548799 -0.673828
0.0596554 0.15644 0.675979
-0.924463 -0.330787 -0.257374
0.526813 -0.456552 -0.926191
-0.82901 -0.238521 0.597352
-0.577739 0.761511 0.844834
-0.707028 0.570673 0.748352
0.813128 0.0709758 -0.651695
-0.828823 0.00524352 0.111255
-0.684733 0.0657845 0.3548
0.405228 0.382323 -0.306687
0.0592327 0.284579 -0.0469294
-0.0680117 0.233428 0.0256258
-0.268667 0.238767 -0.798068
-0.0998251 -0.709532 -0.959308
-0.348684 -0.115125 0.50011
-0.241784 0.291113 -0.201476
0.398427 0.344913 -0.783328
-0.204789 -0.564616 -0.113143
0.958122 -0.0212616 -0.607931
-0.347052 -0.453221 0.0763336
0.720006 -0.440949 -0.456351
0.35873 -0.467557 0.124643
-0.489037 0.250004 -0.359912
-0.0441382 -0.69761 -0.962215
-0.449446 -0.226665 -0.769056
-0.888275 -0.10773 -0.393333
-0.791258 -0.554028 0.00174743
0.830889 -0.151092 -0.896216
-0.396686 0.0559808 0.612947
0.916485 0.0263719 -0.716975
-0.93536 -0.150893 -0.191109
0.0252903 0.266812 0.999036
-0.44815 -0.4702 0.0818761
-0.206454 0.164549 0.813973
0.742563 0.107862 -0.489159
-0.28128 -0.101462 0.243714
0.04328 0.239774 0.853989
0.741859 0.0577654 -0.638644
-0.716352 -0.552139 0.52239
-0.256812 0.178346 -0.575585
0.434922 -0.047373 0.222636
-0.633473 -0.161174 -0.839939
-0.612629 -0.344432 -0.901167
-0.842592 -0.0304639 0.370097
-0.548288 0.246727 -0.316829
0.477027 -0.331685 0.179237
0.768913 0.0246374 -0.591938
0.36292 -0.0271372 0.244093
0.147493 -0.561083 -0.00111928
0.806138 -0.0796324 -0.26735
-0.59596 -0.579275 -0.1069
0.731378 -0.353679 -0.140138
-0.387001 0.0147677 0.750802
0.278321 0.154359 -0.947156
0.0852533 -0.741878 -0.270987
0.0257957 -0.663968 -0.730005
0.526334 0.0963903 -0.88759
-0.0697458 -0.58712 -0.697981
-0.41264 -0.0631155 0.437836
-0.729022 0.106452 -0.452879
-0.90328 -0.365344 0.0521302
0.571753 0.110447 -0.839774
0.0923757 0.206602 0.711032
-0.943224 -0.109479 0.215849
0.453558 -0.387833 0.154378
-0.95876 -0.283747 0.317539
0.360709 0.157247 0.140245
0.644145 -0.48257 -0.156386
0.310301 -0.723781 -0.52975
-0.507053 -0.481757 -0.565918
0.180846 -0.171899 0.265759
-0.539951 -0.366925 -0.979188
0.404474 0.243016 -0.959976
-0.109477 -0.598369 -0.485064
0.761231 0.0501078 -0.221635
-0.240602 -0.0446978 0.780337
-0.68508 0.159205 -0.438859
-0.781795 -0.113157 0.590649
0.0787059 -0.583455 -0.130381
-0.214156 0.172526 0.739123
-0.85166 0.0156966 -0.362748
-0.193121 -0.571123 -0.309022
-0.642331 -0.650416 0.325084
-0.0475239 -0.478821 0.076361
-0.0225236 0.136819 0.736381
-0.472798 0.174965 0.0806965
-0.626669 -0.399265 -0.870201
-0.0297914 -0.0101942 -0.932555
0.304841 -0.686924 -0.704984
-0.389206 0.192502 -0.86386
0.380358 0.0852772 0.181082
-0.282645 0.237406 -0.400181
-0.725662 -0.550377 -0.154388
0.124616 -0.407973 0.192426
-0.0934943 0.127136 0.130664
0.652569 -0.499882 -0.57316
-0.778955 -0.180289 0.60375
-0.589728 0.588182 0.758752
0.896297 -0.350829 -0.715712
-0.946237 -0.292011 0.0579527
0.418251 -0.62293 -0.738759
0.364893 -0.510423 -0.996092
0.396627 0.249359 -0.065083
-0.0532939 0.212911 -0.93145
0.741597 -0.380216 -0.581454
0.731185 -0.420303 -0.263048
-0.600633 -0.385038 -0.597954
-0.813022 -0.470446 -0.360039
-0.524497 -0.573733 -0.0767345
-0.382586 -0.395536 0.23379
0.207491 0.397489 -0.741692
0.37706 0.296341 -0.920026
0.384566 0.237637 0.00886294
-0.466234 -0.579787 -0.123232
-0.822223 0.0322103 -0.422463
0.519634 0.314645 -0.286555
0.780369 -0.203247 -0.916737
0.939338 -0.304942 -0.693293
-0.0790944 -0.714644 -0.33022
-0.654254 -0.426004 0.59264
-0.258177 0.05736 0.201984
-0.578076 0.222094 0.640689
0.018831 -0.735682 -0.262416
-0.193483 0.0524007 0.171421
0.735779 0.0682962 -0.153467
0.474075 -0.643574 -0.334227
-0.890604 -0.30805 0.018283
0.124043 0.449993 -0.639154
0.904476 -0.21547 -0.508254
-0.611418 0.19785 -0.0698423
-0.25044 -0.602764 -0.971675
-0.9252 -0.222888 0.439326
-0.643972 0.0791052 0.225308
0.193205 0.447085 -0.602435
-0.615663 -0.528599 0.0192199
-0.127009 0.0409389 0.586934
-0.42925 -0.601171 -0.236521
-0.280985 -0.0741755 0.734763
-0.706789 0.0598531 -0.501327
-0.255167 -0.184873 -0.982802
0.0853897 0.213564 0.0579694
0.741052 0.142342 -0.333142
0.269101 -0.160011 -0.99718
-0.806875 0.0149646 0.337336
-0.643221 0.725904 0.748299
-0.102555 0.0871035 -0.928951
0.241919 -0.131942 0.269019
-0.526707 0.0129754 -0.708209
-0.642854 0.739672 0.871416
0.59013 0.217693 -0.717754
-0.373669 0.327324 -0.97218
0.347141 -0.659883 -0.773984
0.650375 -0.537018 -0.289639
-0.844608 -0.0851551 -0.456158
-0.105489 -0.470012 0.0481564
-0.86603 -0.358669 -0.0148819
0.668096 -0.488494 -0.633851
0.684037 -0.363672 -0.883491
-0.540871 -0.147152 0.609486
0.631037 -0.543718 -0.460165
-0.911596 -0.0802329 -0.209125
-0.443559 0.0961121 0.185385
-0.345586 -0.343353 0.177317
-0.0232765 0.497194 -0.477914
-0.559634 -0.503763 -0.806097
-0.760623 -0.540484 -0.22349
-0.494791 -0.206533 0.600053
0.754202 -0.0527478 -0.928301
-0.100676 -0.5484 -0.632807
0.330959 0.420734 -0.41129
-0.717175 -0.381793 -0.536521
-0.900282 -0.24641 0.0067731
-0.546068 -0.00956514 -0.644553
0.639188 -0.0038287 0.0621536
-0.249214 -0.612468 -0.899736
-0.68946 -0.123507 -0.848343
-0.95549 -0.472499 0.095098
0.0909228 0.337062 -0.871672
0.274542 0.264449 -0.991302
0.598461 0.158539 -0.0347821
0.620948 -0.331416 0.0764205
-0.323623 0.0797533 0.207339
0.46671 -0.621608 -0.637231
0.747359 0.104817 -0.411297
-0.282383 -0.0282803 0.236832
-0.904479 -0.291406 -0.0464147
-0.13121 0.38867 -0.680001
-0.609536 0.673955 0.888221
-0.448686 -0.617998 -0.313878
0.800542 -0.0249406 -0.316393
0.570804 -0.574248 -0.482082
-0.506084 0.0668359 -0.668274
0.108307 -0.620043 -0.833848
0.437975 0.369547 -0.449189
-0.805538 0.408837 0.75893
-0.772216 0.0516346 -0.469382
-0.00550483 0.453386 -0.669292
-0.902473 -0.280475 0.569839
-0.928218 -0.502318 0.302077
0.629198 -0.190615 0.0934665
-0.589779 0.431913 0.623285
0.800091 -0.388349 -0.795214
-0.208341 0.311505 -0.264121
-0.281506 -0.540017 -0.669261
-0.66902 0.649808 0.929643
-0.0827384 -0.0545655 0.203787
0.737625 0.0153642 -0.102044
-0.170579 0.371246 -0.876703
0.704491 -0.260288 -0.0157734
-0.745174 -0.724834 0.184549
-0.752557 0.0401442 0.376747
-0.542262 -0.420497 -0.806733
-0.472694 -0.0549284 -0.985708
0.567219 -0.553761 -0.543793
-0.0555862 0.154462 0.80551
0.046355 0.236704 0.0212648
-0.398117 -0.187741 0.378895
0.724434 -0.039588 -0.0501064
0.6177 -0.339697 -0.921813
-0.766381 0.20188 0.711766
-0.20637 0.374134 -0.499116
-0.698323 0.0759145 0.166897
0.511863 0.338114 -0.43903
0.883119 -0.19077 -0.857488
-0.723026 0.439176 0.600482
0.348047 -0.706449 -0.588813
0.015326 -0.509188 0.0564561
-0.215059 -0.0664432 0.220916
0.107991 0.109797 -0.927488
-0.361687 -0.586341 -0.236395
0.0561248 0.487022 -0.46681
-0.396788 -0.0796298 0.315218
0.670535 0.18647 -0.601585
0.0471615 -0.628273 -0.82224
-0.393412 -0.45209 -0.977985
-0.842159 0.0249275 -0.0638836
-0.759582 0.230638 0.542647
-0.452576 0.107303 -0.831616
0.117728 0.181053 0.111254
-0.59699 0.742838 0.904287
-0.213216 -0.523348 -0.627052
-0.819088 0.0684288 -0.108131
-0.519196 -0.436355 -0.976699
-0.328094 -0.105982 0.681855
-0.465789 -0.353461 0.565419
-0.892495 -0.436336 0.0500073
0.634317 0.207572 -0.664826
-0.0708931 0.297604 -0.102126
0.716649 0.161889 -0.272835
0.503216 -0.479661 0.00458985
-0.341066 0.244998 -0.360701
0.213664 -0.657884 -0.810126
-0.351902 0.13551 -0.796233
0.24745 -0.0624569 0.263656
-0.484931 -0.54282 0.195672
0.315435 -0.0751892 0.262339
-0.694264 0.325594 0.798497
0.179073 -0.0368653 -0.939209
-0.900663 -0.183583 -0.378949
0.344577 -0.724029 -0.338635
-0.139016 -0.245451 0.193911
0.541992 0.225706 -0.822379
-0.708839 -0.150193 0.610467
-0.0192067 -0.0937189 0.225159
0.0290406 0.100029 0.677157
0.313566 0.104716 0.185372
-0.298528 -0.100735 0.559158
-0.00653433 0.282152 0.821887
-0.22655 -0.360322 -0.980831
-0.58745 0.665303 0.744369
0.347857 0.385909 -0.732132
-0.857905 -0.568855 0.0210789
-0.152308 -0.0169231 0.187552
0.693252 0.136145 -0.147092
0.250288 0.358297 -0.173566
-0.0488773 -0.369971 -0.935072
-0.142067 0.456976 -0.288691
0.213083 -0.702686 -0.192435
-0.295604 -0.0556482 0.509373
0.318647 0.393868 -0.65731
-0.66309 -0.58444 -0.33
0.232297 0.432119 -0.544779
-0.115053 0.0519825 0.167808
-0.947934 -0.157735 0.0702466
0.564425 0.271538 -0.228742
-0.221746 -0.412345 0.121796
0.418426 -0.674727 -0.337661
-0.97501 -0.227112 0.269557
-0.688527 -0.52681 -0.429949
-0.688012 0.0222899 -0.549527
0.475304 -0.581653 -0.77355
-0.746957 0.189884 0.582602
-0.0625007 -0.602174 -0.621008
-0.804048 0.00580731 0.419813
0.367934 0.399706 -0.460456
-0.315912 0.18248 -0.539142
-0.843651 -0.493598 0.0165232
0.276332 -0.529905 -0.995972
0.372533 -0.294812 0.242042
-0.439886 0.161789 -0.525988
-0.941916 -0.27731 0.390958
-0.301338 -0.570956 -0.207752
-0.144609 -0.510647 -0.586732
-0.0673607 -0.6672 -0.492697
-0.428846 -0.0532162 0.376888
-0.0594879 0.48439 -0.539499
-0.0684221 0.00822945 0.642938
-0.915562 -0.267342 -0.300967
0.0249053 -0.68651 -0.659064
-0.544364 -0.588629 -0.14822
0.380496 -0.698816 -0.394873
-0.890424 -0.130102 0.0142325
-0.0131584 0.193736 0.852103
-0.0161724 -0.220125 -0.9377
-0.817625 -0.667974 0.364326
-0.201797 -0.283528 0.198087
-0.237635 0.203181 -0.931292
-0.492289 0.215454 -0.428071
-0.471984 -0.402044 -0.627219
0.13611 0.422899 -0.707921
0.220789 -0.497532 0.116494
-0.0897149 -0.423867 0.113186
-0.32416 0.367356 -0.937483
-0.883341 -0.0653467 -0.345171
0.094113 0.134128 0.153081
0.143938 0.302642 -0.130983
0.00370035 0.253891 -0.01018
-0.666546 0.172794 -0.120177
-0.529008 -0.410851 0.58417
0.402041 -0.628445 -0.18496
0.277861 -0.236131 -0.996634
-0.239411 0.380865 -0.897046
0.222662 -0.598034 -0.862356
-0.406385 -0.117603 0.382701
0.160222 -0.750634 -0.398667
-0.959959 -0.372103 0.295954
0.0137768 0.20273 -0.930606
-0.865055 -0.661687 0.315353
-0.671488 -0.650216 0.399667
0.208871 0.412826 -0.199833
0.00960122 -0.69748 -0.208353
-0.741257 0.396542 0.534288
0.43044 0.168893 0.0934698
0.280579 -0.686339 -0.769882
-0.29349 -0.569945 -0.463754
-0.897374 -0.191635 0.00811586
-0.224764 0.00128851 -0.932232
0.00377418 0.389976 -0.803336
0.220959 -0.435751 -0.931924
0.0661015 -0.657217 -0.164703
-0.505092 0.110313 -0.87781
-0.387046 0.261525 -0.187058
-0.844468 -0.161614 0.580999
-0.638478 0.0677282 0.41781
0.918354 -0.237175 -0.815241
-0.0368684 0.0673144 -0.929541
-0.741321 -0.23308 0.613808
0.56938 0.301208 -0.443325
0.810069 -0.23991 -0.453037
-0.615592 0.00857401 -0.983041
0.55134 0.0957677 0.0768002
-0.86776 -0.0759739 0.0228236
0.646319 0.0950108 -0.857273
-0.893781 -0.358685 0.557783
0.726354 -0.312599 -0.075088
-0.442155 -0.194629 -0.973581
-0.686468 0.0443931 -0.972148
-0.0660395 -0.704957 -0.88102
0.260729 -0.20138 0.270196
-0.227633 0.116209 0.133397
-0.681 -0.0267856 0.623681
-0.355566 -0.568417 -0.494127
0.399478 0.291644 -0.116446
-0.616312 -0.535417 -0.469221
-0.101214 0.488751 -0.483866
0.129951 -0.3165 -0.9377
-0.897384 -0.0214819 -0.173083
0.550851 0.149303 0.017972
-0.607131 -0.11579 -0.644828
-0.700262 -0.533508 -0.0821485
0.804818 -0.337587 -0.847589
0.65079 0.108252 -0.761794
-0.264061 -0.250731 0.223388
-0.626219 0.554874 0.824774
-0.249866 0.148571 -0.641164
-0.44402 0.113084 -0.680435
0.789433 -0.307101 -0.461595
-0.941076 -0.372626 0.491345
0.0486201 0.323219 0.972596
-0.666636 0.00709585 -0.859042
0.985254 -0.225899 -0.599677
0.310045 -0.330972 0.241938
-0.453237 -0.230195 -0.710184
0.497996 -0.518933 -0.809067
-0.47738 -0.413858 0.547695
0.266596 0.424421 -0.601115
0.212905 -0.730982 -0.642427
0.102441 -0.181706 0.255289
-0.882839 -0.392605 -0.28099
0.468863 0.333004 -0.765871
-0.572845 0.0965987 -0.906646
0.577274 -0.508649 -0.741655
-0.412618 -0.00357356 0.488334
-0.0833085 0.458095 -0.591372
0.272879 0.202823 -0.988955
-0.174326 0.219841 -0.927834
0.0252239 0.0522208 -0.929197
0.527603 0.285599 -0.721394
-0.95729 -0.224925 0.0603671
0.141822 0.375543 -0.833086
0.428083 -0.564411 -0.900988
-0.570906 0.101 -0.9731
-0.486455 -0.473302 0.327726
0.957248 -0.290754 -0.627764
-0.766207 0.371327 0.801702
0.693371 -0.376064 -0.0842739
-0.610651 -0.00466628 -0.824074
-0.0759066 0.496234 -0.414952
-0.466707 -0.254266 -0.822729
-0.51296 -0.0848315 0.639918
-0.210307 0.41549 -0.427704
-0.173346 -0.338518 -0.941631
-0.312554 0.198183 -0.978386
0.481166 -0.00222793 0.184592
0.823818 -0.129872 -0.498742
-0.158112 0.396825 -0.242568
-0.448973 -0.430331 -0.697125
-0.304803 0.210776 -0.466256
-0.655327 -0.464206 -0.959121
0.756756 0.102029 -0.274733
-0.493022 -0.343985 -0.808917
-0.172482 -0.489499 0.0166908
-0.69908 0.246848 0.767179
-0.733885 0.344346 0.593618
0.141236 -0.742298 -0.53044
-0.747024 0.0409262 0.457762
-0.0778996 0.349488 -0.966275
-0.881237 -0.143693 0.530027
0.460408 0.358954 -0.387434
0.0513531 -0.290589 -0.937701
-0.644717 -0.601263 -0.264678
-0.804595 -0.687288 0.161511
-0.194208 -0.409328 -0.940284
-0.432984 0.188621 -0.463639
-0.807357 0.469921 0.790852
0.669558 -0.14785 0.0452546
0.838179 0.0910717 -0.717898
-0.795478 -0.728847 0.230621
0.162985 -0.462601 -0.935612
-0.508622 0.175474 -0.493528
-0.912092 -0.15879 -0.0489549
-0.145521 0.196808 0.0492793
-0.708855 0.269739 0.495165
-0.155145 -0.385244 0.127454
-0.839015 -0.0914834 0.548595
-0.909648 -0.132859 -0.326974
0.142388 0.404005 -0.774781
-0.678984 0.104222 0.0401582
-0.725697 0.633996 0.865677
0.135596 0.459939 -0.255241
-0.015111 -0.0845166 -0.934587
-0.109736 0.105073 0.837597
0.338028 0.354926 -0.814363
0.452918 0.0616994 0.165942
-0.579853 -0.635141 0.124954
-0.657785 0.116343 -0.497934
-0.661581 -0.571022 -0.13451
-0.38321 0.265256 -0.878455
-0.321776 -0.404463 0.127166
0.0642537 -0.568031 -0.984927
0.301021 0.413724 -0.548133
-0.824599 0.0715238 -0.344993
0.409827 -0.237235 0.23972
0.410471 -0.643108 -0.668778
0.205411 -0.0854839 -0.986582
-0.587232 0.36755 0.587462
-0.723232 -0.0346609 -0.893714
-0.12211 0.363434 -0.744879
-0.21001 0.221489 0.0068469
0.667005 -0.296003 0.0363669
0.152359 0.0396956 -0.929286
0.345182 -0.568659 -0.982641
-0.665319 -0.497255 0.560328
-0.602046 0.722615 0.709481
-0.526138 -0.12892 -0.734181
0.647159 0.251965 -0.353048
-0.594144 0.038202 0.565688
-0.212848 -0.597822 -0.24142
-0.606371 0.457396 0.764408
0.271829 -0.746553 -0.349398
-0.543576 0.162526 0.0691399
0.423063 -0.165341 0.237246
-0.858337 -0.153965 -0.441235
0.860067 -0.336318 -0.794779
0.191092 -0.735471 -0.57499
0.040956 0.176137 0.107918
0.808932 -0.203604 -0.379946
-0.782562 0.114879 -0.132543
-0.672741 -0.497599 -0.485828
0.801597 -0.274928 -0.38878
0.428411 -0.447491 0.115191
-0.776208 0.0229904 0.0667949
-0.214355 -0.596968 -0.833025
-0.111082 0.2248 -0.93427
-0.499856 0.12906 0.13319
-0.171837 0.438629 -0.488164
0.396281 -0.413033 0.172175
-0.921936 -0.0747577 -0.283126
0.471424 0.364903 -0.568888
-0.575054 0.379073 0.661036
-0.586334 -0.548813 0.402173
-0.651373 0.0840123 0.103599
-0.815819 -0.140394 -0.499668
0.446812 0.337773 -0.261603
-0.130048 -0.138592 -0.937243
-0.901486 -0.258668 -0.372182
0.408397 -0.60604 -0.117419
-0.783473 -0.5058 -0.158959
0.481323 -0.521288 -0.942886
0.0377438 -0.0259673 -0.93314
0.157876 -0.700236 -0.702816
-0.912887 -0.402345 0.367665
0.42951 -0.271693 -0.994616
-0.934888 -0.156415 -0.114288
-0.829425 -0.210714 -0.493018
-0.373018 -0.38037 -0.984183
-0.138894 -0.532325 -0.95781
0.163245 -0.608703 -0.850767
0.532706 0.16745 -0.851616
-0.78049 0.0872953 -0.401095
-0.888077 -0.330801 -0.327799
0.535785 0.20114 -0.0471286
-0.650268 0.554107 0.572542
-0.543088 -0.580019 0.169133
-0.699365 0.592359 0.593359
-0.106319 -0.656333 -0.283806
-0.857628 -0.40959 -0.0750833
0.420675 0.121878 0.142255
-0.54113 -0.266551 0.606945
-0.503422 -0.18065 -0.789403
-0.740302 0.262153 0.612113
-0.750932 0.0555455 0.304424
-0.380109 0.169615 -0.570533
0.526881 -0.365343 0.139577
-0.471602 -0.280996 0.581078
0.114204 -0.747717 -0.467049
0.0531977 -0.749791 -0.335475
-0.670096 -0.522202 -0.0106549
-0.59921 -0.58049 -0.898137
-0.237325 0.344096 -0.441245
-0.493474 0.0996712 -0.605052
-0.10626 -0.599465 -0.217911
0.12427 0.482647 -0.397469
0.41193 -0.548899 -0.0603267
0.915887 -0.299603 -0.769655
-0.173294 -0.0158399 0.58136
-0.458806 -0.360685 0.490386
0.175428 0.1446 0.145355
-0.769426 0.0527904 0.140705
0.634795 -0.458115 -0.751214
0.809136 -0.0859291 -0.342486
0.614643 0.108853 -0.797321
0.632348 -0.499231 -0.688418
-0.208219 -0.662482 -0.890105
-0.806711 -0.366441 0.59016
-0.196843 0.291678 -0.636213
0.411133 -0.330634 -0.99449
-0.570165 -0.0835424 0.594018
-0.320042 0.15065 -0.608242
0.653043 -0.437406 -0.0949417
0.717625 -0.179264 -0.94829
0.216332 0.176008 -0.93679
-0.434606 0.20829 0.0259157
0.310732 0.248216 0.0336194
0.62717 0.25502 -0.428054
-0.451997 -0.486863 0.246585
0.0677265 -0.0932944 -0.935118
0.355836 0.0313174 -0.996469
-0.207322 -0.349517 0.166841
-0.631248 0.368806 0.528087
0.137538 -0.494428 0.116782
-0.087251 -0.0709556 -0.933899
0.347 0.2828 -0.9767
-0.802338 -0.626629 0.0270745
-0.958953 -0.161985 0.286645
-0.827842 0.0866992 -0.180906
0.757181 -0.376952 -0.45531
-0.753303 0.307446 0.538306
-0.952987 -0.579816 0.21623
-0.860219 -0.516378 0.487558
0.493396 0.35271 -0.505557
0.673326 -0.219782 0.0378292
-0.0257189 0.234115 0.749453
-0.693222 -0.690068 0.332962
0.414416 0.312728 -0.197542
-0.350717 -0.561259 -0.844975
0.503572 -0.0706015 0.189005
-0.113088 -0.526682 -0.698701
0.0157478 0.192138 0.788088
0.0825612 0.300306 0.890893
0.630754 0.161288 -0.725933
-0.0258845 -0.168228 0.227968
-0.616948 -0.521111 -0.862598
0.340756 0.406913 -0.335344
0.901579 -0.343812 -0.634855
0.545437 0.048457 -0.94609
0.0886268 -0.722034 -0.643006
0.733037 -0.256395 -0.926969
0.152057 -0.624262 -0.908618
0.656437 -0.0736743 0.0572191
-0.448095 -0.452627 -0.606473
0.637414 -0.369863 0.0281804
-0.501109 -0.54587 -0.80323
-0.897995 -0.013911 -0.246181
-0.474982 -0.00460692 0.371465
0.75341 -0.283717 -0.134522
-0.616549 0.196245 -0.145773
-0.575789 0.0338612 0.495903
-0.773295 0.130009 0.598438
-0.173623 -0.590514 -0.981787
-0.443047 -0.305432 0.436588
-0.377156 0.223911 -0.0140651
-0.474213 -0.0369122 0.668722
0.75998 -0.0543331 -0.113651
-0.119265 0.0655931 0.907851
0.410239 0.0201004 0.209548
0.427632 0.386856 -0.51569
0.530436 0.23856 -0.10586
-0.311452 0.113975 0.697833
-0.501305 0.070076 -0.806817
0.705865 -0.0996403 -0.956401
-0.572967 -0.173915 -0.826544
0.609809 0.111259 0.0166994
-0.756711 -0.507532 -0.0917586
-0.496441 0.126613 -0.547995
0.684218 -0.0270313 0.00778133
0.8032 -0.236553 -0.319972
-0.497244 -0.246768 -0.984035
-0.0670002 0.249206 0.82102
-0.0619449 0.386653 -0.777513
-0.608005 0.161797 0.660175
0.498867 0.154366 0.0664788
-0.24852 -0.501753 -0.00636928
-0.289336 0.0253229 -0.950945
-0.248633 -0.5875 -0.335701
-0.369382 -0.217638 0.307232
-0.77914 0.140498 -0.202384
0.274071 -0.421331 -0.935744
-0.945646 -0.27584 -0.217033
-0.733797 -0.645743 0.430713
-0.883705 -0.0237603 -0.0965019
-0.190199 -0.531049 -0.0476155
-0.215015 0.197678 -0.763062
-0.750621 0.0695498 0.0218345
0.769329 -0.343353 -0.519103
-0.643842 0.299044 0.500083
-0.626777 0.064083 -0.879509
-0.533318 -0.509193 0.501248
-0.138909 0.233864 0.00622835
0.543418 -0.0249322 0.148801
0.820681 -0.0676234 -0.511799
0.154567 -0.736488 -0.240899
-0.836279 -0.577523 0.452105
0.177525 0.274477 -0.989489
0.0818696 0.190486 -0.930356
0.208581 -0.706288 -0.756192
-0.619613 -0.149387 0.605403
-0.912672 -0.509192 0.0424294
0.317739 0.359775 -0.197068
0.891403 -0.0843065 -0.512199
-0.577665 -0.620818 -0.268656
-0.137816 0.20791 0.822134
0.0252225 0.103926 0.148254
-0.339624 0.0204963 0.791268
0.386732 -0.0991336 0.248175
-0.467829 -0.358946 -0.727561
-0.448095 -0.509964 0.0151884
0.582416 -0.240376 0.13548
0.699608 -0.10115 -0.00180053
0.232774 -0.748924 -0.411081
-0.11928 0.348561 -0.816718
-0.75497 0.531517 0.885627
0.276776 -0.557206 -0.083202
0.456396 -0.678829 -0.405308
0.275359 0.378631 -0.784633
-0.27249 -0.378392 0.162008
-0.562134 -0.353607 -0.847137
-0.834191 -0.406364 -0.399021
-0.88985 -0.00953619 -0.316265
-0.243048 -0.526581 -0.803973
0.275763 -0.665261 -0.173157
-0.349206 0.256395 -0.132776
0.767974 -0.000828999 -0.167297
-0.793855 -0.541759 0.511283
0.238235 -0.3344 0.243662
-0.342773 0.212612 -0.817495
-0.218039 0.179487 0.0773625
-0.632797 0.741603 0.807818
0.558283 -0.48217 -0.0290883
-0.272788 0.203373 0.0503598
-0.452282 -0.481546 -0.9767
-0.0483648 0.276629 -0.0326061
0.560966 0.252201 -0.764724
-0.227348 0.376972 -0.366
0.691083 -0.460529 -0.206556
0.117032 -0.633245 -0.974676
0.525757 -0.581185 -0.588044
-0.666604 0.204047 -0.298012
-0.424055 -0.326594 0.365365
0.174814 -0.32077 0.246989
-0.866224 -0.677848 0.198184
-0.417361 -0.535131 -0.508044
-0.257751 0.214293 -0.511211
0.337641 -0.629082 -0.166748
0.26671 0.446844 -0.428648
-0.602405 -0.604789 -0.340286
-0.40582 -0.603363 -0.177528
-0.735625 -0.253292 -0.580508
-0.154094 0.0326881 0.874472
0.538962 -0.438893 0.0471345
-0.763156 -0.597146 0.477972
0.0723497 0.384181 -0.826717
0.0412419 0.337353 -0.923112
0.0935963 -0.758099 -0.393484
0.446847 0.207267 -0.922634
-0.77918 0.442833 0.825497
0.254004 0.261071 -0.0218837
0.781525 -0.249618 -0.193415
0.0473851 -0.496482 -0.931673
-0.532985 -0.141732 -0.675171
-0.610531 -0.0424297 -0.629855
-0.286484 0.158853 0.105253
-0.138748 -0.46347 -0.93
-0.0755196 0.270803 -0.988609
-0.438862 -0.0966902 0.686104
-0.0241734 -0.397733 0.155543
-0.64594 -0.468172 -0.896502
0.00952958 0.424629 -0.73487
0.803677 -0.0342482 -0.397827
-0.198243 0.0929326 0.587396
0.606657 0.0599474 0.0595182
-0.412559 0.0116553 -0.985012
-0.439224 -0.491573 0.160362
0.00139742 -0.544716 -0.00470639
-0.296549 0.0660831 0.819048
-0.411323 0.253503 -0.332161
-0.616233 -0.703417 0.126661
0.874365 -0.106236 -0.86237
-0.615094 0.0806806 0.156538
-0.662965 -0.158091 -0.63104
0.427811 0.0600262 -0.987229
0.262708 0.0923701 -0.9364
0.371072 -0.672067 -0.717844
0.57928 -0.560211 -0.204114
-0.737509 0.171846 -0.328596
-0.739017 -0.606084 0.00905449
-0.0469234 -0.711347 -0.272351
-0.95537 -0.551103 0.0914085
0.282761 -0.708233 -0.228383
-0.578653 0.160048 0.594649
0.799068 -0.132596 -0.229371
-0.769689 -0.189747 -0.546089
-0.928893 -0.0697557 0.151434
-0.615492 -0.567521 -0.960193
0.958416 -0.248893 -0.746765
-0.627787 -0.569 -0.403816
-0.536702 0.0470026 0.342005
0.599097 -0.482897 -0.0968838
-0.632973 0.206795 0.717149
-0.621534 0.176804 0.474143
-0.516602 -0.503993 -0.9767
-0.2764 0.150358 -0.927344
-0.0140181 0.17915 0.675732
-0.670131 -0.701505 0.0684361
-0.656554 -0.353525 0.611176
-0.300934 0.0991026 -0.93365
0.796827 -0.0126846 -0.547082
-0.533608 -0.626523 -0.896456
-0.136266 0.116454 0.615992
0.655968 0.0458158 0.0116683
0.137519 -0.746522 -0.314747
-0.374932 0.0664661 0.691507
-0.298085 0.232236 -0.00450784
0.00106167 0.491836 -0.41397
-0.952481 -0.287672 0.458104
0.710471 0.0690064 -0.877301
-0.470796 0.0272614 0.308007
-0.0993889 -0.316508 -0.937642
-0.428484 0.148104 0.136178
-0.402839 0.251499 -0.0837413
0.482113 0.082301 -0.939957
0.485919 0.34473 -0.700849
-0.863524 -0.641574 0.0570639
-0.265301 -0.585 -0.26479
-0.498653 -0.601034 -0.842917
-0.644795 0.39982 0.796011
-0.0449151 0.085434 0.1625
0.176152 0.327994 -0.870619
0.872631 0.0561625 -0.765611
-0.603636 0.0979469 0.615173
0.948102 -0.255708 -0.552812
0.339816 -0.192062 -0.990892
0.697339 0.0844653 -0.0946717
0.619986 -0.380792 -0.863364
-0.601145 -0.58524 0.30537
-0.405111 -0.0641447 -0.987961
-0.548086 -0.296293 -0.981403
-0.621895 -0.483303 -0.526498
0.311456 -0.143864 0.268818
-0.680857 0.153412 -0.0660562
-0.597567 0.112088 0.464358
-0.668505 -0.00979695 -0.595446
0.194234 0.428113 -0.669421
-0.214302 0.186704 -0.697104
0.307595 -0.473852 -0.989124
-0.831484 -0.477235 0.535792
-0.653084 -0.404784 -0.951977
-0.127253 -0.0297585 0.639487
0.685822 -0.391976 -0.755477
-0.64217 0.206629 -0.223063
-0.203134 0.266003 -0.981858
-0.00777283 -0.61831 -0.794187
-0.700735 0.346664 0.507151
0.45858 -0.615919 -0.215131
0.26475 0.340899 -0.843957
0.0304049 0.495265 -0.311513
0.199382 -0.146074 -0.986889
-0.202843 0.149568 -0.924115
-0.381869 -0.492042 0.0345568
-0.996669 -0.314648 0.177502
-0.389221 -0.61112 -0.286891
0.436396 -0.505162 0.00190323
0.109411 0.354869 0.828339
0.806058 -0.154877 -0.307667
-0.486504 -0.179592 -0.704907
-0.577845 -0.45465 -0.567785
-0.607633 -0.637283 0.258345
-0.224395 0.254161 -0.568489
0.524399 -0.604336 -0.221513
0.704519 0.106019 -0.810349
-0.00543811 -0.0248266 0.214093
-0.0102089 0.286584 0.948016
-0.271178 0.0792557 0.571756
0.52234 0.274845 -0.16615
-0.156324 0.169673 0.87587
-0.524731 -0.337851 0.596352
-0.250504 -0.0226057 0.688415
-0.838116 -0.0554794 0.431014
-0.931124 -0.330008 -0.169836
0.606872 -0.556184 -0.333786
0.812959 -0.168336 -0.444296
0.365951 -0.438415 -0.993756
-0.519874 0.249816 -0.170153
-0.690623 -0.605764 0.473772
0.655586 -0.149941 -0.978043
0.679649 0.149392 -0.667482
-0.120983 -0.52289 -0.0186057
0.274288 -0.387169 0.211322
-0.685838 0.541567 0.869776
-0.923408 -0.0883352 0.279696
-0.402621 0.178813 0.0790671
-0.00995753 -0.510976 -0.930456
-0.197272 0.374873 -0.968537
0.116472 0.33356 -0.924082
0.281009 0.430604 -0.289034
-0.592022 -0.515852 0.538325
-0.556409 -0.570056 0.245567
0.28279 -0.0033313 0.248759
-0.656963 -0.691855 0.260961
0.205693 0.443221 -0.265259
-0.580898 0.748733 0.778316
-0.206893 0.0220067 0.73671
0.383612 0.356867 -0.23284
-0.719875 0.187372 0.484008
-0.287748 -0.558425 -0.127948
-0.580056 0.1816 0.00165698
0.0417064 0.304649 -0.983881
-0.266481 -0.529663 -0.0678815
0.0812089 -0.649277 -0.892663
0.962396 -0.0232041 -0.67958
-0.637074 0.0294712 0.620315
-0.593313 -0.186057 -0.658689
0.23857 0.242709 0.0595797
0.52759 0.32505 -0.366362
-0.86715 -0.677774 0.125073
0.510644 -0.38684 -0.962796
0.676701 -0.498034 -0.448179
0.662392 0.048394 -0.922011
-0.148774 -0.493324 -0.657518
-0.859394 -0.110043 0.471043
0.0402025 0.274612 0.762257
0.497069 0.190857 0.00384414
0.878673 0.0699068 -0.673052
-0.46996 -0.561366 -0.977975
-0.581912 0.69323 0.825669
0.351521 -0.577171 -0.918813
0.365041 0.413266 -0.529482
0.825948 -0.351305 -0.617309
-0.141401 -0.314505 0.160765
0.232253 0.114418 0.175943
0.687421 -0.476008 -0.516063
-0.577037 0.235559 0.57555
0.712387 0.125026 -0.612132
-0.628684 0.337969 0.763111
-0.615058 0.136762 0.054737
-0.792505 -0.514848 -0.286527
-0.0586181 -0.639234 -0.984387
0.78134 0.0236009 -0.372402
0.44436 0.290916 -0.827481
-0.687376 0.69444 0.8905
-0.529039 -0.418795 -0.602229
-0.670737 0.13138 0.452186
-0.131269 -0.703012 -0.88797
0.512641 0.316766 -0.589564
-0.137153 0.263986 -0.98324
0.0192979 0.480934 -0.541468
-0.712581 0.0766169 0.245569
-0.912646 -0.0419384 0.233573
-0.681047 -0.643005 0.029542
-0.781481 0.000985957 0.499561
0.410947 0.385649 -0.590234
-0.310443 0.12842 -0.677442
0.116792 -0.112715 0.25488
-0.582239 0.0471477 0.430456
-0.401289 -0.177278 0.516177
-0.158899 0.0615921 0.795413
0.791082 -0.277883 -0.259703
-0.45031 -0.408386 0.355472
0.224614 -0.580694 -0.123356
-0.0168487 0.331334 -0.969872
0.290961 -0.726151 -0.290042
0.542662 -0.0112208 -0.981964
-0.727186 0.47494 0.85611
0.746311 -0.170051 -0.0807086
-0.0778581 -0.210944 0.210319
-0.841465 -0.456286 -0.29228
-0.650393 -0.231125 -0.636249
-0.821537 -0.284048 -0.480984
-0.689208 -0.732662 0.127716
-0.210845 -0.540827 -0.558476
-0.935991 -0.280921 -0.117574
-0.491856 -0.531042 0.120317
0.694006 -0.419379 -0.14771
0.057525 -0.714336 -0.526412
-0.584285 0.171192 0.527081
-0.630135 0.0759206 -0.545018
0.810224 -0.0900165 -0.438536
-0.606691 -0.074574 -0.982371
0.677211 -0.301904 -0.932687
0.68817 -0.334658 -0.0191489
0.607615 0.263179 -0.499097
-0.667366 -0.209865 0.614802
-0.486974 0.0114652 -0.98439
-0.463578 -0.0211424 0.449918
-0.488654 0.0660546 -0.736574
-0.572533 0.301745 0.629195
-0.4336 -0.241558 0.47842
-0.289713 0.119597 0.167065
-0.0324044 0.35256 -0.90569
0.678366 -0.44488 -0.697948
-0.590848 -0.419927 -0.976218
-0.155655 0.197424 0.750326
-0.638842 0.273341 0.749812
-0.119647 -0.392027 -0.934709
-0.851312 -0.414457 0.559543
-0.424742 0.22663 -0.396564
0.413743 -0.672633 -0.596524
-0.176201 0.266846 -0.0449252
-0.920036 -0.0880112 -0.140513
0.740494 0.0940227 -0.55965
-0.673498 -0.0848136 -0.611937
-0.0667201 0.0752528 0.610577
-0.251561 0.110273 0.83382
-0.158748 -0.657292 -0.838072
-0.714984 -0.444153 0.584195
0.0676752 0.00851714 0.223527
0.78836 -0.0745243 -0.185097
-0.0641068 0.0140516 0.190675
-0.573208 0.0750428 0.222618
0.486174 0.108034 0.115414
0.33839 0.0395811 0.222833
-0.88889 -0.39984 -0.146924
-0.729548 0.112857 0.473302
0.459684 0.223227 -0.0504297
-0.927158 -0.44224 0.32361
0.569845 0.274623 -0.574469
-0.28152 -0.576744 -0.398953
0.914321 -0.306827 -0.574646
-0.456461 -0.399126 -0.978
-0.57355 -0.532237 0.330985
0.645046 0.225735 -0.548315
-0.71576 0.51486 0.709184
0.995195 -0.167496 -0.651246
-0.729267 0.470232 0.541911
0.0861976 -0.528647 0.051453
0.766014 -0.319372 -0.198976
0.80719 0.0868607 -0.787415
-0.180907 -0.555383 -0.372873
-0.934666 -0.346875 0.421985
-0.93916 -0.138649 -0.257852
-0.628478 -0.597915 0.444976
-0.77394 0.150287 -0.269433
-0.273188 0.273647 -0.342558
-0.712035 -0.724768 0.238758
-0.183618 0.00199351 0.672318
-0.208707 0.0346554 0.55411
-0.515318 0.103055 -0.982701
-0.445985 -0.501718 -0.554293
-0.893995 -0.0659064 0.33709
-0.673727 0.681703 0.826331
-0.728692 -0.369435 0.605484
-0.399966 -0.125284 -0.965385
-0.315877 -0.150247 -0.965325
0.283537 -0.598029 -0.138998
-0.990719 -0.246491 0.194791
-0.691479 0.177033 -0.186721
0.175135 0.358478 -0.158191
0.112789 -0.509821 -0.957009
-0.854822 -0.694347 0.257467
0.630662 -0.262435 0.0885613
0.575878 0.262732 -0.658897
-0.1753 0.456262 -0.37253
-0.033685 -0.68517 -0.550201
-0.556834 -0.586038 -0.389043
-0.207157 -0.501368 -0.763624
0.177638 -0.457251 0.163075
-0.585958 -0.255844 -0.651683
-0.664139 0.0759485 0.295407
-0.69578 -0.4429 -0.516834
-0.394884 -0.50802 -0.592422
0.321016 0.324747 -0.884831
0.692945 -0.485492 -0.269142
0.0164394 0.342391 -0.859898
-0.361341 -0.0540541 0.256079
-0.422936 -0.0276619 0.719441
-0.460825 -0.29671 -0.765477
0.179039 -0.257159 -0.941974
0.610044 -0.277729 -0.962006
0.412078 -0.206898 -0.984122
-0.7633 0.144083 0.538708
0.308501 -0.722046 -0.40841
-0.23452 -0.0394395 0.548709
-0.359439 -0.0529658 0.470678
0.372899 -0.512821 -0.00883305
0.231677 -0.736862 -0.527752
0.0803377 0.43003 -0.197548
-0.647137 -0.557074 0.51486
0.478541 0.150439 -0.892934
-0.041966 0.403809 -0.190564
0.330955 0.270803 -0.0990568
0.438799 0.280455 -0.8908
-0.97049 -0.517422 0.156059
0.594562 -0.573146 -0.409139
-0.0761508 0.106175 0.942823
0.305119 -0.0222413 -0.994777
-0.246861 0.247556 -0.05024
0.275819 0.0394442 -0.985854
0.208915 -0.541176 0.0485675
0.219943 0.0311827 -0.937754
0.0841655 0.2293 0.779381
0.768803 0.0723229 -0.845655
0.97875 -0.24127 -0.676439
-0.480529 -0.350499 -0.652723
-0.169064 0.31763 -0.212549
0.552608 0.314541 -0.515953
0.150268 -0.526047 0.0655197
0.553855 -0.328477 -0.956795
0.501488 -0.423401 0.111647
0.260693 0.281267 -0.085126
-0.522267 0.0522931 0.268692
-0.41926 -0.615262 -0.956147
-0.275378 0.0196152 0.523995
0.355671 -0.267168 -0.992967
-0.525351 -0.22345 -0.676779
0.178396 0.325387 -0.951131
-0.34883 -0.52781 -0.713419
-0.306882 -0.367359 -0.983418
0.720467 -0.443296 -0.32785
-0.277683 -0.556353 -0.602447
-0.529684 -0.293025 -0.660871
-0.199115 -0.477415 -0.961076
-0.426819 -0.58542 -0.848507
-0.0994165 0.169679 0.935983
0.156394 0.228021 0.0498731
-0.157366 -0.0331149 -0.931302
-0.404846 0.26201 -0.264144
0.640989 -0.0732914 -0.976133
-0.0851084 -0.667277 -0.816616
0.334004 -0.229073 0.262926
0.588702 -0.527177 -0.148077
0.698426 -0.469418 -0.392303
-0.666707 -0.580849 0.0166622
0.733174 0.0111644 -0.9114
0.352359 -0.371096 0.214911
-0.40769 0.2209 -0.981943
-0.865961 -0.610431 0.388529
0.0852981 0.0353903 -0.929962
0.0963821 -0.448296 -0.9313
-0.742277 -0.67688 0.0478669
-0.401336 -0.130019 0.448651
0.720333 0.165809 -0.388562
-0.98042 -0.200502 0.129719
0.0810133 0.354993 0.93995
0.919807 -0.0676287 -0.814768
-0.746933 -0.00484081 -0.510772
-0.213873 -0.507 -0.69415
0.37045 0.205181 0.0770527
-0.13021 -0.615227 -0.790805
-0.685094 -0.0594022 -0.839945
-0.64167 -0.17852 -0.977997
-0.439337 -0.225146 0.548742
-0.731223 -0.116315 -0.894047
-0.402948 -0.543588 -0.978002
-0.502662 -0.497702 0.0536983
-0.138635 0.366126 -0.961987
0.554533 -0.486424 -0.801119
0.432082 -0.4868 -0.991359
-0.322552 0.282218 -0.82956
-0.566639 -0.0499691 -0.790518
0.440809 0.132427 -0.960346
-0.7477 -0.7172 0.1077
-0.956123 -0.509208 0.230262
-0.33274 -0.109034 0.610858
0.842794 -0.375636 -0.668331
0.477432 -0.565305 -0.0947574
-0.80431 -0.712161 0.306284
0.70525 0.164906 -0.538194
-0.498308 -0.446591 0.405642
-0.913342 -0.582639 0.0523741
0.112497 0.306911 -0.978712
0.0996232 0.48715 -0.325913
-0.555232 -0.557436 0.100714
-0.0826469 0.18125 0.0779658
-0.546055 -0.564622 -0.975996
0.706924 -0.447792 -0.578414
0.43653 -0.0826235 -0.982793
-0.575958 -0.626684 0.19808
-0.274549 -0.523268 -0.733878
0.439127 0.205199 0.0287328
-0.719267 -0.564278 -0.284215
-0.14614 -0.170619 0.203999
-0.509214 0.201565 0.017113
0.485268 -0.0501743 -0.9974
-0.760233 0.0716697 0.636177
0.466846 0.348994 -0.326075
0.212591 -0.214767 -0.986782
0.202897 0.219307 -0.986315
-0.135749 -0.198529 -0.940972
-0.684025 0.189192 -0.370402
-0.74206 -0.725105 0.293436
-0.66014 0.698835 0.687678
0.389692 0.377155 -0.65985
-0.824369 -0.0469734 0.495831
0.378503 -0.383454 -0.992021
0.323637 -0.396659 -0.948764
0.227602 0.44818 -0.338159
-0.285781 0.17376 -0.789654
0.302585 0.206604 0.0959737
-0.233719 0.0453674 0.857688
-0.922251 -0.628416 0.101493
-0.0960394 0.223127 0.766744
0.14754 0.180193 -0.92946
-0.110135 0.486462 -0.354598
-0.981781 -0.376622 0.225103
0.0508572 0.324657 0.823328
0.193165 0.259025 0.00600194
-0.591543 -0.321902 0.610497
-0.228313 -0.46002 0.050083
-0.24233 0.326299 -0.986998
-0.839486 -0.408493 0.0122462
-0.0860779 -0.358521 0.155398
0.297228 0.309156 -0.956417
-0.814051 -0.485073 -0.222952
0.584768 0.278013 -0.37673
0.5307 -0.495242 -0.876511
0.0400244 0.259963 0.931968
-0.0743327 -0.62419 -0.55227
-0.981286 -0.37777 0.155095
-0.0259938 -0.293362 -0.9377
-0.867581 -0.016901 0.29671
-0.655481 0.47667 0.82238
-0.0142244 -0.668931 -0.83594
-0.365074 -0.335954 0.251149
0.683186 0.0969572 -0.722087
0.684349 -0.0208426 -0.951911
0.0330613 0.222622 0.70854
0.796571 0.00315348 -0.882988
-0.580079 -0.208389 0.610651
-0.153696 -0.269142 -0.944363
-0.750066 -0.687644 0.369773
-0.432649 0.137363 -0.90783
0.0672496 -0.557592 -0.00932205
-0.0808733 -0.501765 -0.929476
0.862811 -0.0219154 -0.541406
-0.856915 -0.0365944 -0.407766
0.99195 -0.153928 -0.58026
-0.755064 0.392884 0.702828
-0.395244 0.129048 -0.835372
-0.168974 0.100929 -0.927372
-0.312736 -0.531398 -0.789881
0.480618 -0.234295 -0.992047
0.612826 0.0112717 -0.958862
0.234706 0.309101 -0.975133
0.733817 -0.411788 -0.518567
0.00172708 -0.718268 -0.508134
0.271847 -0.523061 0.067058
0.679077 -0.503909 -0.336388
-0.3879 -0.139981 0.646309
-0.944374 -0.408022 0.0997054
0.295121 0.437533 -0.483565
-0.318502 -0.574075 -0.296725
0.470965 -0.600788 -0.151388
-0.278845 -0.00447808 0.816192
0.194715 -0.57648 -0.0569045
-0.818293 0.0929873 -0.25451
-0.905414 -0.38192 -0.213228
-0.693969 -0.578725 -0.20969
-0.510868 0.134263 -0.943483
-0.701906 -0.181076 -0.957077
-0.109454 -0.595746 -0.981851
0.474221 -0.158734 -0.979386
0.754396 -0.35628 -0.645907
-0.577735 0.115 0.109443
-0.915004 -0.54952 0.355643
-0.560518 0.0878904 -0.560051
-0.148866 -0.589723 -0.263084
0.657573 0.0994235 -0.0358115
-0.442131 0.262622 -0.147376
-0.461181 -0.552553 -0.0491741
0.291548 -0.584994 -0.97512
-0.587285 -0.145341 -0.981745
0.00703192 -0.669483 -0.973957
0.233526 -0.488074 -0.975194
-0.885838 -0.0905947 0.402888
-0.600458 0.522655 0.768572
-0.206229 0.333096 -0.570903
-0.237225 0.314122 -0.322629
0.0563349 -0.0616756 0.238208
0.35322 0.306982 -0.168231
-0.604459 -0.286742 -0.965125
-0.34214 0.00874429 0.499637
0.0109887 0.0433102 0.190934
0.83772 0.0363901 -0.830818
-0.346153 -0.547574 -0.559224
-0.00895304 -0.753402 -0.333883
-0.547464 -0.350394 -0.627883
0.387835 0.321237 -0.852554
0.802759 -0.266163 -0.532532
0.137337 0.0358118 0.227922
-0.745728 0.572668 0.827382
-0.27357 0.129933 0.766406
0.0762284 0.418866 -0.757355
-0.347741 -0.113358 0.264219
-0.626231 -0.266649 0.614896
0.539812 -0.514481 -0.0897182
-0.287975 -0.0627979 0.649153
-0.100516 0.110761 0.762306
0.526994 -0.554206 -0.736249
0.342412 0.399078 -0.258142
-0.590849 0.305009 0.550541
0.649947 -0.531792 -0.387317
-0.0480786 0.315701 -0.159532
-0.4675 -0.128121 -0.982861
-0.961807 -0.587639 0.15011
-0.329392 0.0155051 0.234012
0.69569 0.0290063 -0.0438975
-0.164382 -0.440228 0.0804521
-0.00820817 0.202359 0.921452
0.364724 -0.0524934 -0.986337
-0.734592 -0.470066 -0.464587
-0.481494 -0.321448 -0.98341
0.658388 0.199649 -0.483246
0.293707 -0.722854 -0.646713
-0.211481 -0.137304 0.225003
-0.35208 -0.588661 -0.957557
0.921531 -0.145522 -0.824805
-0.310222 -0.234385 -0.965271
0.202826 -0.00819178 0.248633
-0.653902 0.720662 0.941571
0.281056 -0.642848 -0.831384
0.19463 0.461779 -0.404508
-0.176834 0.360326 -0.633602
-0.35151 -0.297748 -0.971819
-0.529565 0.255698 -0.245354
-0.802176 -0.669175 0.0895436
-0.492993 -0.622773 -0.958356
0.333009 -0.117467 -0.990227
-0.607094 0.0634834 0.358003
-0.90382 -0.633589 0.25105
-0.227218 -0.560505 -0.418324
-0.760214 -0.523806 -0.338811
-0.25378 -0.0920698 0.61598
-0.158509 0.100302 0.142106
-0.898043 -0.0916792 -0.0616048
-0.219812 0.22014 -0.635656
-0.775627 -0.485822 -0.0230046
-0.781912 -0.431992 0.577625
0.237665 0.18078 0.118051
-0.567088 -0.512777 0.0468185
0.721543 0.11319 -0.20971
0.673432 0.169805 -0.212127
-0.607529 -0.453714 -0.831957
-0.809773 -0.0184697 -0.468704
0.399673 -0.482594 0.0581549
0.0679579 -0.662622 -0.777051
-0.0863399 -0.130134 0.211859
-0.060448 -0.154712 -0.93645
-0.790845 0.120565 -0.327014
-0.697677 0.574367 0.665415
0.946515 -0.0427004 -0.74853
-0.475612 -0.596827 -0.183998
0.570081 -0.383897 0.0831256
-0.0540643 0.225981 0.952468
0.325738 0.258394 -0.0345052
-0.120559 0.159278 -0.925833
-0.887826 -0.156917 0.447653
-0.145339 -0.609829 -0.335712
-0.334954 0.266789 -0.984393
-0.427642 0.0221849 0.675243
-0.915164 -0.201139 -0.313738
-0.0551697 -0.561775 -0.963287
-0.324152 0.245667 -0.069559
-0.986489 -0.306986 0.252841
0.460387 0.35326 -0.640239
0.189187 0.107698 -0.926434
-0.745192 0.123125 -0.0793753
-0.0616282 0.145625 0.884535
-0.51331 -0.470073 0.546842
0.0770727 0.313346 -0.135547
0.837916 -0.22716 -0.883669
-0.597569 0.219897 -0.274125
-0.577661 0.147854 -0.518786
-0.197398 -0.00725585 0.826546
0.401063 -0.599313 -0.796247
0.135618 -0.693767 -0.180311
0.0980987 0.370688 -0.160113
-0.892718 -0.0139967 0.16591
-0.269736 -0.31752 0.197331
-0.267396 0.254872 -0.982566
0.740917 -0.328322 -0.892844
-0.359864 0.319758 -0.899773
-0.163617 -0.0929915 -0.93563
-0.42076 -0.266032 -0.974648
-0.342538 -0.0991561 -0.987082
-0.23941 0.073492 -0.926072
-0.540584 0.0151461 -0.786278
0.656828 -0.389654 -0.809724
-0.472077 -0.14198 0.637352
0.903015 0.000222529 -0.794854
-0.564089 -0.614993 -0.95307
0.437871 -0.547871 -0.828192
0.466844 0.262091 -0.100196
-0.854342 0.0430013 -0.288604
-0.641953 0.607448 0.874972
0.203775 0.0577769 0.218297
-0.386324 0.0595398 0.223537
-0.450961 -0.377415 0.415411
0.0907318 -0.690127 -0.710367
0.953067 -0.187397 -0.782533
-0.0727035 0.481617 -0.296106
-0.869717 0.0423571 -0.21811
0.574236 0.285913 -0.309787
-0.896249 -0.431611 0.512384
-0.599856 0.613947 0.686515
-0.711505 0.508679 0.631945
-0.619323 -0.58816 -0.188024
0.341409 -0.619269 -0.833692
-0.258334 0.308265 -0.811247
-0.621318 -0.653979 0.065387
0.702107 0.155618 -0.453995
0.6249 -0.519747 -0.51968
-0.37883 -0.592783 -0.897513
0.288941 0.297205 -0.148923
-0.487045 -0.611984 -0.366856
-0.422996 -0.43478 0.287575
-0.658484 -0.727174 0.186287
-0.772249 -0.299739 0.60863
-0.760946 0.0783301 0.532047
-0.644046 0.621002 0.607369
-0.739702 -0.0622888 -0.961856
0.865699 -0.279646 -0.84113
-0.0191061 0.047828 0.65678
-0.028614 -0.718755 -0.448949
-0.377038 -0.389948 0.147694
-0.0927055 0.44278 -0.230141
-0.376699 -0.597741 -0.348171
-0.145124 0.116259 0.913775
-0.750333 0.458854 0.741381
0.615791 0.247802 -0.607931
-0.401026 -0.536378 -0.0260566
0.589214 -0.572037 -0.265706
0.600535 -0.537631 -0.608057
-0.612189 -0.22827 -0.886309
0.472435 -0.621646 -0.275851
-0.576609 -0.545612 -0.0330201
0.460022 0.296825 -0.151168
-0.273302 0.269064 -0.12572
-0.00579017 0.210534 0.995365
-0.247877 -0.250561 -0.984886
-0.861689 -0.434377 -0.219893
-0.0132164 0.474165 -0.601869
0.763127 -0.21029 -0.132466
0.639455 -0.521552 -0.21911
0.371835 -0.701616 -0.281827
-0.191398 0.287435 -0.154297
0.574218 -0.444949 -0.865427
-0.128285 0.452519 -0.540821
0.788833 -0.311168 -0.324936
0.110078 -0.243797 -0.938993
-0.571835 -0.282509 -0.902728
0.127419 0.228961 -0.983586
-0.241733 0.124828 -0.703824
-0.187888 0.42663 -0.319252
0.413251 -0.554043 -0.971536
-0.77021 0.058791 0.217796
-0.349436 -0.579569 -0.154175
0.0152284 -0.586926 -0.146369
0.473682 -0.199426 0.21231
0.347608 -0.673062 -0.219836
0.978148 -0.086282 -0.576369
0.0588785 0.487413 -0.387713
0.334597 -0.507001 0.0618805
0.665789 -0.229615 -0.959684
-0.200422 0.26847 -0.775603
-0.729911 -0.054183 -0.562834
-0.344003 -0.0147353 -0.986235
-0.787347 -0.433502 -0.429447
-0.71307 0.112351 -0.0186123
-0.0535277 -0.585156 -0.109384
-0.71938 0.061272 0.088151
-0.975826 -0.171991 0.204233
-0.280155 -0.54631 -0.85414
