4.62531 5.53179 -5.32169
4.03275 6.59695 -18.9999
-4.66325 2.00871 -5.68377
-4.7624 -9.99963 4.17157
1.09657 9.95033 -5.96209
5.55697 5.91033 -13.6371
11.7994 5.73239 -5.73975
-2.32271 5.6697 17.2215
6.48802 -9.99947 9.92651
-8.19955 -1.18832 8.04444
-6.37627 6.12116 -9.9994
-5.48869 8.2735 9.99945
2.57894 5.0098 5.94666
-4.19692 7.97086 0.163254
7.71885 3.73899 -11.8548
11.7994 1.9723 -7.86815
-8.13403 -9.99942 -5.42136
-2.70357 6.4562 -3.97096
-5.06544 -1.3701 17.1584
2.61145 -4.93906 19
11.7995 -6.44885 -4.43458
-6.40281 0.943966 -5.93339
5.83139 6.35393 -4.4393
1.7283 -9.88492 -9.99952
6.24651 9.96201 -4.04066
-8.1993 -6.57337 9.94473
4.70452 -9.99957 -5.31571
11.7996 6.0651 -0.513353
-8.19942 -3.47005 5.00005
1.88158 -6.8089 -6.01846
-0.36082 6.67435 -17.1554
-8.1995 7.81936 2.02357
7.59699 4.10384 -10.0004
8.38063 -9.99934 -9.9446
7.12713 2.64261 5.38547
11.7995 6.35919 4.85991
1.54698 1.03219 19
-4.7082 -8.23562 9.99949
9.94654 6.06084 9.99945
7.23908 4.40339 18.9442
-2.37863 9.99925 4.45417
-4.03158 -8.03201 1.43364
4.26983 -6.55552 15.4293
8.39226 2.36587 15.3564
4.90888 -3.18849 5.14228
11.7995 0.0373442 6.08363
5.59598 5.82981 -18.9998
3.86482 -6.75947 -10
3.06786 -6.18509 5.86694
-8.1995 3.26087 -9.91513
7.65072 -3.84631 -17.0612
-8.19954 -7.8745 -2.30062
9.85029 -9.99956 -1.05476
2.14027 6.9599 18.999
7.7911 3.53138 -18.9999
-1.29349 8.23382 5.14493
6.46387 -5.21769 -17.1387
-6.46406 -7.55293 9.99937
0.660426 2.87225 19.0001
-8.19917 9.93445 -6.3681
11.7994 7.78415 -5.96875
2.64099 0.715265 -5.98248
1.26121 -7.85673 5.97247
-8.19953 -0.934122 -6.02347
11.7061 -9.89863 -9.99871
-3.54234 -7.97779 -9.9995
3.94795 -6.65962 -15.3418
11.7995 -1.25839 9.92695
-3.14755 8.12118 -3.39126
-8.19951 5.93015 -7.83775
-0.281316 -6.69416 -14.9179
9.85442 -2.1594 -5.60727
7.66738 5.78998 -1.63491
7.63101 5.74927 1.71772
11.7995 -7.85763 3.80092
11.6305 9.99957 9.91487
-4.21989 -9.99963 -0.910463
2.73831 6.93415 -11.8519
7.181 -4.47493 13.6526
-6.49091 9.99954 -4.27071
4.5718 9.95219 -9.99943
-8.19954 -8.10077 5.64268
6.87032 5.02812 -3.28984
-4.31802 3.4333 11.9386
-4.96846 -1.65031 18.9992
4.97266 6.23665 17.148
-4.2389 -9.99944 0.705747
-8.19954 -9.94823 2.54831
-6.46124 4.32863 4.15703
-8.19951 -2.56352 -7.91649
11.7995 6.92194 2.97797
-8.19997 5.99141 1.06205
-8.19956 -8.50841 3.6957
-3.52194 2.52572 5.44605
-2.2958 -5.6926 -15.5063
11.7994 -6.03391 -0.738262
0.51121 -9.99947 9.93737
-1.16387 -6.34824 -18.9344
8.59346 -1.44653 -18.9998
3.94616 -2.38095 -19.0001
-4.77429 -2.41391 15.4044
-2.16139 3.81956 4.62892
-0.00768789 -9.99957 -7.8192
3.99889 6.61571 18.9999
4.06479 6.62858 11.8694
9.95573 -3.86993 -4.60248
-8.19949 -5.71964 8.32099
11.7998 0.906362 -9.94339
-4.64264 2.74478 17.1031
-4.42995 -3.19479 18.9432
-6.53696 6.69528 9.99946
-4.17507 3.65482 18.9416
-6.08763 -9.99963 -2.16196
11.7996 -4.63352 -3.96499
9.55365 -5.61106 2.18619
-6.04094 4.26085 -9.99956
11.7995 0.0209861 -7.93586
-5.0199 1.61545 11.9448
-1.96237 9.93948 -4.6697
-3.39342 -4.68235 18.9426
4.18922 7.8813 -5.50163
-0.546222 9.99899 -5.62037
9.98538 9.99955 -4.55619
-4.4112 6.18912 -9.99953
-1.66031 7.97587 -4.90581
-4.86056 0.935219 5.93681
10.1134 -2.31436 9.9996
0.749938 6.93665 -11.9068
6.3366 8.28662 3.95622
-3.812 -9.99905 2.36239
0.567291 4.62691 5.90432
6.25004 -8.19115 4.04755
6.28556 -6.3179 4.00369
-8.10917 9.99968 -9.8885
1.79541 -7.00795 18.9479
1.75845 7.00565 -13.6418
8.17146 -9.9997 -4.51196
-4.11053 9.99949 -5.64404
11.7994 -8.06963 -7.90686
-6.33848 2.82315 -5.30308
6.86697 4.85526 -18.9369
8.49096 1.95657 -18.9995
-4.4969 4.21985 4.26427
-8.19948 -3.55874 -9.91409
11.7995 -2.7195 7.71186
8.80211 0.479201 15.4032
-1.17416 5.87667 -5.20213
-4.93628 1.90905 15.3561
8.49614 -9.99957 -6.39161
-8.19949 7.77456 5.98199
-8.19953 8.07862 0.0127317
-8.19952 8.2029 3.86882
11.7631 2.68846 -9.99944
0.0950147 -0.80961 -19.0001
4.79628 -6.85209 5.20348
8.23614 -2.74813 13.7639
1.73995 9.9995 8.00819
-8.19944 8.34088 7.92695
-5.06474 -1.38141 13.6482
4.80462 8.18726 5.19712
1.86038 -7.01526 -15.3346
9.81229 -5.71813 -1.88634
1.73248 -7.0028 11.9003
8.06269 -3.1283 -18.9415
-3.99684 -5.88396 1.61533
5.85429 -5.70622 -15.3426
11.7998 5.96384 1.12991
-4.31316 -3.43852 17.1195
-3.40293 -5.26772 3.03292
9.33473 9.99963 2.85204
-1.20624 -6.32719 13.6404
9.96732 4.02378 -4.45838
-8.19971 5.49207 2.61435
-6.21671 9.9996 0.0669199
3.87388 1.46114 5.82395
-2.73532 2.27416 -18.9998
11.7995 -0.701591 8.00572
-1.57485 -9.99942 9.93304
-0.576316 -8.28938 9.99956
-1.31761 -8.19134 -9.99952
-0.264954 9.99961 -7.85476
0.710031 -4.81028 19
11.7995 -1.81097 -8.16589
0.726865 -3.8568 5.9343
10.2831 -0.115052 9.99965
-1.92541 -5.93358 18.9318
2.31896 6.94662 -18.9995
-8.14033 9.99929 -0.953539
2.55597 -1.19412 -5.96273
-0.832897 -4.93058 5.41093
-3.80807 -9.9994 -2.44477
-4.21537 3.60064 -15.3571
0.845103 -6.95557 13.6713
8.37467 4.78631 -3.63939
-2.96112 -5.15142 17.1036
9.8599 5.37227 -2.67919
1.68507 9.99965 -7.95808
-4.89705 1.89688 18.9998
8.55201 1.8872 -15.341
-2.75499 -5.25042 -18.9997
-8.13597 -4.73826 9.99955
4.51355 -0.756855 -5.98252
1.00862 9.94455 -9.99946
8.87511 0.898116 -10.0001
6.65293 -9.99966 3.66221
11.7373 -9.99932 -8.37618
-8.19955 -8.10038 -0.306141
-5.89228 5.37349 2.68028
-0.482635 -6.63101 -16.7958
11.7998 -4.3784 4.22121
0.273836 6.78907 18.9995
-3.64375 4.41619 17.108
8.33022 2.72565 -9.99986
-8.14877 1.4343 -9.9996
6.69968 -9.99966 -6.0438
9.80475 5.96756 -0.732471
-6.03974 -2.57005 5.41463
-5.89963 -5.29142 2.85747
-1.37846 0.668576 -19
-8.19948 -5.23568 -8.16379
7.37182 -4.24413 -15.2989
1.10247 -5.74883 5.96185
-1.65659 -6.08861 -13.7328
11.7994 -8.27943 9.94481
-3.6569 -9.99964 5.99611
6.37473 -5.30082 16.7671
8.0361 -3.21756 -13.6255
11.7476 8.31463 9.99926
-2.00861 -6.00231 -10.0002
11.686 -0.851727 -9.99948
11.7407 -1.6002 5.78007
-5.19177 -0.102497 -18.9442
5.4272 -5.96257 -4.7807
2.11701 1.34734 6.01629
8.38539 -9.99964 4.18158
4.7278 9.92833 -5.22794
11.7995 4.44586 4.16166
8.69527 -1.20662 -13.618
-6.02284 -9.9996 1.96342
1.92221 4.84246 -6.02263
7.58628 -9.99948 8.07607
3.86205 6.57915 5.63226
-6.04417 5.91003 -1.10855
-1.55823 6.14427 18.9452
-0.403393 -9.99859 -5.69232
7.67872 9.99914 1.53207
1.95605 -9.9994 -8.0321
11.7585 0.808443 9.99949
-1.58169 -9.99972 5.04347
11.7996 9.92089 -6.56992
5.23589 -3.87826 -18.9999
-2.41777 5.59215 15.3575
2.17879 -9.99995 6.07116
-6.69849 -0.67779 -9.99971
11.7995 8.02065 -0.116546
8.6905 -0.979431 18.9997
11.7996 6.49063 9.93771
-0.710749 -6.53299 -12.2434
-1.00517 9.94651 -9.99929
1.14468 9.9995 9.92454
-5.20383 -0.428815 11.8778
5.778 5.75374 18.9459
9.85451 2.17116 -5.60289
7.76546 -8.0022 0.694898
11.7385 0.552373 -5.97239
11.7995 -7.77213 1.98835
3.53164 9.9996 -8.19709
11.7344 -8.22642 -9.99966
11.7995 8.20041 -9.94559
4.97799 -6.23551 13.5245
5.77296 9.99958 -8.31428
3.85042 -4.48803 -5.64839
11.7997 -9.93223 2.72851
-4.88039 5.03785 -3.26472
-8.19955 9.90048 -4.60509
-2.04464 6.50505 4.6012
-4.75128 -2.47261 11.8808
1.58052 -9.99962 8.01739
8.90991 -0.716127 -10.0001
3.54536 4.82168 18.9999
0.572116 -1.87431 -5.89535
-8.19957 5.65452 -5.70001
-2.9322 5.17444 -11.8197
10.0499 -9.93081 -9.99926
-5.68838 2.92311 5.25942
11.7998 2.14497 -5.69671
-8.19949 9.93521 4.86138
-8.15215 -0.193188 5.99859
-6.38787 4.25183 -4.23063
11.7994 -5.57757 -2.47273
-4.2229 3.59077 -11.8156
7.87763 -9.99939 0.535114
-6.26757 -2.88921 -5.26743
0.0881674 8.43298 -9.99957
-8.14358 -9.99944 -1.3415
11.7995 -6.68104 -6.45713
1.47649 -5.01281 -19
-2.03152 -5.8634 -17.3129
2.53428 -0.426309 5.99224
-3.60435 4.46054 -17.14
-0.645397 -6.76817 5.4934
1.85455 -1.12827 -19
-1.51397 -3.2524 5.06382
-6.67883 -0.0458011 9.99961
5.52037 -3.81789 -4.70169
-3.06019 9.99949 -3.64333
-5.97127 -7.83057 -9.99943
-3.00785 9.937 -9.99925
7.74892 9.99954 -7.91328
7.1056 -4.56146 -18.9451
7.14585 9.9994 9.9515
6.03167 7.96677 9.99945
11.7994 5.94348 -7.82338
-4.83363 -6.1398 9.99966
-5.2251 -0.661873 -9.99968
-3.23764 -6.67239 -3.25915
-5.19714 -0.297132 15.3981
9.94147 9.99945 -6.58985
-2.17178 -5.77622 11.8677
7.87985 -3.42457 -4.92052
5.11833 -6.16621 -13.6588
9.35118 9.99935 9.95272
5.81134 6.40216 4.46242
-8.19952 0.247608 9.9158
3.83888 -6.66012 18.9997
5.85466 -1.3482 5.84272
-3.82584 -4.17838 -11.9064
-8.19951 -6.64256 6.77505
6.1422 -5.50681 14.8624
-4.63843 2.75986 -17.143
-8.19955 -6.58561 -4.24241
-3.25458 4.84276 13.5918
-4.49967 -3.04842 -17.1674
-2.99589 5.01055 18.9998
6.00282 4.12443 -4.38431
8.79351 -0.453551 17.0935
9.69916 -9.9996 -3.11026
-6.30577 -5.48443 -2.42926
-0.815879 8.35329 9.99952
-1.56928 -1.40322 -19
3.9236 -9.99946 5.72712
-6.31629 -0.676808 5.98238
-6.24925 -5.041 9.99949
10.1279 2.73012 -9.9996
8.06067 -3.01602 19
-8.1993 6.73226 -9.92812
-6.39233 -3.26762 -9.99971
-5.17777 0.785238 10.0576
6.62694 1.70437 -19
-4.95697 -2.10845 -10.0001
-1.23055 6.32269 -11.8593
5.95281 -7.87512 9.99939
7.01471 6.95947 -2.97724
2.89456 8.24979 5.89791
-5.16509 0.754292 17.1279
10.0875 9.99947 8.17796
-4.7847 -9.99951 -9.94235
5.95076 4.22102 4.33174
11.7998 5.32304 2.75354
-4.67513 2.68851 -13.5633
6.14886 -5.50175 -11.8528
11.7997 -9.9023 9.90399
8.23784 6.18005 -9.99958
-8.19932 -8.42544 -9.93086
4.15815 -2.5068 -5.51866
-4.11049 -9.99949 -7.83168
2.39851 9.99977 6.06496
8.02289 3.23891 13.6139
7.01476 -4.67327 18.9412
5.98196 5.62042 11.835
11.7996 9.94308 4.62945
9.86907 -0.0900083 -5.99712
0.0525623 8.07223 -5.74101
-8.1998 -3.81508 -4.72604
6.71397 -4.82669 -3.6071
3.48436 -0.414351 -19.0001
-8.19945 1.58757 5.89533
-8.19946 -8.0032 7.95148
-5.15892 0.8425 -17.1431
6.37714 -2.24491 -19
-1.40767 6.23939 13.7336
7.258 -7.68077 2.49746
-8.19952 1.85167 -7.95993
7.54285 -5.67707 -1.98299
0.7418 -6.91402 10.0652
4.65181 6.40106 -11.8409
6.08096 9.99952 8.2983
-2.37032 5.62552 -10.048
-5.19522 -0.388463 -11.8412
5.14533 3.82213 18.9998
7.41084 -9.94079 2.15569
9.59124 -7.76055 -9.99945
-8.19966 -6.06099 0.586586
8.56877 1.86308 -11.8208
11.7995 9.91814 8.15859
-8.19943 0.63683 -6.06395
10.029 0.809134 5.96534
-4.11883 9.94319 1.02505
6.58425 2.37339 18.9999
-3.80412 9.99952 8.18464
8.20371 1.01661 -5.91944
6.56028 -5.12937 12.1057
7.52226 -9.99948 -8.14259
-4.02942 -4.05557 10.0002
6.48205 5.20041 -10.0496
-3.82895 4.38415 -9.99995
-8.19963 -2.38442 -5.59546
8.42937 -2.28264 -17.2145
8.00724 8.19503 9.99952
-1.8624 3.82653 -4.75548
7.49217 9.96016 -1.89452
11.7995 -6.21414 4.99004
4.75417 -5.0695 5.25575
11.7995 -4.72614 8.29171
11.7994 8.381 -3.9671
4.75026 -9.99946 9.916
2.0413 -7.01787 15.4298
8.09941 4.06441 4.43152
8.19866 2.84509 -13.5863
-3.72487 -4.31657 11.8837
-2.86302 -5.22417 10.0605
3.16779 -6.87806 -13.6223
3.47947 4.11017 -5.7964
1.65495 4.84909 19
7.28666 -9.99953 -2.73072
4.0878 9.99922 5.62634
6.78492 -6.59417 -3.3288
6.21852 -9.99921 -4.20226
7.7312 8.0037 0.934426
-6.26572 -4.3505 -4.13642
-5.9143 9.99953 2.13112
6.7944 -4.91922 -13.5897
-4.72775 2.56013 10.0604
9.74912 -9.99934 -7.87627
-1.97863 -3.36588 -18.9999
-8.19952 -0.397336 -8.01347
-3.43001 -4.6511 -17.1914
-4.5434 6.28017 9.9995
5.21372 -0.721039 -19.0001
7.88103 9.9993 -0.198001
2.02923 -5.08905 -6.02598
-8.13709 9.9993 1.03456
-3.96495 7.83803 -1.75306
-2.15706 7.97725 -9.99945
-3.7319 5.43216 2.57513
-8.19952 0.824424 7.8525
-1.89358 -9.94078 -4.7539
-3.62602 4.4391 -13.5984
4.87952 3.13666 -5.14981
11.7995 -8.10048 -3.57387
6.50696 9.99968 -6.22707
1.90297 2.88945 -6.02046
8.23854 2.68996 18.9997
11.7995 7.85298 -2.05886
11.7483 -9.99922 -0.814848
-8.19949 5.88056 9.94318
9.01923 -4.90415 -3.4614
2.42146 -7.13425 -10.0001
11.7994 -4.88715 -6.11897
1.93632 7.01834 11.8831
-8.14061 -9.99946 0.707753
-8.19952 -6.81591 3.5845
-4.19683 -7.95235 -0.472916
4.45853 -6.48862 -11.874
8.42063 -2.30436 17.3331
5.03932 6.20508 13.5807
9.9399 8.03667 9.9994
-2.62951 -8.1856 -4.04374
-2.11413 -5.81299 15.3693
-4.94259 1.90092 -18.9471
11.7997 4.54248 9.95401
9.99089 -4.73248 3.69229
11.7995 3.07093 5.24785
-8.19951 3.42198 6.77237
8.01177 3.27782 -5.0325
-3.62087 9.99914 2.75307
3.09262 6.88406 17.1167
-6.25707 -9.99964 -0.124231
-8.13633 -9.99957 6.5423
-2.19163 9.99955 -8.39031
7.6819 -7.87123 -1.20306
2.62876 -6.94828 -11.8539
9.79051 -5.17366 -9.99942
2.96873 9.9996 -5.96781
-8.14359 -4.7266 -3.7134
-8.19956 6.4337 4.33709
-0.154728 -6.68077 18.9996
3.72167 6.73281 -13.6373
9.47129 2.58597 5.41359
8.37099 9.91553 -9.99965
-5.17562 0.70158 -13.5738
0.329805 0.570428 5.9952
-3.85444 -4.13245 -15.4247
-4.63589 -1.9054 -5.71471
11.7994 7.81392 8.15635
-2.99191 2.77675 -5.31571
11.736 -9.99913 -6.58754
8.41536 -2.30944 -15.3685
-4.32527 -3.40416 13.6554
-2.77671 2.28539 18.9998
3.26561 -9.89764 -9.99945
-2.69771 -9.9995 8.2741
11.7995 -9.94998 8.22814
-3.29083 -1.23524 18.9998
3.73742 -2.05324 5.69598
8.1611 -6.25703 -9.9995
11.7997 -2.75782 -9.93664
-4.04799 8.01863 -9.99937
2.76813 9.87466 -9.9995
11.7995 -5.95734 -8.19258
0.69023 9.99953 6.00123
4.62215 6.41226 -15.4185
-4.18685 6.03851 -0.637759
-4.25194 9.99949 -0.62069
-0.47372 -8.49953 5.57521
11.7996 6.42054 -9.94644
11.7995 -8.00001 0.0846587
0.655303 -8.26458 -5.92199
-8.19927 -9.9349 8.27037
11.7994 6.6079 -3.95417
-0.737264 1.22693 19
4.98937 2.92165 5.23643
3.58424 6.77855 -17.1716
-0.207478 -2.58592 19.0001
-8.19958 7.385 -3.9443
11.7995 -2.94432 -6.83094
-6.08265 8.01366 -9.99933
5.24902 -6.09977 11.7077
6.39862 0.482671 19
-4.61482 9.99956 4.31794
-6.07864 9.99957 5.97732
6.63348 5.06384 17.1173
1.76122 3.23879 6.01024
0.63082 -0.720995 19.0001
-2.54977 -9.99964 -6.40117
6.57116 9.93332 -9.99941
11.7995 1.33086 8.00224
-2.8991 4.77987 3.75715
7.22883 -5.35569 2.74892
-2.66477 5.45494 10.0003
-3.20282 -4.89961 -13.7174
9.58741 -4.29293 9.99954
11.7991 -5.4569 2.72431
6.1845 5.56068 9.99993
-4.39708 -3.26104 -13.6565
2.89767 9.99951 9.92746
4.8304 -6.30817 17.2095
-2.12071 5.80969 -13.5982
10.1405 -9.99939 9.92596
6.84973 -1.34829 18.9999
-2.52741 -8.52572 9.99942
-8.19952 -4.05995 -6.66516
2.13792 -3.15149 -19.0001
4.01501 4.67717 -18.9998
-2.14355 5.79669 -17.1802
8.56692 -1.81104 15.5203
8.44455 -9.99941 9.93169
7.73316 -8.23608 9.9995
2.26481 -3.11723 -6.0028
11.7995 -8.31288 -5.62959
-5.16475 0.787104 13.681
-3.30246 0.348094 -18.9998
5.48742 5.95904 -17.1601
1.62608 7.00299 -17.1732
8.6941 1.21321 13.5737
-8.13216 9.99971 6.60623
11.7995 8.30157 3.98187
0.243816 2.16668 5.79805
11.7995 8.21464 6.06308
9.6277 -9.99945 7.68869
-8.10261 9.8658 9.99981
0.600638 -3.96791 -5.9038
-8.04261 -9.9996 9.9158
5.66874 -5.79259 -18.9993
2.52442 1.14748 -19
4.0787 -6.61704 -18.9392
11.7191 9.99916 2.68865
8.79349 -1.00116 10.0002
10.1532 2.16957 9.99958
-8.19962 2.2188 -5.67899
0.138989 4.18529 -5.76719
-4.81955 -2.2744 -15.386
5.8927 5.67982 15.3462
-8.19955 -5.88646 5.15718
-8.19945 -8.36422 9.93977
7.87394 -6.007 -0.374709
7.17448 -7.97392 -9.99937
-2.90955 5.18932 -15.3537
7.74897 -5.86862 1.24624
-3.34855 -7.67377 3.07446
-4.69803 2.76369 -10.0001
-1.68951 -9.99962 6.74616
-8.19959 -4.81882 3.70462
6.03982 -5.67413 9.99981
-8.12819 -1.43018 9.9994
10.1226 9.99952 4.53101
11.7385 9.9992 0.713313
-1.91417 -6.2608 -4.70745
3.16177 6.8894 10.066
8.47065 2.18245 11.8547
8.14488 9.9995 8.15021
4.81076 -1.02057 19.0001
5.89614 -7.97841 -4.38527
-4.98736 1.75192 -15.3397
2.6854 -9.99948 9.92733
-6.03257 -9.99938 9.949
-0.979437 -2.69513 -5.35271
3.10694 -6.88827 -17.0844
4.77978 -8.4773 5.21243
-3.25765 4.83952 11.7258
1.0134 -6.96498 -13.5156
-8.19868 -9.90277 -7.70552
-8.13905 9.99963 -8.1323
-5.07026 -1.34315 -13.5966
2.66317 6.94275 -15.3911
8.77762 -0.795242 13.7137
2.97679 -6.90162 13.7344
-6.51656 5.349 -2.70714
7.40074 4.20921 15.3404
9.78118 -9.99954 5.56415
9.82951 -5.9932 0.207395
8.12233 -1.32342 -5.84786
-5.15906 0.0821362 18.9997
-8.19901 8.38742 -9.93863
-8.19952 1.89444 9.94605
6.24763 -2.16074 -5.62659
8.72807 1.09003 -17.0791
-3.89869 9.999 -2.14522
-8.11451 -9.99794 -9.83034
11.7204 9.99935 6.43451
-4.54745 2.94845 13.6861
-8.1404 9.9994 2.83282
-4.81475 -5.03393 -3.27467
0.479247 6.88666 -18.9479
-8.19948 4.50362 4.0994
1.06184 6.97036 17.1025
11.7995 -7.80444 -1.82596
6.38996 5.28787 -11.8941
9.8219 5.0436 -9.99949
-8.19961 7.97855 -2.04215
-8.19946 4.93162 -9.92121
-8.19963 6.06213 -0.581384
-0.332453 9.99953 7.98605
7.71084 3.74965 -15.3515
3.43938 3.28409 5.80412
-1.32773 6.2091 -19
8.10349 9.99964 4.57274
-4.46734 -1.09783 5.90483
11.7996 9.94237 -4.9073
-6.27549 5.96406 0.771606
-0.293379 6.69742 -13.6395
0.355428 -9.99981 5.92441
-6.60262 1.42505 5.82514
11.7995 3.9654 -6.6838
-8.19955 -3.58787 8.40671
-3.111 7.9003 9.99935
5.45244 9.99962 6.61922
7.02964 8.6796 -2.96341
-8.11506 9.99962 8.35128
0.694478 1.58634 -5.92057
2.61958 -1.01241 19.0001
-8.1995 6.59241 7.94091
11.7994 -8.1036 5.84779
10.1322 9.9138 -9.99967
-0.143892 -6.72934 15.3942
11.7997 -9.93479 0.985074
-6.55097 2.14053 -9.99962
11.7667 2.77138 9.99943
-8.08425 -1.7834 5.74901
-1.6849 3.977 -18.9999
-8.1995 -8.38031 -4.26091
-4.05261 -3.77558 -18.9995
-3.9626 -3.01446 5.20846
0.730069 6.30126 -5.93771
-1.46792 3.45585 18.9999
8.03602 -6.30275 9.99953
-5.18623 -1.12714 10.0006
11.7995 3.88743 -8.37785
7.88883 6.00616 0.109548
-4.14031 3.69452 -18.9456
-6.3106 -9.99958 -6.17252
-4.61834 -9.99945 7.88405
-3.0625 -9.9999 -3.70467
-3.75955 -8.13637 -2.24436
3.6687 -6.37041 -5.72141
11.7995 3.26058 7.76192
-2.92034 5.13155 -18.9987
-1.08708 -8.00575 -5.25467
11.7989 -3.01563 5.30163
7.09358 4.58244 -13.636
6.55404 -9.99939 -9.93583
-3.29731 -1.65074 -18.9999
7.15504 7.49736 2.71633
11.7991 -3.15597 -5.18162
11.7998 1.72463 5.84938
8.12953 0.947495 5.93568
-1.06492 5.03677 5.27685
-8.19946 -8.09371 -6.22907
4.93537 8.24777 -9.99955
11.7329 -4.62596 -9.99933
8.69604 0.846588 18.9998
-5.96524 -9.99956 5.94998
4.91266 -6.26762 -17.074
10.079 -3.19855 5.08427
-0.766003 6.51296 17.0894
3.68886 2.08105 -5.71096
1.4451 -9.99975 -6.07687
-0.456036 -4.67308 -18.9999
-8.19963 -5.61062 -2.39887
4.01636 6.63729 15.3351
-8.13867 -9.99943 4.76266
-5.01089 1.68841 -11.7952
9.79377 -1.06303 5.90485
11.7994 -8.06373 7.98163
2.70598 -8.33002 -5.92914
7.06649 4.61471 -17.1138
-0.851255 2.5176 -5.45636
-8.12729 -5.63691 2.11306
-4.26139 -3.69088 -10.0002
0.86101 -6.96339 -11.6585
-8.19967 4.89419 -3.64531
9.63222 9.99947 -8.33244
-8.14872 -2.9824 9.99953
6.21885 -4.33439 4.14947
-1.275 6.29953 -15.3848
-0.196485 6.62318 5.6621
5.54529 -9.99956 -7.59542
3.65887 -9.99963 7.93938
4.47928 -8.01323 -5.3948
7.49132 -9.99966 6.03991
8.01921 6.2375 9.99961
-0.576742 9.96287 9.99942
5.68061 -5.82315 18.9319
8.2151 2.81603 10.0631
7.67287 -3.81299 15.4336
0.241928 -9.90681 -9.99948
11.7995 6.47605 6.80375
2.98629 6.37431 -5.88342
11.7485 -1.21897 -5.87316
8.79882 -0.272684 -15.3243
-3.88051 9.99961 6.17615
0.0632333 -6.25374 -5.73888
4.58417 4.93435 5.33382
5.8184 9.99956 4.57955
1.7201 -2.89655 19.0001
11.7997 -3.13033 9.92594
-4.18869 5.89072 1.09979
8.79688 0.975767 10
8.26663 -4.25961 4.2301
8.06771 9.99965 -3.84167
-3.98599 -5.83522 -1.68749
0.822116 -1.01411 5.94993
-2.07877 9.99958 7.27718
11.7119 9.89784 -9.99765
-2.31915 -6.19558 4.3661
5.02506 9.99946 9.94364
-0.319888 -2.22105 5.63569
2.102 8.12073 -6.02506
-8.19954 7.81163 -5.90298
0.496423 -6.8418 -18.9992
2.83282 2.83695 18.9999
-4.48854 3.77886 -4.66954
-6.11277 -9.99942 -8.07596
-4.33642 -3.69627 -4.72456
9.79421 -9.99953 1.01601
6.35104 5.32308 -15.4009
3.91681 -8.39833 9.9995
-8.11917 3.16693 5.09557
11.7997 -9.94167 -2.5966
0.160132 4.74706 -19
-1.1849 -6.33697 17.1327
-3.04202 -9.94178 -9.99946
-8.19951 4.74533 8.19122
-6.51988 2.47407 9.99974
-3.07951 -6.99341 9.99966
3.66203 -2.80048 19.0001
-2.30072 -2.8573 19
0.179622 -2.81676 -19
-2.22798 -3.96764 -4.51722
7.36985 4.2498 10.0471
11.7995 -4.584 6.35025
-2.14751 -8.0974 4.52619
1.65539 -8.5144 9.99964
-1.02869 0.767207 -5.98218
3.00197 6.89988 13.5795
-8.1995 -5.95599 -6.11045
6.75227 -5.04505 -9.99982
-6.57777 -9.9996 3.86729
6.90935 5.19842 3.1416
-8.19961 5.71144 -2.16251
11.7995 8.23363 1.74896
11.7997 9.93489 -1.15271
8.61429 1.60858 17.2388
4.41469 -0.347342 5.99315
-2.86371 8.40009 3.77735
-8.19946 -7.51091 -8.03526
-8.1995 -1.84923 -9.93287
-2.54693 -4.26032 4.22211
-6.45339 -4.10266 4.38417
5.78385 8.16234 -4.49016
9.31608 5.21185 3.0002
3.23108 -9.99905 -5.94514
-3.89868 -9.9994 9.94055
5.31014 6.17166 -9.9999
-6.47331 9.99955 3.99122
9.46787 9.99958 6.32969
5.4934 -9.99931 4.887
-8.19952 5.45067 6.13539
9.72077 -8.02717 9.99934
3.55298 -6.78335 11.8861
6.7391 4.96909 13.5827
6.02935 0.884563 5.95016
5.54253 3.36221 -18.9998
-3.95579 4.14652 10.0007
7.53767 -4.02085 -11.8322
-4.66901 -4.35749 4.12257
8.80003 -0.672117 -17.0997
11.7334 4.77609 -3.61978
-3.04967 -4.93142 -3.52858
4.74051 1.9121 18.9999
11.7997 -9.94997 -4.44098
7.70411 7.91636 -1.06568
-4.77487 -2.40918 -11.8488
2.11202 5.0061 -19
-1.05168 2.96456 5.28409
0.693183 0.973152 -19
4.96231 -8.24812 -9.99949
-8.12005 -6.73636 -9.99958
8.79288 -0.18438 -11.8594
7.31782 9.99964 6.33727
-1.35749 -9.99948 -9.93074
-2.81888 -2.4076 -5.49637
0.845077 -0.197396 -5.99169
9.66427 9.99953 -2.60834
-0.882541 -4.75907 -5.38219
3.12707 -8.11774 5.85432
-8.19954 2.67129 8.33987
-1.92523 -9.99953 -8.05713
8.79347 0.140714 11.8271
-6.05442 4.60176 9.9996
-8.14615 9.99928 -2.84834
-0.503048 2.56002 -19
11.7223 -4.88639 9.99935
3.59679 0.633659 19
4.93483 -9.99942 -9.91182
-8.1995 3.64019 -4.90413
1.79306 6.59503 6.01105
-5.90667 9.99945 7.9209
-4.28531 -5.99702 -0.0581523
2.67038 -6.94464 10.0576
9.6685 4.20172 9.99955
-4.37362 9.99943 9.95064
-4.90066 -2.02086 -18.933
-8.12307 -9.9994 -3.32249
9.81167 -9.9995 3.05122
-8.19957 -4.64407 6.62716
11.7366 9.9991 -8.26788
11.7994 7.9627 -7.9734
-2.81496 -9.93187 3.81856
7.58694 -3.94877 17.2415
8.77047 0.827495 -13.6203
-0.40948 -9.99954 8.10834
3.78313 8.42842 9.99956
11.7994 -6.40448 7.31356
0.289923 6.92224 10
-4.16775 9.99951 -7.8312
4.76052 6.43177 9.99969
-8.19963 -2.77678 6.98305
7.67037 -0.793361 5.97805
-4.34363 -9.99962 -5.53977
11.7324 -9.99922 6.48428
1.94101 7.01352 15.3146
8.24013 9.99963 -5.79297
6.54355 2.14717 -5.6309
-1.24902 -0.560451 5.99563
11.7343 -5.90849 1.03597
8.15336 2.94291 -17.148
9.96621 -6.12253 9.9994
7.14581 7.83455 -9.99949
-6.06948 9.99952 -6.23171
-3.00161 -5.11506 13.6384
-6.12968 -5.98422 -0.773629
8.52494 -2.49257 5.4509
-1.12101 -4.38014 18.9999
-1.90926 5.93407 11.9707
0.814016 -6.95041 17.152
11.7341 9.99916 -2.95688
-2.8546 4.71379 -3.79678
-2.58609 -1.79292 5.7377
4.72562 9.99968 -6.90304
-0.885545 9.99893 5.46744
11.7342 -9.99919 4.55867
-0.989015 6.49894 -10.0001
-8.19948 7.97599 9.94887
-4.88768 9.99952 -3.79313
-3.10413 0.398847 5.99482
2.90477 -6.90886 17.1675
-6.37356 -0.948495 -5.93496
-8.19955 3.9041 -7.44586
-3.718 -4.32909 15.377
11.7996 -6.61424 9.91344
7.34008 -4.40662 10.0004
11.7996 5.7089 -2.08688
-8.19967 -6.00157 -0.925017
-2.29952 9.99967 -6.59724
-0.312703 6.68655 15.3359
-1.09451 -0.952102 -5.94023
-8.12742 -5.10626 -9.99948
-3.76057 5.66459 -2.26396
5.79912 -3.00606 19
10.0854 -9.99951 -5.39148
1.69264 7.15952 9.99984
-3.97332 3.95603 15.3166
10.0477 -2.8692 -9.99956
-6.12901 9.99944 -8.12337
11.7996 -4.02764 -8.20082
11.7996 5.36185 8.25021
7.04252 -8.30596 -2.91345
7.76295 -9.99972 -1.20341
-2.9131 -0.685662 -5.99652
-4.63901 0.115689 -5.99654
11.7997 4.59483 -9.95295
9.83904 5.88195 1.24856
1.9938 -2.4798 6.02365
-2.37134 9.99949 9.92009
3.50036 -4.75801 -19
11.7993 3.67492 -4.8769
0.648501 6.9213 -15.4093
-6.09702 -5.41904 -9.99961
-1.36894 -0.788293 19
-3.25568 6.80035 3.22868
-6.50212 -9.99946 -9.94989
3.82988 -9.99954 -7.94701
0.505364 6.88043 -10.0636
7.89119 3.45326 17.1473
4.73017 1.27952 -19
-4.41483 -6.29839 -9.99971
-8.19951 -0.0631755 -9.93051
-4.70591 -2.75658 10
8.21484 -2.7958 10.0599
-8.19958 -7.90209 1.70295
9.80344 9.99953 1.09472
7.50672 4.07168 11.884
1.18584 -6.97424 -17.1627
-0.187912 6.71459 11.9125
8.80002 0.284079 -18.9414
-1.35778 6.34725 10.0008
7.77964 -3.63528 11.8823
3.46446 2.90412 -18.9999
3.83983 9.9995 7.95656
7.82477 -3.77973 -10.0001
2.36471 -6.99088 -18.9475
-2.81122 1.06909 -5.9099
8.41756 -2.26318 -10.06
-8.19943 7.95894 -7.88877
-6.45276 -9.99943 7.95524
3.56844 6.87095 -9.99989
8.4701 -2.1826 -11.9013
-0.230057 4.81276 18.9999
-0.271421 -6.69737 11.8677
-1.66412 1.42394 5.82463
-3.19757 -4.91346 -10.0599
-5.19931 -0.261832 -15.3424
4.98778 0.926699 -5.94637
5.62012 -9.99961 7.42092
-4.79316 9.94277 -9.99936
0.749086 8.28969 5.92793
-6.43164 -2.87984 9.99963
5.47897 -6.08097 -10.0005
0.766407 6.95027 13.6457
-5.22529 0.90335 -9.99949
-1.1897 -6.3239 10.0512
6.55407 -0.146292 -5.99473
-3.88041 8.01058 1.94233
-8.13065 3.93829 9.9996
-2.97959 0.599033 18.9998
8.56882 -1.86414 11.8982
9.62941 7.68056 -9.99945
4.48781 -4.50883 19
-6.13118 9.99959 -2.0358
11.7995 4.65584 6.26431
4.45768 -6.55893 10.0005
3.01504 -4.18664 5.87552
-5.8037 -9.9996 -4.06752
-6.51471 9.99945 -9.94746
-5.10396 -1.13969 -17.1254
-6.15 -5.89636 1.09573
6.94405 -0.183097 -18.9999
9.80084 9.99954 -0.830374
-6.37875 9.99949 9.93828
-0.538665 -6.61446 -10.0724
6.98002 9.9322 3.02224
10.0812 4.11044 4.3765
1.46742 3.03716 -19
0.909574 -7.12469 -9.99996
-2.41287 -5.59601 -11.8781
11.7178 -6.51144 -9.99931
2.03831 7.14276 -9.99996
6.87166 -2.90373 5.24986
