-0.599176 0.566024 0.676609
0.809392 0.0991696 -0.72942
0.571804 -0.558036 -0.637966
0.0479005 0.139563 0.667267
-0.925956 -0.326564 -0.256554
0.538883 -0.46466 -0.902852
-0.811516 -0.232589 0.600993
-0.585293 0.758672 0.874721
-0.723221 0.557013 0.779978
0.794987 0.0698577 -0.654102
-0.812822 0.0251847 0.140515
-0.695986 0.0659233 0.336574
0.406963 0.381985 -0.309155
0.0769346 0.290118 -0.0590808
-0.0607954 0.239752 0.0178693
-0.272811 0.23288 -0.798254
-0.113084 -0.711479 -0.951734
-0.370664 -0.110194 0.473896
-0.231802 0.289532 -0.187308
0.388194 0.336222 -0.804037
-0.190373 -0.570325 -0.117483
0.957025 -0.0209782 -0.602327
-0.3923 -0.435319 0.0989177
0.725591 -0.436474 -0.439342
0.334859 -0.441611 0.164154
-0.488251 0.236913 -0.382791
-0.0469569 -0.693515 -0.968587
-0.4545 -0.213829 -0.757658
-0.88497 -0.135198 -0.407437
-0.787535 -0.548343 -0.000563329
0.838166 -0.169832 -0.890238
-0.413333 0.0414047 0.598225
0.916682 0.0208502 -0.728773
-0.937989 -0.15719 -0.176409
-0.00336707 0.239014 0.998353
-0.478871 -0.489012 0.0719952
-0.20227 0.162529 0.823212
0.738407 0.115307 -0.495117
-0.25415 -0.101542 0.238085
0.0490558 0.250694 0.868764
0.729255 0.0675089 -0.644915
-0.704302 -0.544962 0.528578
-0.270987 0.186034 -0.547706
0.434677 -0.0382614 0.220397
-0.644038 -0.165961 -0.849436
-0.585499 -0.342376 -0.869838
-0.860726 -0.0416831 0.359756
-0.531514 0.249519 -0.3152
0.493782 -0.34748 0.164371
0.77026 0.025334 -0.595314
0.379536 -0.027479 0.239747
0.138466 -0.554448 0.0128712
0.803789 -0.0578218 -0.265211
-0.608275 -0.579654 -0.113518
0.736924 -0.34639 -0.148724
-0.404466 0.0203495 0.722995
0.279877 0.116639 -0.943679
0.0999235 -0.742162 -0.271467
0.0186094 -0.668431 -0.712781
0.536229 0.099667 -0.878974
-0.0659529 -0.593309 -0.667866
-0.414048 -0.0620933 0.437178
-0.722342 0.102428 -0.461925
-0.882506 -0.35362 0.0292351
0.602492 0.0968386 -0.855581
0.0842985 0.183749 0.710722
-0.93616 -0.0980574 0.207288
0.458017 -0.39531 0.147234
-0.948141 -0.282941 0.335564
0.35152 0.161249 0.139003
0.647453 -0.474223 -0.149625
0.32112 -0.726941 -0.50985
-0.515307 -0.450368 -0.587005
0.194046 -0.195618 0.266052
-0.534449 -0.37647 -0.978708
0.389872 0.224446 -0.983999
-0.100628 -0.627188 -0.46718
0.753148 0.0575864 -0.201911
-0.245493 -0.0459637 0.783732
-0.693012 0.167106 -0.419588
-0.793587 -0.0879429 0.57874
0.059867 -0.576442 -0.11782
-0.220612 0.170133 0.746416
-0.860042 0.021147 -0.339355
-0.198479 -0.566692 -0.31859
-0.627128 -0.626281 0.341177
-0.0690513 -0.477321 0.0623483
-0.0502236 0.122033 0.736108
-0.473532 0.177638 0.0756084
-0.619251 -0.399126 -0.861287
-0.0278698 -0.0177699 -0.933195
0.29646 -0.699336 -0.684932
-0.388996 0.183583 -0.858382
0.38654 0.0897501 0.175605
-0.294194 0.236294 -0.396463
-0.738363 -0.545125 -0.16579
0.131737 -0.415218 0.188441
-0.0730951 0.124199 0.134175
0.664273 -0.494086 -0.538513
-0.767071 -0.144118 0.601108
-0.595058 0.574695 0.77822
0.907643 -0.329914 -0.741327
-0.929225 -0.303913 0.0480391
0.432861 -0.609003 -0.753904
0.368864 -0.505618 -0.996093
0.424525 0.235492 -0.0513376
-0.0612359 0.199404 -0.926484
0.74622 -0.362004 -0.606605
0.735879 -0.411829 -0.265262
-0.586893 -0.405428 -0.59202
-0.801823 -0.471925 -0.373994
-0.493677 -0.566567 -0.0647045
-0.384053 -0.383415 0.257764
0.225998 0.392779 -0.746822
0.377065 0.288531 -0.935238
0.389385 0.235802 0.0102881
-0.473984 -0.583045 -0.119703
-0.821632 0.0402206 -0.408386
0.517196 0.307252 -0.260869
0.777764 -0.194379 -0.919385
0.950444 -0.280857 -0.713103
-0.0720039 -0.725984 -0.378097
-0.662138 -0.39239 0.603178
-0.253515 0.0404574 0.208287
-0.574217 0.219347 0.619193
0.0266953 -0.735184 -0.253902
-0.196109 0.048665 0.174226
0.719418 0.0970497 -0.15195
0.468823 -0.645582 -0.334473
-0.892387 -0.290899 -0.00919126
0.123819 0.445264 -0.650264
0.938114 -0.232804 -0.529538
-0.596631 0.197203 -0.0508409
-0.267508 -0.590593 -0.964399
-0.937635 -0.240191 0.420888
-0.64977 0.0797805 0.212731
0.200719 0.438046 -0.630086
-0.602713 -0.537229 -0.0226001
-0.127552 0.0345217 0.587039
-0.432645 -0.599942 -0.212715
-0.28134 -0.07487 0.728676
-0.719876 0.0461252 -0.501478
-0.256145 -0.194155 -0.97924
0.0748263 0.206352 0.0692928
0.74786 0.129879 -0.316036
0.261659 -0.150914 -0.997
-0.804817 0.0197027 0.326017
-0.651846 0.711113 0.704612
-0.118336 0.0582517 -0.929992
0.254498 -0.135171 0.269798
-0.529233 0.00339018 -0.694181
-0.66435 0.718317 0.879223
0.595323 0.211901 -0.71973
-0.368965 0.336157 -0.9594
0.337073 -0.674697 -0.743025
0.621874 -0.549266 -0.308233
-0.850858 -0.0806726 -0.447331
-0.133 -0.462249 0.056298
-0.875461 -0.358409 -0.0418644
0.666277 -0.493241 -0.606824
0.679017 -0.375975 -0.861945
-0.526904 -0.149488 0.612401
0.625059 -0.55098 -0.443412
-0.920604 -0.104933 -0.201349
-0.453157 0.0907378 0.186065
-0.34363 -0.338769 0.180704
0.00693029 0.494754 -0.459216
-0.547577 -0.496359 -0.801447
-0.763452 -0.538768 -0.23108
-0.509183 -0.220581 0.60168
0.751175 -0.0737798 -0.933386
-0.0931645 -0.564587 -0.601957
0.325969 0.422771 -0.40649
-0.709848 -0.348229 -0.554927
-0.922164 -0.237672 0.0318344
-0.550933 -0.0398326 -0.654483
0.628339 -0.0258126 0.0788601
-0.245306 -0.615257 -0.896212
-0.703092 -0.120247 -0.858976
-0.959983 -0.469864 0.106059
0.0834034 0.340455 -0.867183
0.256151 0.250597 -0.992801
0.606905 0.149689 -0.030818
0.604268 -0.355434 0.0783804
-0.296689 0.100633 0.18658
0.467214 -0.621443 -0.640426
0.755376 0.0934986 -0.396698
-0.284058 -0.0313542 0.237502
-0.921442 -0.289232 -0.0770859
-0.136351 0.394628 -0.660616
-0.595631 0.692386 0.878669
-0.455018 -0.608873 -0.350794
0.796605 -0.0106773 -0.322259
0.564073 -0.57702 -0.491212
-0.50425 0.0564129 -0.704801
0.131551 -0.651577 -0.807896
0.435619 0.370531 -0.434634
-0.805636 0.417558 0.761071
-0.775436 0.0462293 -0.470161
0.00982387 0.457308 -0.654067
-0.87894 -0.289523 0.579325
-0.923953 -0.497808 0.328383
0.620743 -0.206488 0.102012
-0.591574 0.431017 0.618545
0.787447 -0.395532 -0.79059
-0.238934 0.299984 -0.252919
-0.260357 -0.51939 -0.735077
-0.648238 0.642063 0.907354
-0.0570865 -0.043307 0.206803
0.739586 0.0349149 -0.123031
-0.175582 0.372857 -0.882852
0.697551 -0.249097 -0.00168102
-0.688658 -0.735242 0.168849
-0.752504 0.0408121 0.365435
-0.509021 -0.425817 -0.792562
-0.475323 -0.0725658 -0.985404
0.551528 -0.564183 -0.560231
-0.0522873 0.157684 0.810928
0.0735252 0.256016 0.0129872
-0.396773 -0.16587 0.371881
0.724059 -0.0512467 -0.0455082
0.641797 -0.344154 -0.90922
-0.74174 0.20968 0.736296
-0.205646 0.368695 -0.508423
-0.707442 0.0730818 0.190386
0.516309 0.335443 -0.418557
0.871809 -0.234325 -0.857755
-0.726086 0.43339 0.591264
0.344643 -0.707435 -0.581257
0.0111123 -0.496453 0.074154
-0.195422 -0.0834551 0.214243
0.0730715 0.114639 -0.9274
-0.37383 -0.589807 -0.231869
0.0716403 0.483304 -0.479647
-0.397656 -0.0743098 0.312503
0.674683 0.191732 -0.583442
0.0493661 -0.646928 -0.848734
-0.412758 -0.418626 -0.977995
-0.842991 0.0157753 -0.0476851
-0.760294 0.219152 0.541782
-0.454562 0.0988722 -0.81081
0.124715 0.169619 0.124423
-0.629883 0.727232 0.933864
-0.244865 -0.528712 -0.667025
-0.837155 0.0520656 -0.126126
-0.485451 -0.432976 -0.977357
-0.320388 -0.101601 0.675653
-0.468528 -0.357453 0.567678
-0.91347 -0.424851 0.0665673
0.633485 0.213543 -0.652895
-0.0508335 0.300828 -0.114415
0.703552 0.164312 -0.254479
0.484603 -0.492171 -0.00780105
-0.364913 0.243092 -0.358655
0.203584 -0.650475 -0.815463
-0.333612 0.153809 -0.798457
0.273858 -0.0725215 0.265178
-0.503885 -0.550007 0.219267
0.334367 -0.073696 0.25917
-0.717066 0.328808 0.800194
0.173234 -0.074142 -0.948767
-0.906114 -0.190349 -0.368501
0.332617 -0.727475 -0.321317
-0.144575 -0.225378 0.199246
0.52309 0.237117 -0.829319
-0.693943 -0.137346 0.609424
-0.0122143 -0.0954264 0.226743
0.0122555 0.109451 0.695642
0.330485 0.0932076 0.192167
-0.306621 -0.10131 0.544379
0.00475064 0.284849 0.813177
-0.220576 -0.380098 -0.97275
-0.586826 0.643959 0.776357
0.378041 0.372748 -0.744239
-0.869123 -0.56696 0.0240421
-0.133091 -0.0433201 0.193752
0.684869 0.133473 -0.118263
0.249969 0.342059 -0.165835
-0.0485555 -0.355247 -0.935504
-0.151907 0.451017 -0.291362
0.204199 -0.701469 -0.190976
-0.310032 -0.0639529 0.502352
0.35634 0.387512 -0.688516
-0.664393 -0.580451 -0.339505
0.236837 0.431027 -0.564217
-0.12584 0.0365428 0.173183
-0.953184 -0.167706 0.0719288
0.545866 0.274769 -0.204953
-0.237682 -0.425374 0.107298
0.391276 -0.695622 -0.343996
-0.978054 -0.22273 0.255267
-0.677447 -0.54265 -0.4109
-0.669723 0.0499587 -0.537937
0.488361 -0.576492 -0.76597
-0.741613 0.244752 0.601464
-0.0569656 -0.624209 -0.592769
-0.808465 0.00689267 0.402664
0.35937 0.403871 -0.468634
-0.329972 0.189131 -0.529918
-0.856687 -0.492747 0.0204544
0.266456 -0.505304 -0.992737
0.379731 -0.287666 0.240411
-0.463788 0.150816 -0.531231
-0.942116 -0.304128 0.395389
-0.291675 -0.574027 -0.223153
-0.137605 -0.514573 -0.584191
-0.0577603 -0.666185 -0.518473
-0.462677 -0.022138 0.411849
-0.0430765 0.491166 -0.506574
-0.0671273 0.0090937 0.643791
-0.915531 -0.281612 -0.29943
0.0402596 -0.700353 -0.642298
-0.54857 -0.588288 -0.14627
0.390306 -0.698777 -0.410718
-0.889628 -0.124654 0.0188324
0.00375448 0.206466 0.848785
-0.011559 -0.220126 -0.9377
-0.81392 -0.656198 0.383842
-0.196418 -0.293159 0.190997
-0.2472 0.204499 -0.939143
-0.474478 0.19169 -0.457396
-0.462022 -0.416057 -0.629032
0.134898 0.421593 -0.716077
0.218693 -0.504158 0.10766
-0.0756853 -0.421466 0.119059
-0.310418 0.373986 -0.941515
-0.882994 -0.0780366 -0.37276
0.123103 0.118617 0.179586
0.142924 0.298561 -0.119485
0.0153456 0.252102 -0.00826338
-0.66343 0.172197 -0.103659
-0.533871 -0.404774 0.586397
0.402119 -0.64479 -0.208616
0.287091 -0.228993 -0.996838
-0.244791 0.382439 -0.917445
0.226473 -0.600693 -0.858796
-0.418234 -0.0723827 0.372362
0.166587 -0.750303 -0.397055
-0.967367 -0.380862 0.273237
0.0148317 0.167122 -0.925992
-0.860658 -0.664473 0.318228
-0.658785 -0.640417 0.403634
0.19741 0.405464 -0.190404
0.00289475 -0.696953 -0.211628
-0.745122 0.376553 0.536179
0.410266 0.165458 0.109725
0.27717 -0.690566 -0.755818
-0.271489 -0.564573 -0.456138
-0.900778 -0.187263 0.0141942
-0.224952 0.00347546 -0.931876
-0.0328244 0.397573 -0.77557
0.206645 -0.397807 -0.932598
0.0642741 -0.669854 -0.171888
-0.495987 0.108592 -0.868093
-0.374992 0.262087 -0.167593
-0.82582 -0.171712 0.589139
-0.634448 0.06269 0.386989
0.92471 -0.21326 -0.817389
-0.0545571 0.0531357 -0.929565
-0.736989 -0.206666 0.613115
0.58491 0.282413 -0.404963
0.813342 -0.198197 -0.47315
-0.620436 0.0328322 -0.983036
0.551631 0.0996043 0.072371
-0.876135 -0.0719946 0.0513286
0.673114 0.0795951 -0.877645
-0.879679 -0.365927 0.563004
0.728189 -0.293654 -0.069797
-0.435722 -0.188991 -0.97169
-0.69524 0.0332679 -0.972973
-0.0689192 -0.707074 -0.893174
0.283019 -0.194924 0.270701
-0.233144 0.111582 0.139641
-0.681322 -0.0375708 0.620352
-0.333345 -0.568379 -0.498058
0.405959 0.274913 -0.0946562
-0.621129 -0.538862 -0.459583
-0.0839994 0.496807 -0.448206
0.117511 -0.315694 -0.9377
-0.903013 -0.0381927 -0.187059
0.560478 0.144145 0.0156982
-0.58844 -0.0999934 -0.647966
-0.685968 -0.552818 -0.11055
0.803662 -0.348018 -0.83972
0.650233 0.105964 -0.795962
-0.266363 -0.251322 0.223242
-0.633749 0.565117 0.838654
-0.248671 0.166784 -0.612311
-0.465432 0.101538 -0.668439
0.794062 -0.294172 -0.467736
-0.924156 -0.389401 0.509987
0.042022 0.29261 0.984007
-0.684104 -0.014304 -0.864395
0.986667 -0.21946 -0.597244
0.31608 -0.327523 0.242266
-0.451938 -0.26169 -0.720762
0.518102 -0.523084 -0.786374
-0.475848 -0.411756 0.540155
0.282051 0.415847 -0.615311
0.23653 -0.729644 -0.649129
0.127237 -0.173889 0.258257
-0.883172 -0.384475 -0.292215
0.44572 0.352875 -0.756411
-0.573666 0.0953459 -0.904639
0.580147 -0.507671 -0.740291
-0.421384 -0.0153307 0.47492
-0.0877512 0.463885 -0.573077
0.272661 0.178736 -0.962556
-0.178215 0.21974 -0.928002
0.0163534 0.0385806 -0.930004
0.535728 0.281339 -0.71097
-0.972701 -0.237454 0.0813185
0.110837 0.390726 -0.814822
0.406107 -0.567345 -0.914701
-0.581888 0.0931936 -0.975956
-0.465958 -0.45016 0.333562
0.970655 -0.268611 -0.644502
-0.76934 0.363037 0.795133
0.710182 -0.361755 -0.0948457
-0.618023 -0.000493024 -0.828348
-0.0624738 0.496462 -0.38797
-0.464368 -0.263584 -0.817134
-0.488436 -0.105064 0.654837
-0.199859 0.423468 -0.446416
-0.173619 -0.345156 -0.941557
-0.338254 0.198552 -0.982784
0.479376 -0.00745395 0.18784
0.816437 -0.117005 -0.48956
-0.194708 0.359491 -0.268985
-0.445654 -0.436006 -0.682396
-0.319503 0.208623 -0.475025
-0.650171 -0.418048 -0.964907
0.757872 0.0950545 -0.269175
-0.490054 -0.344463 -0.805158
-0.19286 -0.495625 0.00760549
-0.670023 0.262186 0.765308
-0.72968 0.362278 0.609042
0.172409 -0.740088 -0.539535
-0.749072 0.0389777 0.438722
-0.0827074 0.327696 -0.980461
-0.881881 -0.161855 0.554382
0.464504 0.357395 -0.368427
0.0608436 -0.275843 -0.938245
-0.651672 -0.597448 -0.263279
-0.792018 -0.709517 0.185555
-0.153574 -0.421841 -0.93378
-0.404632 0.199446 -0.462933
-0.808707 0.470131 0.803595
0.659401 -0.157341 0.058665
0.868835 0.068506 -0.738388
-0.80242 -0.724436 0.271048
0.157006 -0.456136 -0.932265
-0.541484 0.174035 -0.495708
-0.908898 -0.155039 -0.0427566
-0.158252 0.201489 0.047897
-0.721638 0.285852 0.507501
-0.159147 -0.413286 0.104971
-0.843548 -0.0984337 0.550596
-0.908273 -0.131181 -0.329797
0.164835 0.402793 -0.76834
-0.686343 0.0900666 0.058618
-0.737564 0.598025 0.84177
0.128112 0.447319 -0.225375
0.00396991 -0.083101 -0.934348
-0.113487 0.0999077 0.838819
0.330234 0.362626 -0.806604
0.473689 0.0493354 0.160042
-0.578303 -0.63897 0.142284
-0.6699 0.134452 -0.474004
-0.673676 -0.57857 -0.16664
-0.365114 0.288599 -0.886265
-0.331754 -0.392003 0.136177
0.0654655 -0.546599 -0.971425
0.298646 0.421506 -0.532921
-0.819389 0.0774774 -0.347776
0.42609 -0.239485 0.232552
0.41683 -0.639729 -0.672753
0.227142 -0.0937714 -0.994205
-0.586519 0.360552 0.584898
-0.727638 -0.0595309 -0.894396
-0.136508 0.365855 -0.711257
-0.204445 0.221798 0.00517595
0.674729 -0.307941 0.0186222
0.153132 0.0348263 -0.929765
0.340753 -0.566845 -0.98415
-0.66425 -0.494815 0.561769
-0.594657 0.71776 0.71562
-0.506704 -0.154451 -0.727058
0.667523 0.237169 -0.342035
-0.598502 0.0385392 0.572651
-0.229532 -0.588147 -0.25763
-0.600339 0.437324 0.749318
0.270575 -0.746414 -0.347659
-0.546375 0.169822 0.0559036
0.452575 -0.153418 0.223653
-0.855539 -0.183207 -0.439522
0.851149 -0.345354 -0.794151
0.225939 -0.733919 -0.585669
0.060708 0.151858 0.132559
0.809796 -0.199773 -0.397988
-0.791161 0.0994311 -0.113014
-0.680334 -0.50792 -0.46872
0.806163 -0.262347 -0.41236
0.403536 -0.446152 0.131071
-0.782702 0.0228043 0.0784035
-0.182383 -0.589192 -0.808335
-0.118364 0.218101 -0.930028
-0.505467 0.138002 0.119873
-0.162684 0.445445 -0.492631
0.397522 -0.399761 0.183554
-0.924036 -0.0767241 -0.269854
0.4763 0.362344 -0.549971
-0.574562 0.36577 0.657185
-0.573036 -0.524591 0.394206
-0.639345 0.0885273 0.104408
-0.833881 -0.135199 -0.481411
0.443605 0.338808 -0.260987
-0.106823 -0.129333 -0.935466
-0.907539 -0.250603 -0.354026
0.401055 -0.614472 -0.13086
-0.796803 -0.496851 -0.166159
0.480287 -0.530004 -0.926138
0.0487507 -0.0264336 -0.93276
0.176902 -0.700434 -0.680708
-0.915496 -0.435127 0.37475
0.431244 -0.259206 -0.992461
-0.928771 -0.144803 -0.105276
-0.82458 -0.214274 -0.498189
-0.375051 -0.370882 -0.984807
-0.158737 -0.52274 -0.959598
0.167919 -0.608893 -0.864991
0.542569 0.154031 -0.84608
-0.771079 0.0944767 -0.408948
-0.886146 -0.32305 -0.341755
0.54048 0.19816 -0.0455749
-0.626132 0.526901 0.602921
-0.54402 -0.580896 0.168615
-0.689562 0.572165 0.574405
-0.0947128 -0.689674 -0.313922
-0.850553 -0.412114 -0.0636904
0.428226 0.107907 0.147892
-0.543045 -0.276889 0.607208
-0.502873 -0.191883 -0.802299
-0.7385 0.300802 0.626289
-0.754545 0.0587718 0.282828
-0.391098 0.162104 -0.57996
0.541957 -0.374397 0.121762
-0.470277 -0.291546 0.578967
0.126329 -0.751815 -0.461132
0.0402022 -0.748143 -0.3127
-0.683678 -0.531613 -0.00341749
-0.611083 -0.554794 -0.891074
-0.227229 0.361405 -0.445673
-0.498051 0.0977543 -0.59388
-0.106731 -0.624335 -0.242785
0.130903 0.485711 -0.356907
0.395893 -0.552724 -0.0630404
0.923091 -0.273997 -0.784905
-0.18431 -0.0312044 0.588031
-0.456583 -0.351351 0.490352
0.194932 0.137432 0.151541
-0.755073 0.0580595 0.137055
0.643208 -0.465841 -0.731825
0.808573 -0.08019 -0.330859
0.596022 0.137112 -0.792336
0.612435 -0.514375 -0.671094
-0.207018 -0.645077 -0.864417
-0.820125 -0.366702 0.58539
-0.199616 0.28534 -0.633184
0.415614 -0.319214 -0.994815
-0.556184 -0.0897598 0.600413
-0.323496 0.154415 -0.601402
0.65682 -0.426906 -0.0863792
0.710557 -0.208547 -0.94695
0.212916 0.129703 -0.927382
-0.442662 0.214664 0.0141143
0.319738 0.242664 0.0380407
0.640728 0.235274 -0.431048
-0.455918 -0.490966 0.244391
0.0728453 -0.0930309 -0.935116
0.388487 0.0411273 -0.995027
-0.173625 -0.355721 0.147208
-0.624338 0.366787 0.531972
0.167026 -0.483268 0.131589
-0.0666208 -0.0860321 -0.934497
0.33226 0.27683 -0.983292
-0.81214 -0.633665 0.038329
-0.957633 -0.153434 0.272014
-0.814596 0.102967 -0.19468
0.760336 -0.369858 -0.450118
-0.753138 0.304035 0.550836
-0.950008 -0.571883 0.230738
-0.850384 -0.53334 0.482155
0.484945 0.355365 -0.483218
0.662336 -0.230108 0.0522907
-0.0240022 0.231348 0.743451
-0.68119 -0.677389 0.347772
0.391443 0.314951 -0.192959
-0.38572 -0.553576 -0.828635
0.509231 -0.077821 0.186286
-0.1106 -0.530855 -0.672686
0.00369911 0.182588 0.784369
0.0675266 0.294418 0.918003
0.628032 0.154833 -0.734464
-0.0260511 -0.169726 0.227796
-0.610376 -0.500731 -0.840562
0.335596 0.408955 -0.333346
0.926333 -0.329214 -0.658496
0.562817 0.0529249 -0.937774
0.104204 -0.716686 -0.67015
0.737977 -0.267186 -0.921199
0.115925 -0.633346 -0.878035
0.662361 -0.0889799 0.0505557
-0.434845 -0.46895 -0.602506
0.631488 -0.375099 0.0320969
-0.507369 -0.543625 -0.802998
-0.897742 -0.0120433 -0.243427
-0.492922 0.0126782 0.381588
0.757181 -0.282985 -0.14553
-0.655061 0.191782 -0.167629
-0.577756 0.0384827 0.505795
-0.773755 0.176272 0.60589
-0.205889 -0.595281 -0.980505
-0.443111 -0.298051 0.44613
-0.400548 0.232518 -0.0402026
-0.476541 -0.0355529 0.664439
0.756011 -0.0314627 -0.109861
-0.137121 0.0480202 0.888515
0.399302 0.0332276 0.206843
0.412079 0.390944 -0.506509
0.528773 0.24331 -0.111889
-0.309946 0.111015 0.652839
-0.521717 0.0628941 -0.817724
0.694497 -0.13797 -0.961723
-0.5702 -0.177639 -0.827257
0.615788 0.0966385 0.023465
-0.755719 -0.512275 -0.108975
-0.534309 0.126526 -0.537877
0.676465 -0.0307837 0.020321
0.80597 -0.227095 -0.338817
-0.491802 -0.238108 -0.982956
-0.0479216 0.254126 0.807199
-0.0977956 0.369236 -0.777283
-0.602077 0.154304 0.647219
0.498528 0.157109 0.0634025
-0.271585 -0.501726 -0.000740277
-0.292641 0.0192208 -0.954869
-0.225829 -0.564301 -0.398037
-0.360121 -0.199495 0.292583
-0.770954 0.137977 -0.164341
0.284829 -0.423222 -0.940407
-0.945785 -0.270744 -0.224248
-0.715961 -0.643 0.432462
-0.878547 -0.0231056 -0.0797842
-0.208558 -0.527832 -0.0513243
-0.21127 0.21322 -0.762509
-0.750044 0.063926 0.0314815
0.76842 -0.344458 -0.522719
-0.653672 0.315102 0.501833
-0.63674 0.0525777 -0.87117
-0.531523 -0.504086 0.514699
-0.121263 0.244118 0.00190644
0.537259 -0.0268843 0.154509
0.805052 -0.0452241 -0.476281
0.141727 -0.723897 -0.217423
-0.79088 -0.57666 0.484736
0.187902 0.277339 -0.988629
0.089639 0.186754 -0.928911
0.208728 -0.695399 -0.775643
-0.607012 -0.139351 0.603251
-0.926064 -0.50979 0.0520712
0.324247 0.353097 -0.19344
0.861061 -0.0849635 -0.513123
-0.579712 -0.62055 -0.270346
-0.141039 0.203014 0.835215
0.0225269 0.0983836 0.150979
-0.361999 0.0267723 0.771928
0.393927 -0.0997046 0.246157
-0.46623 -0.365426 -0.710369
-0.47808 -0.512567 0.0124871
0.580981 -0.249371 0.135497
0.706321 -0.107764 -0.0109209
0.234831 -0.747283 -0.405847
-0.12468 0.357179 -0.83984
-0.772972 0.510851 0.866586
0.262581 -0.561135 -0.0850906
0.440094 -0.675963 -0.380441
0.265366 0.375082 -0.790713
-0.263151 -0.391753 0.151618
-0.548813 -0.383104 -0.824799
-0.820038 -0.421379 -0.404018
-0.896768 -0.037766 -0.318092
-0.24458 -0.554245 -0.824435
0.25467 -0.654872 -0.159204
-0.323575 0.257908 -0.120481
0.767753 -0.00235601 -0.164831
-0.770078 -0.530293 0.527966
0.252349 -0.295524 0.254919
-0.349965 0.222886 -0.825956
-0.208771 0.165213 0.0916414
-0.63136 0.743767 0.820508
0.546204 -0.494947 -0.0429524
-0.265454 0.212808 0.034702
-0.429903 -0.478746 -0.97721
-0.039577 0.277799 -0.0360037
0.561882 0.249777 -0.766008
-0.232015 0.364771 -0.384018
0.696773 -0.451482 -0.207117
0.112793 -0.638776 -0.967203
0.506346 -0.598426 -0.593741
-0.68045 0.195553 -0.280663
-0.412812 -0.297921 0.364046
0.179308 -0.316408 0.248616
-0.869378 -0.67625 0.177864
-0.415481 -0.524611 -0.539209
-0.264903 0.231218 -0.469466
0.333721 -0.608417 -0.132634
0.250834 0.446043 -0.408784
-0.601257 -0.605232 -0.335877
-0.390221 -0.594038 -0.158825
-0.732152 -0.268998 -0.579369
-0.194875 0.0413395 0.871884
0.528559 -0.456976 0.0233365
-0.727706 -0.600612 0.482258
0.0312043 0.387703 -0.809947
0.0331279 0.33617 -0.933875
0.105709 -0.758386 -0.378259
0.439945 0.229892 -0.922924
-0.773456 0.42443 0.818858
0.254708 0.261837 -0.0121631
0.783961 -0.24004 -0.195531
0.017699 -0.453115 -0.930677
-0.554626 -0.158686 -0.666979
-0.612719 -0.0295422 -0.624625
-0.286819 0.173232 0.0881116
-0.116277 -0.476029 -0.928725
-0.0543824 0.25432 -0.982815
-0.41426 -0.122505 0.67089
-0.00601786 -0.400694 0.159238
-0.640237 -0.451444 -0.890495
-0.00671074 0.429095 -0.720322
0.804062 -0.0329898 -0.402436
-0.177591 0.100587 0.597074
0.609011 0.0419302 0.067777
-0.425735 -0.0218244 -0.984915
-0.443529 -0.49731 0.175451
0.00185457 -0.533655 0.0150063
-0.317617 0.0649502 0.799008
-0.437162 0.254906 -0.327655
-0.610083 -0.698475 0.146157
0.866638 -0.111066 -0.869503
-0.619095 0.0805514 0.152539
-0.692516 -0.161544 -0.618734
0.449445 0.0631148 -0.975104
0.221266 0.0576966 -0.931248
0.386499 -0.655158 -0.7323
0.56754 -0.569328 -0.199094
-0.748136 0.167096 -0.304818
-0.747802 -0.604715 0.00773984
-0.0381931 -0.72092 -0.281211
-0.9666 -0.535599 0.120938
0.266957 -0.70291 -0.208042
-0.578634 0.157007 0.573806
0.795144 -0.12916 -0.210554
-0.791111 -0.162473 -0.52075
-0.917681 -0.0579636 0.140605
-0.625899 -0.555385 -0.958417
0.961308 -0.221424 -0.757517
-0.616404 -0.574838 -0.399701
-0.53925 0.0458294 0.363613
0.596316 -0.486175 -0.0989027
-0.625986 0.193687 0.703971
-0.659408 0.180007 0.465219
-0.504692 -0.501007 -0.976702
-0.295353 0.14759 -0.940891
0.00329928 0.190477 0.684282
-0.675864 -0.692196 0.0580493
-0.68682 -0.332367 0.613284
-0.321163 0.0738286 -0.956244
0.800548 -0.0193809 -0.538619
-0.539434 -0.623393 -0.895151
-0.117564 0.133312 0.630434
0.657366 0.0402927 0.01252
0.137416 -0.746792 -0.319
-0.374333 0.0724521 0.660258
-0.330153 0.225629 0.00144332
0.0115376 0.496521 -0.393977
-0.948719 -0.311377 0.465296
0.734029 0.0452573 -0.883064
-0.469927 0.0261177 0.310063
-0.0923449 -0.304307 -0.937672
-0.437521 0.141589 0.141809
-0.389857 0.255453 -0.100801
0.503886 0.0819309 -0.926386
0.497889 0.333026 -0.707091
-0.877711 -0.630371 0.0557627
-0.280958 -0.583103 -0.292333
-0.509836 -0.595965 -0.837612
-0.642543 0.41062 0.796628
-0.0486446 0.0703349 0.17048
0.150056 0.329993 -0.873114
0.877393 0.0318583 -0.792933
-0.604665 0.0939926 0.613918
0.94418 -0.293131 -0.591528
0.33581 -0.178515 -0.990885
0.698243 0.0635154 -0.0819116
0.603768 -0.389701 -0.871342
-0.590985 -0.557747 0.325207
-0.408108 -0.0861921 -0.986422
-0.542192 -0.30605 -0.981407
-0.621453 -0.495153 -0.514491
0.327827 -0.144493 0.267059
-0.672822 0.148999 -0.0489882
-0.600164 0.143662 0.475962
-0.671045 -0.00228687 -0.589943
0.207998 0.420593 -0.689335
-0.216197 0.203547 -0.675713
0.321458 -0.459105 -0.987296
-0.821935 -0.491262 0.532729
-0.630061 -0.359769 -0.920316
-0.130502 -0.0316002 0.638783
0.684829 -0.410343 -0.724251
-0.645946 0.205201 -0.22905
-0.224256 0.260073 -0.97959
0.0103114 -0.624393 -0.792366
-0.69535 0.364506 0.510077
0.468791 -0.614779 -0.232854
0.253393 0.348925 -0.838809
0.032313 0.495815 -0.320191
0.189595 -0.149502 -0.97956
-0.230317 0.150839 -0.923495
-0.413585 -0.49131 0.0376335
-0.996677 -0.300845 0.180157
-0.438011 -0.616306 -0.282736
0.422815 -0.508424 0.000692462
0.10765 0.345102 0.809064
0.805944 -0.138148 -0.279059
-0.486616 -0.201357 -0.694003
-0.57829 -0.467948 -0.55808
-0.607704 -0.62154 0.275371
-0.236533 0.242664 -0.5363
0.537229 -0.603277 -0.235998
0.721277 0.096267 -0.828404
0.00470537 -0.0173011 0.214179
0.00102519 0.300823 0.942349
-0.272277 0.0688026 0.560525
0.497059 0.278583 -0.144529
-0.138797 0.171174 0.893439
-0.53289 -0.33652 0.598637
-0.232531 -0.0120785 0.729913
-0.839243 -0.0506139 0.420233
-0.931234 -0.331801 -0.178918
0.572239 -0.594894 -0.314988
0.812592 -0.141944 -0.423293
0.377822 -0.420693 -0.993471
-0.515919 0.246767 -0.145675
-0.665011 -0.586284 0.487837
0.633572 -0.168082 -0.980721
0.668074 0.160168 -0.673085
-0.12744 -0.513442 -0.00807559
0.24612 -0.358673 0.231136
-0.696526 0.518782 0.863842
-0.923264 -0.0876787 0.283135
-0.416759 0.181355 0.0711483
-0.0126651 -0.512753 -0.931285
-0.183332 0.375662 -0.960759
0.0920384 0.329094 -0.945219
0.281488 0.429712 -0.280328
-0.584264 -0.500898 0.550365
-0.558514 -0.556714 0.267101
0.261476 -0.00107766 0.24839
-0.656829 -0.680977 0.282981
0.213747 0.438142 -0.255247
-0.594302 0.753907 0.774467
-0.186742 0.0417542 0.751514
0.387884 0.360913 -0.241146
-0.725559 0.165433 0.485008
-0.264235 -0.566423 -0.144938
-0.600444 0.170342 0.00353934
0.0273257 0.286467 -0.990634
-0.269529 -0.535798 -0.0776217
0.058823 -0.656438 -0.918871
0.957087 -0.0137844 -0.67433
-0.649102 0.0238582 0.628018
-0.629683 -0.168503 -0.64551
0.238238 0.239308 0.0648575
0.538492 0.313941 -0.354027
-0.871352 -0.669785 0.107292
0.521589 -0.402089 -0.950601
0.666526 -0.507968 -0.45241
0.675883 0.024868 -0.935191
-0.162907 -0.497422 -0.649149
-0.852756 -0.0973088 0.487311
0.0426822 0.278647 0.76565
0.508451 0.181411 0.00779564
0.854795 0.0771229 -0.668807
-0.440457 -0.545392 -0.977988
-0.579575 0.705563 0.804813
0.319088 -0.582287 -0.915997
0.35764 0.408398 -0.556693
0.846438 -0.350194 -0.615852
-0.124524 -0.30015 0.168935
0.257933 0.116435 0.179041
0.701341 -0.461188 -0.49651
-0.581775 0.229781 0.558113
0.703462 0.129371 -0.633255
-0.653195 0.341288 0.785301
-0.616441 0.134624 0.0572716
-0.79723 -0.510206 -0.27469
-0.0521058 -0.623704 -0.985392
0.781884 0.0249206 -0.379074
0.442739 0.303286 -0.812813
-0.708727 0.660652 0.873554
-0.519731 -0.39141 -0.616255
-0.664891 0.110973 0.444614
-0.138749 -0.691403 -0.877832
0.525138 0.320482 -0.554197
-0.13457 0.265504 -0.983928
0.0174222 0.482287 -0.538453
-0.698321 0.0776534 0.266978
-0.9125 -0.0408081 0.2255
-0.682992 -0.622786 0.0228918
-0.772021 0.0156743 0.492627
0.424787 0.381919 -0.582051
-0.306526 0.130659 -0.664567
0.112286 -0.109206 0.253974
-0.599196 0.0773708 0.448264
-0.408041 -0.183677 0.510908
-0.158464 0.0481422 0.813455
0.799935 -0.232707 -0.274552
-0.437173 -0.375475 0.36012
0.197316 -0.576523 -0.115231
-0.028347 0.329487 -0.973096
0.273598 -0.723708 -0.276485
0.548788 -0.00412043 -0.977689
-0.735208 0.462291 0.849832
0.739639 -0.163864 -0.0653804
-0.0765652 -0.234975 0.20529
-0.840012 -0.458084 -0.295639
-0.69007 -0.227078 -0.61653
-0.837339 -0.261878 -0.464093
-0.656143 -0.722009 0.110297
-0.210378 -0.530901 -0.593229
-0.939637 -0.270461 -0.147683
-0.48965 -0.537265 0.141723
0.69447 -0.41325 -0.138782
0.108532 -0.735152 -0.52712
-0.599841 0.202902 0.503616
-0.630833 0.0935812 -0.532086
0.811239 -0.0895111 -0.400022
-0.595244 -0.0737252 -0.983108
0.670433 -0.298846 -0.93679
0.692607 -0.342931 -0.0339339
0.605481 0.27108 -0.47504
-0.656101 -0.195249 0.613822
-0.497385 -0.00932749 -0.9844
-0.486627 -0.0143181 0.465444
-0.470336 0.0799711 -0.753677
-0.572652 0.294496 0.619557
-0.431962 -0.236196 0.48001
-0.311583 0.145404 0.135399
-0.0236532 0.350315 -0.907209
0.673459 -0.46895 -0.670295
-0.563445 -0.43938 -0.976693
-0.160068 0.198416 0.769024
-0.62094 0.263976 0.728591
-0.114254 -0.369415 -0.936387
-0.85024 -0.427175 0.55297
-0.426134 0.227047 -0.39598
0.39634 -0.679835 -0.600544
-0.179934 0.262907 -0.0411333
-0.91287 -0.0787265 -0.130414
0.739263 0.0831867 -0.572428
-0.667498 -0.0843358 -0.614814
-0.0687632 0.0745161 0.609993
-0.263567 0.114632 0.813916
-0.149699 -0.651883 -0.826363
-0.707702 -0.434054 0.58817
0.0824984 -0.0030481 0.230051
0.788183 -0.0656463 -0.188666
-0.0664596 0.0121446 0.190763
-0.580323 0.078944 0.206774
0.470415 0.127241 0.106116
0.32628 0.00787957 0.23939
-0.890156 -0.398376 -0.147701
-0.732905 0.100371 0.472355
0.460339 0.210331 -0.00397719
-0.940024 -0.440362 0.299176
0.578727 0.282673 -0.540115
-0.267116 -0.586379 -0.364945
0.888321 -0.325774 -0.588537
-0.459442 -0.365187 -0.981613
-0.543189 -0.502034 0.343161
0.643641 0.222971 -0.523734
-0.711006 0.530217 0.707419
0.996708 -0.134025 -0.63118
-0.728698 0.45603 0.536781
0.0744459 -0.518558 0.0639821
0.771758 -0.313354 -0.209999
0.815218 0.0753744 -0.80406
-0.165124 -0.568728 -0.372083
-0.927228 -0.36803 0.407169
-0.937659 -0.144212 -0.265596
-0.633244 -0.600269 0.447236
-0.78969 0.133503 -0.257015
-0.310605 0.263011 -0.323911
-0.737087 -0.729502 0.226406
-0.203516 0.000203122 0.678523
-0.200715 0.0397996 0.558942
-0.506359 0.119024 -0.979502
-0.476052 -0.499433 -0.557321
-0.9095 -0.0950526 0.350571
-0.67134 0.682119 0.816783
-0.74867 -0.364849 0.60368
-0.380233 -0.139167 -0.964996
-0.313337 -0.158295 -0.964673
0.264541 -0.594114 -0.136075
-0.99053 -0.241895 0.189091
-0.714251 0.171265 -0.185879
0.182216 0.343324 -0.15167
0.0739307 -0.499569 -0.938318
-0.85355 -0.695477 0.242313
0.636143 -0.287438 0.0776386
0.57876 0.258354 -0.664428
-0.19161 0.43582 -0.372282
-0.00670012 -0.706778 -0.533035
-0.555107 -0.585967 -0.395992
-0.201168 -0.515653 -0.773053
0.205721 -0.443618 0.170225
-0.621197 -0.245646 -0.643334
-0.637501 0.0775536 0.286686
-0.697097 -0.448911 -0.511596
-0.387614 -0.511558 -0.616303
0.308383 0.329552 -0.873653
0.684205 -0.496084 -0.266309
0.0235145 0.342202 -0.859637
-0.358422 -0.0468263 0.254101
-0.427798 -0.0535523 0.711697
-0.466398 -0.3195 -0.756129
0.153988 -0.264638 -0.939
0.595734 -0.290144 -0.959892
0.405972 -0.171236 -0.983182
-0.758354 0.140877 0.548674
0.318711 -0.721305 -0.398685
-0.25104 -0.00834641 0.528208
-0.363952 -0.0270599 0.476043
0.361034 -0.514597 0.0012803
0.240402 -0.738775 -0.514365
0.0599082 0.416296 -0.185267
-0.625526 -0.545415 0.519171
0.482391 0.175934 -0.879052
-0.0728331 0.403358 -0.196409
0.361505 0.25659 -0.0568078
0.432511 0.291261 -0.881491
-0.966411 -0.493081 0.180796
0.57808 -0.589144 -0.413283
-0.0944759 0.0854759 0.917068
0.311978 0.0147041 -0.996128
-0.249764 0.245233 -0.0405434
0.266275 0.0489102 -0.973362
0.215434 -0.547884 0.033968
0.20529 -0.0102767 -0.946234
0.0688191 0.22927 0.794687
0.789981 0.0501015 -0.853387
0.981128 -0.223406 -0.691895
-0.482535 -0.343093 -0.653761
-0.177719 0.323508 -0.226013
0.549072 0.318903 -0.47622
0.153915 -0.524231 0.067495
0.539847 -0.328635 -0.961895
0.4885 -0.435982 0.103609
0.29348 0.274812 -0.07834
-0.51957 0.0505019 0.287843
-0.436574 -0.610658 -0.963509
-0.315863 0.00285141 0.503252
0.371234 -0.239599 -0.990228
-0.548975 -0.222367 -0.67002
0.159848 0.325832 -0.950614
-0.343543 -0.527728 -0.739151
-0.311729 -0.362862 -0.983107
0.716426 -0.44928 -0.32549
-0.2814 -0.554124 -0.620341
-0.55948 -0.279562 -0.653392
-0.207765 -0.452627 -0.958754
-0.452762 -0.603246 -0.858588
-0.0827843 0.195435 0.937707
0.152085 0.214917 0.0640055
-0.155297 -0.0292718 -0.931302
-0.411848 0.25839 -0.234947
0.642943 -0.0840231 -0.977499
-0.0858654 -0.677869 -0.826908
0.360579 -0.214346 0.258207
0.589414 -0.528347 -0.152191
0.692236 -0.477713 -0.393929
-0.625668 -0.561512 0.0319259
0.731159 -0.0105312 -0.927768
0.38529 -0.349126 0.218846
-0.420026 0.208415 -0.973885
-0.86925 -0.612698 0.381156
0.0846782 0.0390173 -0.929981
0.0958395 -0.444888 -0.9313
-0.749431 -0.680509 0.0552692
-0.40903 -0.119147 0.409645
0.729217 0.154723 -0.373562
-0.979921 -0.196932 0.132666
0.0700305 0.349837 0.948007
0.915196 -0.0912555 -0.825167
-0.729505 -0.0102042 -0.531711
-0.199059 -0.49744 -0.708373
0.368537 0.206576 0.0744983
-0.114378 -0.615471 -0.787091
-0.672719 -0.0685046 -0.83074
-0.629329 -0.179465 -0.977936
-0.447357 -0.226767 0.560371
-0.744526 -0.123268 -0.925045
-0.37431 -0.510199 -0.978448
-0.5296 -0.512171 0.0691744
-0.120873 0.365059 -0.935723
0.596768 -0.465837 -0.791309
0.436626 -0.475224 -0.991372
-0.319711 0.282584 -0.827616
-0.582886 -0.04853 -0.800741
0.467635 0.12565 -0.928785
-0.7396 -0.722049 0.114595
-0.950123 -0.507769 0.24966
-0.319436 -0.113131 0.601928
0.873391 -0.365773 -0.677418
0.460055 -0.577437 -0.10098
-0.795991 -0.699794 0.333866
0.715642 0.145811 -0.557218
-0.475568 -0.425334 0.395493
-0.933457 -0.588098 0.0771598
0.109498 0.278122 -0.989653
0.090626 0.479415 -0.304144
-0.553924 -0.558643 0.102845
-0.0793328 0.191608 0.0687631
-0.559056 -0.541394 -0.975399
0.714794 -0.436965 -0.568338
0.430589 -0.0690321 -0.982822
-0.571905 -0.610606 0.216892
-0.286772 -0.527367 -0.783713
0.43808 0.192634 0.0549716
-0.722546 -0.561014 -0.292695
-0.0897434 -0.169452 0.211426
-0.527547 0.199959 0.00692612
0.495653 -0.0712097 -0.998656
-0.770835 0.0943915 0.616096
0.480253 0.335979 -0.313358
0.223514 -0.21176 -0.991398
0.212753 0.197323 -0.961986
-0.143017 -0.186681 -0.943293
-0.69707 0.18898 -0.34656
-0.725448 -0.718955 0.298362
-0.680239 0.656163 0.672887
0.410589 0.37276 -0.644071
-0.817637 -0.0347012 0.484591
0.374351 -0.359933 -0.99235
0.323917 -0.375482 -0.952912
0.201108 0.46128 -0.337185
-0.2635 0.160125 -0.78011
0.301513 0.211191 0.0904702
-0.261746 0.0469408 0.844002
-0.928458 -0.634016 0.134377
-0.0982187 0.228836 0.788691
0.157393 0.174361 -0.928316
-0.113796 0.482737 -0.336751
-0.989335 -0.341665 0.227829
0.0517658 0.328524 0.830304
0.198504 0.256751 0.00799845
-0.613595 -0.313197 0.613714
-0.281415 -0.469842 0.0545041
-0.207813 0.311546 -0.98781
-0.852996 -0.414044 0.0254766
-0.0977736 -0.362406 0.149099
0.296663 0.310998 -0.941436
-0.822797 -0.477262 -0.223249
0.613347 0.266111 -0.346471
0.533795 -0.491325 -0.837631
0.0193863 0.235299 0.936466
-0.0917042 -0.602273 -0.536152
-0.986507 -0.357729 0.149474
-0.0158079 -0.284639 -0.9377
-0.86991 -0.0225952 0.302707
-0.664695 0.477529 0.829012
-0.0242246 -0.669907 -0.831091
-0.357914 -0.312075 0.250888
0.680029 0.0981609 -0.727766
0.689446 -0.0553778 -0.957424
0.0434846 0.234589 0.716969
0.790938 -0.0151406 -0.895613
-0.579966 -0.208063 0.610605
-0.14682 -0.262468 -0.942973
-0.743146 -0.680737 0.380665
-0.418312 0.130719 -0.872562
0.0629264 -0.552275 0.0022034
-0.0745817 -0.51928 -0.937882
0.863599 -0.0179832 -0.545441
-0.854675 -0.0223915 -0.403934
0.9901 -0.155506 -0.57374
-0.771027 0.395042 0.716613
-0.388302 0.121017 -0.798798
-0.176521 0.1227 -0.927252
-0.324327 -0.547542 -0.827212
0.470202 -0.216119 -0.979797
0.622216 -0.00909915 -0.964467
0.233457 0.315641 -0.964028
0.739334 -0.402442 -0.516135
0.0497288 -0.728529 -0.491757
0.268123 -0.516387 0.079305
0.67209 -0.512347 -0.33801
-0.371742 -0.14145 0.624655
-0.957929 -0.417111 0.131161
0.288135 0.442425 -0.474495
-0.352936 -0.592064 -0.284315
0.467974 -0.605115 -0.168159
-0.298872 -0.0126919 0.803935
0.161273 -0.577747 -0.0498477
-0.827637 0.0833343 -0.272858
-0.906529 -0.379356 -0.219416
-0.70413 -0.574953 -0.224081
-0.518434 0.126036 -0.928776
-0.695922 -0.184414 -0.960226
-0.144601 -0.601767 -0.9818
0.464022 -0.142629 -0.980713
0.79883 -0.370709 -0.655096
-0.574356 0.12225 0.103274
-0.908458 -0.56582 0.357825
-0.566727 0.0788512 -0.566052
-0.156988 -0.588131 -0.254189
0.657496 0.103544 -0.0414597
-0.44391 0.263215 -0.153838
-0.443766 -0.54428 -0.0362151
0.266511 -0.580278 -0.98592
-0.571641 -0.14372 -0.983106
0.0148463 -0.661849 -0.97659
0.22599 -0.459169 -0.948492
-0.882603 -0.105208 0.418958
-0.618328 0.498312 0.790976
-0.210299 0.319978 -0.565295
-0.255215 0.299511 -0.311293
0.0612903 -0.0596097 0.239024
0.352853 0.296901 -0.136777
-0.603496 -0.285818 -0.966303
-0.383252 0.0275033 0.532296
0.0259957 0.0433164 0.194085
0.851161 0.00414638 -0.845339
-0.347606 -0.544366 -0.574002
-0.0199389 -0.751145 -0.342471
-0.55059 -0.342188 -0.630484
0.377718 0.321766 -0.866213
0.79833 -0.266961 -0.52507
0.146899 0.0154414 0.236609
-0.776657 0.518236 0.801812
-0.285518 0.126498 0.745342
0.0660797 0.419133 -0.758367
-0.334145 -0.108507 0.255829
-0.626838 -0.255803 0.614457
0.537582 -0.534564 -0.101276
-0.27583 -0.071545 0.632874
-0.100495 0.117405 0.784102
0.54203 -0.553075 -0.71384
0.338569 0.400249 -0.26029
-0.59256 0.297373 0.544495
0.618459 -0.549659 -0.37444
-0.0468259 0.338176 -0.168702
-0.463865 -0.132689 -0.980062
-0.965763 -0.579671 0.164019
-0.32533 0.0325287 0.228482
0.70337 0.010948 -0.0432444
-0.212354 -0.458505 0.052143
-0.0241757 0.184551 0.910117
0.371336 -0.024412 -0.992408
-0.735059 -0.469357 -0.464813
-0.477074 -0.301221 -0.982304
0.682898 0.179439 -0.492576
0.303058 -0.723039 -0.625007
-0.18405 -0.160039 0.214822
-0.371888 -0.589324 -0.963595
0.903246 -0.160802 -0.843189
-0.308421 -0.244776 -0.965831
0.210575 -0.0389965 0.257369
-0.693823 0.694353 0.943831
0.290255 -0.658811 -0.809925
0.173419 0.466136 -0.413681
-0.180617 0.358845 -0.619342
-0.344156 -0.29664 -0.971004
-0.537485 0.25192 -0.226244
-0.801135 -0.679098 0.114008
-0.504676 -0.588624 -0.97554
0.318774 -0.119065 -0.991231
-0.592476 0.0612661 0.338087
-0.889723 -0.649695 0.256962
-0.201103 -0.550852 -0.455284
-0.772868 -0.518574 -0.330939
-0.248681 -0.0663636 0.567339
-0.154552 0.101949 0.141508
-0.897048 -0.0903039 -0.0591424
-0.22328 0.234997 -0.601947
-0.769675 -0.491994 -0.0245926
-0.78522 -0.429683 0.57789
0.245734 0.183357 0.116969
-0.574763 -0.51549 0.03444
0.725368 0.115758 -0.220436
0.682739 0.1558 -0.192875
-0.587641 -0.445149 -0.822416
-0.808344 -0.00721478 -0.469044
0.395801 -0.476209 0.0730093
0.0674104 -0.649694 -0.796747
-0.0799606 -0.099572 0.210812
-0.0695087 -0.180869 -0.936425
-0.785416 0.125676 -0.332602
-0.697913 0.582311 0.645449
0.946513 -0.0375824 -0.741109
-0.487668 -0.59589 -0.175998
0.555723 -0.411318 0.0676537
-0.0442393 0.251738 0.936461
0.317755 0.257796 -0.0165327
-0.118768 0.142599 -0.92631
-0.893057 -0.154365 0.484706
-0.13557 -0.624934 -0.322491
-0.370175 0.270668 -0.984388
-0.432418 0.0204621 0.666146
-0.928998 -0.210805 -0.288781
-0.0915512 -0.571699 -0.969627
-0.322891 0.244343 -0.0570024
-0.979993 -0.295338 0.273471
0.482858 0.341414 -0.627012
0.140717 0.103571 -0.9274
-0.744403 0.108687 -0.0517106
-0.0650157 0.143616 0.879382
-0.521833 -0.460436 0.560761
0.0706407 0.310532 -0.129201
0.807145 -0.241544 -0.895416
-0.586248 0.223401 -0.260474
-0.606009 0.146731 -0.506082
-0.20402 -0.0114356 0.825271
0.378539 -0.622138 -0.792865
0.144193 -0.676447 -0.16461
0.103269 0.353586 -0.152777
-0.881524 -0.007054 0.163475
-0.24869 -0.34086 0.18337
-0.289577 0.239988 -0.981467
0.733463 -0.331852 -0.89478
-0.307805 0.345626 -0.870714
-0.164509 -0.0987153 -0.937505
-0.41438 -0.253557 -0.972696
-0.332508 -0.095882 -0.987559
-0.257425 0.087507 -0.925808
-0.537511 0.016477 -0.780592
0.698839 -0.393924 -0.789851
-0.457212 -0.165417 0.617899
0.91164 -0.0275344 -0.806057
-0.572576 -0.608145 -0.953688
0.439817 -0.555918 -0.814711
0.477073 0.233505 -0.0745024
-0.86778 0.0313247 -0.270812
-0.679768 0.577919 0.886835
0.207857 0.0379357 0.228548
-0.386088 0.053975 0.226537
-0.446735 -0.356374 0.418043
0.0778225 -0.679401 -0.729805
0.959561 -0.156643 -0.770979
-0.0937573 0.45631 -0.249495
-0.863131 0.0476585 -0.200306
0.565827 0.290988 -0.295739
-0.886565 -0.458006 0.50427
-0.593961 0.630407 0.710147
-0.708957 0.522914 0.631721
-0.620213 -0.587926 -0.188366
0.341908 -0.615034 -0.837543
-0.253754 0.311053 -0.811233
-0.61868 -0.650005 0.0661091
0.713288 0.146868 -0.436441
0.61272 -0.530809 -0.513934
-0.416973 -0.605989 -0.909851
0.295519 0.294302 -0.147289
-0.496803 -0.598107 -0.404307
-0.422976 -0.438184 0.283183
-0.666499 -0.715143 0.227854
-0.755932 -0.287866 0.611788
-0.763053 0.0783177 0.528216
-0.63098 0.602009 0.620076
-0.729923 -0.052028 -0.970626
0.872989 -0.293659 -0.825427
-0.00159978 0.0669001 0.651477
-0.0199755 -0.715525 -0.472296
-0.377739 -0.390797 0.172612
-0.145063 0.398 -0.229437
-0.383866 -0.602591 -0.34118
-0.143906 0.114733 0.914853
-0.741421 0.446652 0.720155
0.610072 0.253213 -0.590192
-0.387943 -0.54208 -0.031944
0.609127 -0.554907 -0.251466
0.609324 -0.530876 -0.586058
-0.610121 -0.222722 -0.878479
0.440975 -0.659719 -0.276104
-0.554688 -0.571031 -0.0755742
0.43685 0.296414 -0.135602
-0.256712 0.265866 -0.103759
-0.0252342 0.175623 0.985906
-0.246258 -0.25716 -0.985212
-0.866746 -0.42911 -0.219656
-0.0179877 0.477397 -0.592219
0.751752 -0.231604 -0.109082
0.638189 -0.516026 -0.204322
0.334404 -0.687612 -0.23891
-0.164836 0.299781 -0.173061
0.581952 -0.444661 -0.853392
-0.110913 0.477116 -0.511686
0.795121 -0.295889 -0.336899
0.107252 -0.224942 -0.938375
-0.580486 -0.280578 -0.909648
0.148534 0.221643 -0.981514
-0.241346 0.1379 -0.670584
-0.191646 0.412293 -0.310593
0.422522 -0.545737 -0.973918
-0.772444 0.0567382 0.210613
-0.325761 -0.574501 -0.16929
0.0226627 -0.607965 -0.157863
0.481837 -0.20451 0.207724
0.329642 -0.650185 -0.182417
0.97609 -0.0853818 -0.570716
0.0857906 0.488492 -0.407542
0.33471 -0.493195 0.0870864
0.651087 -0.236747 -0.963343
-0.197732 0.274876 -0.775194
-0.729539 -0.059407 -0.565194
-0.352837 -0.0207594 -0.985652
-0.778978 -0.42503 -0.453971
-0.7127 0.104064 0.000616746
-0.0268741 -0.580435 -0.115632
-0.705345 0.0670098 0.111428
-0.97356 -0.163501 0.19765
-0.283045 -0.559492 -0.876084
-0.787953 0.240013 0.659045
-0.371916 0.166222 0.116635
-0.63936 0.202032 -0.386993
-0.587894 -0.599901 0.082037
-0.649564 -0.236867 -0.95058
0.166232 -0.203126 -0.947519
0.788316 0.0197034 -0.448034
-0.872435 -0.240518 -0.412934
-0.0769459 0.409448 -0.711425
-0.407083 -0.00731992 0.262603
0.780294 -0.313771 -0.265335
-0.463489 0.248715 -0.0920366
-0.66758 0.676137 0.753566
-0.534625 -0.0952819 -0.704879
-0.14281 0.180508 0.700764
0.050436 -0.70491 -0.564745
-0.0779071 -0.691209 -0.440235
-0.902893 -0.174882 0.417789
0.0902594 0.464692 -0.543624
-0.466286 -0.48513 -0.782802
-0.199631 -0.15158 -0.97366
0.749672 -0.403391 -0.375984
-0.361343 0.223732 -0.42389
0.285106 -0.599182 -0.86419
-0.695056 0.059979 0.415848
0.559665 0.0206208 0.118169
0.430731 0.169614 -0.962854
-0.71623 -0.12351 -0.971802
-0.437006 -0.469025 0.116736
-0.656785 0.0791433 0.665788
-0.875817 -0.00182928 0.244321
-0.260317 -0.120083 -0.987941
0.989435 -0.169765 -0.687532
0.342069 0.156035 -0.993077
-0.272907 -0.417952 -0.983951
0.064514 0.230601 -0.97698
-0.0257204 0.129958 0.640879
-0.770352 0.028757 0.572229
-0.206455 0.115229 0.870054
-0.0930181 0.282459 -0.057501
-0.404005 0.276341 -0.940026
0.935248 -0.110621 -0.515912
-0.449053 0.0466716 -0.984808
-0.270773 -0.482453 -0.983124
-0.745874 -0.497127 -0.40916
-0.717522 0.636303 0.938456
0.616271 0.06128 -0.917978
-0.697026 -0.262763 0.616106
-0.933921 -0.408237 0.45172
-0.466895 -0.412376 -0.756513
0.284713 -0.721685 -0.558301
-0.37222 -0.270416 0.306061
0.775836 -0.108687 -0.145429
-0.114708 0.338251 -0.187616
0.113186 -0.356824 0.223144
0.853375 -0.369271 -0.742553
0.123307 -0.0365777 -0.933544
-0.453512 0.0353924 0.237548
-0.860533 -0.36765 -0.379785
0.280322 0.0579382 0.219065
-0.604013 0.353548 0.736678
0.141498 -0.692959 -0.744571
-0.564948 -0.226319 -0.982369
-0.288023 -0.560365 -0.557112
0.570973 0.19482 -0.800376
-0.441064 0.134538 -0.606955
-0.372342 0.111527 0.18406
-0.611349 -0.356702 -0.974652
-0.552895 -0.555901 -0.472463
-0.809533 -0.439616 -0.0139468
-0.218344 -0.0595576 0.644071
0.650935 -0.393826 -0.0268459
0.0260562 -0.330617 -0.936491
-0.410152 0.215904 -0.909373
0.176565 -0.509811 -0.972462
0.360878 -0.674928 -0.657225
-0.791504 -0.0564066 -0.495301
-0.90591 -0.479704 0.449956
0.261249 -0.350808 -0.93614
0.474685 -0.536804 -0.859952
-0.32379 -0.538485 -0.0292187
0.450915 -0.64681 -0.584461
-0.942847 -0.265619 0.531945
-0.566181 -0.024288 0.546877
-0.343094 0.276539 -0.216344
-0.762016 0.638202 0.912748
0.884104 -0.164618 -0.501136
0.100421 -0.49252 0.114341
0.0170672 -0.560591 -0.0585185
-0.736218 0.273304 0.771007
-0.807726 -0.314243 -0.481149
-0.363703 -0.583867 -0.880697
-0.585732 -0.542593 0.467346
0.592756 -0.121125 -0.993134
0.147633 0.448293 -0.579133
-0.567075 0.228225 -0.373154
0.896865 -0.272492 -0.535048
0.230067 -0.706442 -0.712216
-0.502375 -0.618014 -0.246185
-0.288969 0.275417 -0.174365
-0.499604 -0.0116243 0.538426
-0.258578 0.28494 -0.368483
-0.521269 0.056151 -0.984387
-0.114304 -0.668628 -0.382105
-0.764394 -0.316159 -0.524179
-0.673828 -0.302375 -0.606688
-0.844671 -0.447444 -0.13808
-0.00392429 -0.574822 -0.975547
-0.0110211 0.163 0.10799
0.171168 -0.620175 -0.955822
-0.156954 0.331248 -0.760944
-0.00342227 -0.237559 0.227734
-0.583718 0.308338 0.690091
0.519239 0.0754225 0.11871
-0.86542 -0.0519349 -0.0138498
0.106741 -0.626667 -0.141613
-0.515505 -0.173204 -0.985691
-0.539378 -0.00341716 0.47624
-0.738575 -0.00048529 0.62188
-0.528037 -0.535514 -0.0159306
0.491062 -0.657474 -0.405004
-0.149037 -0.560991 -0.447041
-0.925344 -0.105272 0.0843791
0.102893 -0.29882 0.242291
-0.742424 0.491147 0.75521
0.225871 0.319436 -0.890744
-0.217096 -0.654549 -0.958239
0.808153 -0.157279 -0.343562
-0.973818 -0.406304 0.194652
-0.186971 0.152286 0.655894
-0.906435 -0.606892 0.297723
-0.609827 -0.32552 -0.619952
-0.0877351 0.206136 0.728931
0.207969 -0.745677 -0.328821
-0.705996 0.399547 0.823916
0.591389 -0.435144 0.0102949
-0.380796 0.0414583 -0.984102
0.731867 -0.374571 -0.677868
-0.395703 -0.514244 -0.773261
-0.446022 0.14918 -0.934704
0.621659 -0.117843 0.100409
-0.586725 0.241865 0.67256
-0.2651 -0.320702 -0.978845
-0.0551207 -0.60048 -0.183574
0.0937959 0.0724479 0.204058
-0.861972 -0.304878 -0.410311
-0.129358 0.0819356 0.739416
-0.123418 -0.556542 -0.519636
-0.0646951 0.0673983 0.68741
-0.139216 -0.665922 -0.981787
-0.394714 -0.223234 0.359433
0.749385 0.110836 -0.77333
-0.959311 -0.447604 0.234202
0.331779 -0.560036 -0.0845775
0.736181 0.0883481 -0.701647
0.782741 -0.33454 -0.397846
-0.0207689 -0.642269 -0.186939
-0.693915 0.597487 0.719207
-0.724762 0.146842 -0.112684
-0.285808 -0.0466746 -0.976657
-0.00447444 -0.68291 -0.899594
-0.945917 -0.210279 -0.205407
0.765833 0.0431085 -0.519411
-0.541282 0.21262 -0.435881
-0.312266 -0.534595 -0.978594
-0.747643 0.357885 0.674194
0.443176 -0.664247 -0.523308
-0.720124 0.516343 0.557165
-0.563383 -0.614862 -0.212334
