4.6584 5.4429 -5.3056
4.11368 6.53332 -19
-4.64773 1.98652 -5.6946
-4.66137 -9.99963 4.26207
1.17956 9.91308 -5.96811
5.52469 5.93248 -13.5468
11.7995 5.62643 -5.73391
-2.34663 5.65016 17.2057
6.63883 -9.99947 9.88986
-8.19954 -1.12722 8.05838
-6.35482 6.11155 -9.9994
-5.54425 8.24549 9.99945
2.64777 5.0821 5.93577
-4.19723 7.93326 0.218558
7.74521 3.69395 -11.8735
11.7994 1.93754 -7.87551
-8.10439 -9.99942 -5.34082
-2.53097 6.34322 -4.17751
-5.0551 -1.42834 17.1512
2.56031 -4.68889 19
11.7995 -6.41993 -4.34303
-6.43268 0.939759 -5.93429
5.75389 6.42311 -4.51378
1.6342 -9.83754 -9.99952
6.35004 9.94109 -3.92125
-8.1993 -6.61561 9.92155
4.95104 -9.92153 -5.10204
11.7996 6.0853 -0.574606
-8.19944 -3.47644 5.02732
1.85332 -6.90898 -6.01636
-0.438527 6.65032 -17.1428
-8.1995 7.89795 1.96477
7.62472 4.13921 -10.0003
8.34493 -9.99934 -9.91806
7.10265 2.62582 5.39364
11.7995 6.32975 4.93083
1.75154 1.20095 19
-4.53461 -8.37089 9.9995
9.9925 6.17549 9.99944
7.22113 4.42473 18.9225
-2.36212 9.99927 4.51116
-4.01827 -8.01261 1.49854
4.30122 -6.54539 15.4529
8.38835 2.37542 15.4158
4.89577 -3.18937 5.15094
11.7994 -0.0666781 6.12527
5.75057 5.68166 -18.9998
3.79723 -6.70722 -10.0916
3.19145 -6.31825 5.84674
-8.1995 3.24357 -9.86688
7.65544 -3.8385 -17.0446
-8.19954 -7.85578 -2.28888
9.72126 -9.99958 -1.15292
2.16473 6.93181 18.9991
7.76404 3.48205 -18.9999
-1.2566 8.24098 5.16466
6.49335 -5.19086 -17.1149
-6.36655 -7.68696 9.99937
0.594291 2.98933 19.0001
-8.19919 9.88952 -6.33782
11.7994 7.70155 -5.99555
2.69154 0.662751 -5.99607
1.26925 -7.98322 5.97448
-8.19957 -0.997629 -6.05507
11.6693 -9.86217 -9.99879
-3.65414 -7.98974 -9.9995
3.99714 -6.64399 -15.3942
11.7996 -1.3976 9.89412
-3.18826 7.95428 -3.32588
-8.19951 5.92304 -7.81601
-0.444097 -6.6483 -14.7611
9.82354 -2.13474 -5.61859
7.71416 5.79399 -1.62572
7.61379 5.70584 1.87051
11.7995 -7.83005 3.73852
11.5715 9.99956 9.8679
-4.24225 -9.99963 -0.971881
2.83121 6.92157 -11.8319
7.3319 -4.28902 13.5514
-6.50555 9.99953 -4.49255
4.52498 9.87783 -9.99944
-8.19954 -8.07089 5.6843
6.90301 5.00466 -3.32731
-4.23184 3.56516 11.8994
-4.93616 -1.62828 18.9992
4.93708 6.25444 17.0456
-4.26778 -9.99947 0.694223
-8.19954 -9.92484 2.59001
-6.54587 4.28661 4.19803
-8.19951 -2.66024 -7.901
11.7995 6.93589 3.00334
-8.19995 6.02518 1.07858
-8.19956 -8.49582 3.75382
-3.58362 2.5651 5.4257
-2.33541 -5.65988 -15.5366
11.7994 -6.04804 -0.828372
0.702385 -9.99947 9.90289
-1.1148 -6.36832 -18.8948
8.57369 -1.33934 -18.9998
3.96677 -2.38784 -19.0001
-4.76775 -2.4343 15.4401
-2.17758 3.76114 4.67441
0.105066 -9.99955 -7.90128
3.99526 6.6001 18.9999
4.1392 6.60739 11.9019
9.94613 -3.82939 -4.6316
-8.19949 -5.69434 8.35092
11.7998 0.835094 -9.93989
-4.66477 2.69835 17.1099
-4.42825 -3.19834 18.9074
-6.48961 6.60994 9.99946
-4.18314 3.64271 18.9131
-6.09025 -9.99963 -2.1991
11.6816 -4.57109 -3.91073
9.52239 -5.62083 2.15115
-6.03394 4.31149 -9.99956
11.7995 0.0283818 -7.92704
-5.00418 1.70436 11.8753
-1.96349 9.90984 -4.66921
-3.36845 -4.71013 18.9137
4.19336 7.94896 -5.49994
-0.508162 9.99908 -5.66742
10.0459 9.99954 -4.82291
-4.37525 6.15479 -9.99955
-1.69507 8.00808 -4.87773
-4.82303 0.958841 5.93121
10.1025 -2.51032 9.9996
0.884941 6.96681 -11.8911
6.28551 8.27287 4.02415
-3.84052 -9.99914 2.38768
0.580859 4.76948 5.90917
6.33568 -8.23415 3.95711
6.28948 -6.30786 3.99992
-8.06968 9.99967 -9.84206
1.73157 -7.00298 18.9347
1.81048 7.00873 -13.674
8.26703 -9.99969 -4.73556
-4.25264 9.99948 -5.53969
11.7994 -8.00757 -7.98979
-6.31205 2.78452 -5.32058
7.00683 4.68383 -18.9029
8.4461 2.01512 -18.9995
-4.59827 4.31004 4.16983
-8.19948 -3.56721 -9.8731
11.7995 -2.74546 7.65523
8.79636 0.105376 15.4621
-0.928493 5.87322 -5.34482
-4.94518 1.88132 15.2918
8.82892 -9.99953 -6.59698
-8.19949 7.99102 5.9797
-8.19953 8.10929 0.00451812
-8.19952 8.00712 3.78357
11.7253 2.52072 -9.99945
0.0148337 -0.683556 -19.0001
4.93034 -6.80384 5.11592
8.26222 -2.68306 13.6326
1.73526 9.9995 8.00009
-8.19943 8.32155 8.00883
-5.05994 -1.41121 13.6788
4.786 8.24311 5.20822
1.65596 -7.00191 -15.409
9.8244 -5.68214 -1.96905
1.72086 -7.00237 11.9844
8.06386 -3.12618 -18.91
-4.07207 -5.76178 1.71042
5.88135 -5.68783 -15.3311
11.7997 6.17114 1.14046
-4.26541 -3.52807 17.1288
-3.38099 -5.35818 3.06628
9.36149 9.99963 2.79513
-1.25463 -6.30694 13.6644
9.97566 3.87164 -4.60889
-8.1997 5.54664 2.65132
-6.20902 9.9996 0.161857
3.97315 1.44709 5.82336
-2.68876 2.32821 -18.9998
11.7995 -0.749994 8.03357
-1.39034 -9.99943 9.89279
-0.602603 -8.29496 9.99956
-1.45977 -8.14971 -9.99951
-0.243275 9.99961 -7.82335
0.527186 -5.06087 18.9999
11.7995 -1.78326 -8.16548
0.81777 -4.05102 5.94046
10.3816 -0.112481 9.99964
-1.85626 -5.97245 18.8962
2.29428 6.91178 -18.9996
-8.11555 9.9993 -0.920776
2.55066 -1.22196 -5.96317
-0.76346 -4.91895 5.45168
-3.81687 -9.99939 -2.53721
-4.15722 3.68574 -15.3163
0.782166 -6.95235 13.7369
8.79671 4.85622 -3.52932
-2.89531 -5.20473 17.1319
9.91991 5.5415 -2.28851
1.7501 9.99965 -7.96624
-4.87391 1.8284 18.9999
8.5484 1.90526 -15.3172
-2.71016 -5.23644 -18.9997
-8.09951 -4.73379 9.99955
4.54312 -0.715022 -5.99136
0.933867 9.92843 -9.99945
8.95068 0.918972 -10.0001
6.75073 -9.99964 3.57477
11.7158 -9.99935 -8.30224
-8.19955 -8.0775 -0.322617
-5.97366 5.38499 2.65534
-0.478096 -6.63298 -16.6879
11.7998 -4.44235 4.19434
0.314307 6.76804 18.9995
-3.64766 4.41175 16.9725
8.36324 2.67127 -9.99986
-8.09619 1.39315 -9.9996
6.7581 -9.99966 -6.04227
9.76459 6.00768 -0.49377
-6.03638 -2.52436 5.43603
-5.85598 -5.30574 2.82505
-1.49719 0.572267 -18.9999
-8.19948 -5.26881 -8.1542
7.40886 -4.19954 -15.2648
1.34734 -5.9007 5.97834
-1.81489 -5.99204 -13.6949
11.7994 -8.15262 9.91489
-3.65088 -9.99963 6.08556
6.32474 -5.347 16.5565
8.04654 -3.20057 -13.6178
11.7146 8.25602 9.99927
-2.14917 -5.96662 -10.0001
11.6208 -0.906572 -9.99948
11.7036 -1.65345 5.76822
-5.19273 -0.0867473 -18.9123
5.43128 -6.07122 -4.78039
2.18377 1.45272 6.00752
8.34517 -9.99965 4.23635
4.81913 9.88507 -5.17357
11.7996 4.45294 4.21618
8.69334 -1.21514 -13.6498
-6.07697 -9.9996 1.89077
1.65301 4.99895 -6.00147
7.69311 -9.99947 8.07403
3.89431 6.62182 5.61966
-6.06034 5.89576 -1.16381
-1.57234 6.13606 18.9151
-0.352804 -9.99868 -5.7639
7.71834 9.99923 1.53801
2.06003 -9.99941 -8.00153
11.7414 0.717832 9.9995
-1.60153 -9.99972 5.08094
11.7996 9.88023 -6.33066
5.3555 -3.79593 -18.9999
-2.37358 5.62865 15.3532
2.16791 -9.99995 6.10651
-6.71186 -0.925915 -9.99973
11.7995 8.03169 -0.0921508
8.63367 -0.99324 18.9997
11.7996 6.38 9.90141
-0.730926 -6.52459 -12.2666
-1.04542 9.91919 -9.99929
1.18176 9.99951 9.9325
-5.20352 -0.400786 11.85
5.69555 5.80839 18.9099
9.81372 2.08063 -5.64439
7.76227 -8.02251 0.713935
11.7042 0.579453 -5.97046
11.7995 -7.80316 1.87803
3.63351 9.9996 -8.22229
11.6817 -8.21569 -9.99966
11.7995 8.20163 -9.91879
4.72964 -6.35835 13.5152
5.86721 9.99958 -8.25361
3.93166 -4.49102 -5.61262
11.7997 -9.88861 2.80757
-4.97857 5.06018 -3.2333
-8.19954 9.83088 -4.56473
-2.04799 6.54722 4.59841
-4.76453 -2.43208 11.8797
1.77048 -9.99962 8.04919
8.95759 -0.811092 -10.0001
3.51971 4.90753 18.9999
0.642119 -1.97057 -5.9174
-8.19957 5.6374 -5.6817
-2.86787 5.22613 -11.8684
10.043 -9.88426 -9.99939
-5.64285 2.95163 5.24661
11.7998 2.20003 -5.70694
-8.19949 9.89525 4.81945
-8.12426 -0.161373 5.99824
-6.41387 4.2275 -4.25545
11.7995 -5.58215 -2.52529
-4.19328 3.63409 -11.8821
7.91347 -9.99941 0.192573
-6.28489 -2.86015 -5.28101
0.0191149 8.40766 -9.99957
-8.10191 -9.99945 -1.31445
11.7995 -6.72034 -6.28092
1.66574 -5.02659 -19
-2.04802 -5.85359 -17.3283
2.54496 -0.417569 5.99211
-3.61613 4.44771 -17.1093
-0.472006 -6.72321 5.58004
1.68158 -1.11198 -19
-1.58976 -3.29507 5.0312
-6.66886 0.119694 9.99962
5.55225 -3.86411 -4.67615
-3.10278 9.99949 -3.6556
-6.00586 -7.83638 -9.99943
-3.01102 9.90934 -9.99925
7.7527 9.99954 -7.77042
7.12449 -4.5393 -18.9117
7.17401 9.9994 9.9266
6.0262 8.00535 9.99945
11.7994 5.91971 -7.82374
-4.78812 -6.16742 9.99966
-5.26286 -0.430304 -9.99962
-3.25684 -6.64468 -3.22796
-5.19717 -0.290141 15.3735
9.91497 9.99944 -6.78231
-2.21205 -5.75193 11.8986
7.87879 -3.40356 -4.93596
5.06824 -6.19081 -13.6492
9.3679 9.99935 9.92427
5.77639 6.4302 4.49721
-8.19952 0.307945 9.86914
3.67955 -6.64584 18.9998
5.8585 -1.3823 5.83419
-3.84489 -4.14946 -11.9381
-8.19952 -6.58532 6.81705
6.11454 -5.52604 14.4412
-4.63551 2.76611 -17.0822
-8.19955 -6.60924 -4.21018
-3.27051 4.82524 13.7132
-4.52187 -3.00123 -17.162
-2.99581 4.97168 18.9998
6.00273 4.11053 -4.39483
8.79748 -0.291605 17.2663
10.0237 -9.99957 -3.28801
-6.41759 -5.44525 -2.51066
-0.943046 8.38047 9.99951
-1.4079 -1.56776 -19
3.96162 -9.99946 5.75504
-6.29861 -0.599058 5.98338
-6.27324 -5.24801 9.99947
10.0987 2.94059 -9.99959
8.07748 -2.92029 19
-8.19935 6.71448 -9.89072
-6.36678 -3.37665 -9.99971
-5.15532 0.900451 10.0874
6.50008 1.79809 -19
-5.02512 -1.97626 -9.99997
-1.12831 6.36537 -11.8333
5.92644 -7.96813 9.99939
7.02244 6.85767 -2.96294
2.8502 8.2405 5.90422
-5.16787 0.736917 17.1174
10.0697 9.99948 8.07535
-4.78685 -9.99951 -9.91199
5.93642 4.22213 4.34623
11.6048 5.29439 2.84169
-4.66308 2.71317 -13.5822
6.1887 -5.46584 -11.876
11.7997 -9.85223 9.85743
7.96217 6.24968 -9.99959
-8.19936 -8.43379 -9.89084
4.17901 -2.51855 -5.50958
-3.99673 -9.99949 -7.90485
2.45545 9.99977 6.09585
7.99563 3.28304 13.7222
7.07928 -4.5938 18.8893
6.04453 5.57854 11.81
11.7996 9.91223 4.62954
9.83663 -0.0855745 -5.99714
0.0165546 8.11536 -5.73134
-8.10883 -3.71219 -4.73233
6.73051 -4.81976 -3.61531
3.39036 -0.6585 -19.0001
-8.19946 1.55355 5.92913
-8.19946 -7.9814 7.95399
-5.15664 0.855221 -17.1382
6.56122 -2.21701 -19
-1.32547 6.27428 13.6808
7.27588 -7.68213 2.46214
-8.19952 1.80117 -7.96369
7.55625 -5.64449 -2.06039
0.928936 -6.9529 10.1154
4.70657 6.37306 -11.8043
6.11595 9.99952 8.29267
-2.38816 5.61126 -10.0811
-5.19542 -0.366463 -11.8085
5.17092 3.90425 18.9998
7.47498 -9.89235 1.9513
9.35977 -7.80797 -9.99946
-8.19966 -6.08777 0.690023
8.57135 1.84885 -11.8833
11.7995 9.88447 8.12189
-8.19943 0.588142 -6.1101
10.0467 0.78736 5.96991
-4.10795 9.90751 1.07239
6.52173 2.36148 18.9999
-3.8589 9.99951 8.16914
8.16184 1.06579 -5.90808
6.63766 -5.05757 12.0584
7.55856 -9.99948 -8.09094
-4.11514 -4.03143 10.0001
6.33347 5.33594 -10.082
-3.705 4.32614 -10.0709
-8.19963 -2.41272 -5.62394
8.40404 -2.34473 -17.2556
7.99048 8.2673 9.99951
-1.92442 3.92671 -4.71618
7.50304 9.94318 -1.85953
11.7995 -6.24394 4.9609
4.75091 -5.01593 5.2565
11.7995 -4.72765 8.26102
11.7994 8.35528 -4.01532
4.88374 -9.99946 9.87877
2.11668 -7.02168 15.4721
8.10029 4.03556 4.46243
8.19963 2.84222 -13.6277
-3.76123 -4.26365 11.912
-2.84866 -5.23625 10.0972
3.07868 -6.88987 -13.8241
3.3902 4.28424 -5.81504
1.59233 4.91247 19
7.86337 -9.99976 -2.77473
4.08871 9.99924 5.65661
6.80281 -6.76026 -3.29731
6.358 -9.91915 -3.90963
7.71029 8.0596 1.04771
-6.19125 -4.31495 -4.17199
-5.87819 9.99953 2.19441
6.77258 -4.93888 -13.6024
-4.64366 2.74415 10.093
9.80958 -9.99932 -8.06151
-2.00251 -3.35559 -18.9999
-8.19952 -0.470667 -8.01157
-3.46372 -4.61413 -17.2406
-4.57457 6.30973 9.99949
5.22433 -0.946936 -19.0001
7.90185 9.99931 -0.175797
2.02128 -5.12088 -6.0255
-8.10492 9.9993 1.07409
-3.9845 7.89057 -1.65699
-2.2368 7.96548 -9.99945
-3.78227 5.44185 2.5522
-8.19952 0.932268 7.83975
-1.78101 -9.90038 -4.82455
-3.57402 4.49534 -13.5978
4.83981 3.12568 -5.17454
11.7996 -8.18581 -3.83975
6.53544 9.99969 -5.98086
1.85881 3.14311 -6.01782
8.2351 2.61377 18.9998
11.7995 7.8563 -2.10318
11.7056 -9.99923 -0.787088
-8.19949 5.86124 9.9016
9.00118 -4.8778 -3.50233
2.3501 -7.18934 -10.0001
11.7994 -4.89233 -6.10249
1.942 7.01868 11.8668
-8.10716 -9.99946 0.709372
-8.19952 -6.84535 3.55621
-4.19664 -7.95205 -0.414203
4.52529 -6.45605 -11.9167
8.51574 -2.04266 17.2057
5.14175 6.15621 13.5959
9.91246 8.09284 9.9994
-2.66599 -8.18228 -4.00241
-2.10021 -5.82138 15.4237
-4.93313 1.92984 -18.916
11.7997 4.36564 9.93663
9.97815 -4.75099 3.66581
11.7995 3.02043 5.32138
-8.19951 3.26747 6.82181
8.01513 3.39138 -4.94938
-3.62826 9.99914 2.80052
3.10837 6.88177 17.1507
-6.24465 -9.99964 -0.176184
-8.1035 -9.99957 6.53754
-2.13223 9.99955 -8.35302
7.67321 -7.69096 -1.25445
2.73396 -6.93451 -11.9972
9.78299 -5.36907 -9.99941
3.034 9.99962 -5.98636
-8.11754 -4.68048 -3.78465
-8.19955 6.45662 4.71787
-0.19321 -6.64584 18.9997
3.70455 6.73845 -13.6276
9.49131 2.56338 5.42441
8.36988 9.90172 -9.99965
-5.17007 0.73483 -13.5187
0.398476 0.611979 5.99523
-3.87628 -4.10007 -15.4638
-4.61667 -1.90473 -5.71484
11.7994 7.87527 8.20858
-2.95108 2.84375 -5.28265
11.6887 -9.99914 -6.63435
8.41602 -2.30784 -15.4211
-4.33223 -3.38998 13.6849
-2.80837 2.05253 18.9998
3.22103 -9.8587 -9.99946
-2.59411 -9.99951 8.23387
11.7995 -9.91716 8.17143
-3.15866 -1.39083 18.9998
3.7084 -2.03692 5.70557
7.93337 -6.17708 -9.99952
11.7997 -2.77736 -9.90298
-4.15472 8.0262 -9.99937
2.71074 9.82614 -9.9995
11.7995 -5.93533 -8.09227
0.73715 9.99964 6.05173
4.62743 6.40963 -15.3984
-4.19052 6.10019 -0.578487
-4.29039 9.9995 -0.598251
-0.51501 -8.48567 5.55411
11.7996 6.41238 -9.9161
11.7995 -8.01124 -0.0700302
0.617868 -8.30555 -5.91056
-8.19933 -9.89604 8.26438
11.7994 6.60293 -3.9983
-0.655606 1.36499 19
5.0307 2.89434 5.25016
3.52847 6.7966 -17.2132
-0.18234 -2.56535 19.0001
-8.19957 7.3886 -3.95956
11.7995 -2.95725 -6.84551
-6.13369 7.98232 -9.99932
5.31476 -6.06741 11.8331
6.35247 0.448113 19
-4.57443 9.99956 4.35711
-6.0795 9.99957 5.94529
6.59189 5.10167 17.183
1.70639 3.35174 6.00614
0.736837 -0.594134 19.0001
-2.61584 -9.99965 -6.31755
6.59431 9.92046 -9.99941
11.7995 1.28748 8.04573
-2.88255 4.79248 3.77677
7.14473 -5.44987 2.74976
-2.6572 5.49368 10.0003
-3.26778 -4.82824 -13.7588
9.46699 -4.49848 9.99953
11.7991 -5.5181 2.67832
6.03153 5.73894 9.99991
-4.41203 -3.22996 -13.6656
2.91852 9.99951 9.88932
4.87353 -6.28621 17.3265
-2.02108 5.86928 -13.591
10.1891 -9.99939 9.88079
6.71552 -1.468 18.9999
-2.41088 -8.42327 9.99943
-8.19952 -4.11545 -6.6355
2.17987 -3.086 -19.0001
4.0092 4.63266 -18.9998
-2.1775 5.77649 -17.1776
8.49256 -2.11911 15.4281
8.53314 -9.99941 9.89472
7.78736 -8.20186 9.9995
2.3478 -3.16797 -5.98877
11.7995 -8.36813 -5.84134
-5.16683 0.776064 13.6133
-3.40869 0.479304 -18.9998
5.40529 6.01604 -17.1641
1.55023 6.9986 -17.1549
8.68163 1.26965 13.724
-8.0919 9.9997 6.62981
11.7995 8.28 4.00026
0.275798 2.22094 5.80768
11.7995 8.22927 6.03609
9.66661 -9.99945 7.67003
-8.04203 9.78446 9.99979
0.61432 -4.00778 -5.90815
-7.95242 -9.99958 9.88123
5.67234 -5.7461 -18.9995
2.61426 1.03186 -19
4.06771 -6.62082 -18.9112
11.6797 9.99917 2.71871
8.80358 -1.17315 10.0001
10.141 2.1648 9.99958
-8.19962 2.20698 -5.73036
0.0077085 4.10255 -5.72286
-4.83317 -2.23183 -15.3639
5.96584 5.63016 15.3306
-8.19955 -5.91997 5.12764
-8.19946 -8.35347 9.90709
7.91676 -6.00317 -0.414381
7.04436 -8.04988 -9.99937
-2.86293 5.22727 -15.347
7.78925 -5.87654 1.21126
-3.30015 -7.65952 3.15237
-4.7088 2.80336 -10
-1.6235 -9.99962 6.77064
-8.10423 -4.74432 3.68988
6.1282 -5.65684 9.99979
-8.06378 -1.40151 9.9994
10.1222 9.99951 4.49433
11.7109 9.99921 0.74365
-1.8982 -6.23391 -4.72044
3.09667 6.90027 10.1054
8.47387 2.17485 11.8941
8.16042 9.9995 8.12589
4.76532 -1.10396 19.0001
5.97192 -8.1551 -4.30868
-4.9867 1.75399 -15.331
2.8384 -9.99948 9.89628
-5.86954 -9.99938 9.91462
-0.99089 -2.72713 -5.33673
3.06137 -6.89505 -16.9661
4.85229 -8.41008 5.166
-3.21027 4.89221 11.8299
1.00075 -6.96436 -13.5023
-8.19868 -9.86124 -7.65172
-8.09031 9.99962 -8.0947
-5.07531 -1.31403 -13.5632
2.70814 6.93664 -15.4398
8.78755 -0.74622 13.68
2.87977 -6.914 13.7793
-6.63056 5.34496 -2.71437
7.41155 4.19637 15.4939
9.75295 -9.99954 5.57338
9.83958 -5.99353 0.134773
8.07996 -1.29149 -5.85576
-5.11922 0.0272329 18.9997
-8.19904 8.39713 -9.90576
-8.19952 1.97798 9.91634
6.23548 -2.16098 -5.62654
8.72873 1.08939 -17.0253
-3.91927 9.99902 -2.1501
-8.06927 -9.9981 -9.76158
11.6745 9.99935 6.40507
-4.55136 2.9402 13.5867
-8.10758 9.9994 2.87687
-4.78724 -5.0977 -3.18178
0.421495 6.87186 -18.9198
-8.19947 4.57203 4.07366
1.08277 6.97226 17.0982
11.7995 -7.77523 -2.04231
6.43999 5.24135 -11.8651
9.74909 5.1468 -9.99949
-8.1996 8.01191 -2.0567
-8.19946 4.91446 -9.88019
-8.19963 6.09568 -0.610415
-0.361826 9.99954 7.99475
7.68049 3.79993 -15.3568
3.42783 3.31356 5.80611
-1.35171 6.15915 -19
8.09764 9.99964 4.50692
-4.44056 -1.06396 5.91271
11.7996 9.92003 -4.59852
-6.2779 5.96906 0.736561
-0.187556 6.72197 -13.5538
0.316245 -9.9998 5.9531
-6.57955 1.50815 5.80751
11.7995 3.90325 -6.70933
-8.19955 -3.60882 8.40338
-3.1275 7.84506 9.99935
5.48934 9.99962 6.64394
7.11399 8.5679 -2.7941
-8.07049 9.99963 8.37183
0.885495 1.6636 -5.94036
2.57083 -0.951261 19.0001
-8.1995 6.59539 7.64259
11.7994 -8.10629 5.83465
10.1033 9.83996 -9.99966
-0.149411 -6.72801 15.4227
11.7997 -9.89918 1.02584
-6.53869 2.30279 -9.99962
11.7691 2.63253 9.99944
-8.19958 -1.80361 5.85229
-1.62951 4.01672 -18.9999
-8.1995 -8.40519 -4.23069
-4.03715 -3.72394 -18.9995
-3.97461 -2.96687 5.23098
0.807155 6.48528 -5.94243
-1.67132 3.51134 18.9999
7.96234 -6.34602 9.99953
-5.25465 -1.0735 10.0005
11.7995 3.83204 -8.43087
7.88963 6.013 0.308986
-4.15974 3.66495 -18.9103
-6.41361 -9.99959 -6.09722
-4.5958 -9.99945 7.93203
-3.03761 -9.99991 -3.83327
-3.77655 -8.13035 -2.20168
3.56759 -6.30959 -5.76312
11.7995 3.23461 7.72562
-2.9649 5.05058 -18.9988
-1.13512 -7.9941 -5.22845
11.799 -3.08951 5.30126
7.08257 4.59602 -13.5998
6.54507 -9.99939 -9.89351
-3.20209 -1.47772 -18.9999
7.1407 7.43839 2.74672
11.7991 -3.13409 -5.21396
11.7998 1.6045 5.92312
8.18492 0.984439 5.92705
-1.14799 5.03259 5.22603
-8.19946 -8.12435 -6.19706
5.4867 8.09865 -9.99949
11.6962 -4.67707 -9.99933
8.64871 0.860309 18.9998
-5.95011 -9.99957 5.93165
4.92315 -6.26234 -17.1431
10.11 -3.23844 5.0566
-0.754506 6.51775 17.1471
3.55414 2.13428 -5.76588
1.50171 -9.99972 -6.11289
-0.384507 -4.66919 -19
-8.19963 -5.63901 -2.43797
4.07615 6.61798 15.2784
-8.09598 -9.99943 4.75834
-4.99396 1.74227 -11.7917
9.76984 -1.07881 5.90151
11.7994 -8.0122 7.99064
2.73507 -8.40072 -5.92431
6.98273 4.71593 -17.0806
-0.840716 2.50889 -5.46099
-8.08334 -5.58911 2.21864
-4.35227 -3.61016 -10.0002
0.936009 -6.96629 -11.6486
-8.19967 4.91493 -3.69257
9.54386 9.99948 -8.457
-8.12568 -2.94319 9.99953
6.22775 -4.32444 4.16045
-1.19158 6.33426 -15.3491
-0.236069 6.60911 5.64962
5.55887 -9.99957 -7.55501
3.80147 -9.99963 7.89508
4.51072 -7.89126 -5.37633
7.47976 -9.99966 6.05417
8.02676 6.30788 9.9996
-0.434603 9.92053 9.99943
5.75504 -5.77477 18.8936
8.1947 2.87297 10.0828
7.54864 -4.01885 15.3367
0.135917 -9.84514 -9.99948
11.7995 6.61113 6.90566
3.06869 6.41843 -5.86977
11.7202 -1.19556 -5.87976
8.7995 -0.309761 -15.3962
-3.87285 9.99961 6.19247
0.087824 -6.30581 -5.74623
4.58022 4.9225 5.33533
5.85344 9.99959 4.61264
1.64511 -2.99709 19.0001
11.7997 -3.13253 9.87388
-4.23639 5.90008 1.0575
8.83292 0.917409 10
8.23637 -4.31341 4.17237
8.22849 9.99964 -3.70949
-3.99399 -5.84542 -1.64559
0.719699 -0.982656 5.91997
-2.12156 9.99958 7.29442
11.6849 9.86629 -9.99774
-2.22085 -6.1902 4.44741
5.0371 9.99946 9.91659
-0.339091 -2.34024 5.62844
2.08307 8.16083 -6.02408
-8.19954 7.76878 -5.9364
0.53735 -6.80462 -18.9992
2.80137 2.98821 18.9999
-4.48399 3.77738 -4.67063
-6.04055 -9.99942 -7.97525
-4.3046 -3.69975 -4.72185
9.75924 -9.99953 1.04518
6.3141 5.35715 -15.3236
3.80054 -8.37193 9.99951
-8.07264 3.14352 5.11187
11.7997 -9.8995 -2.57276
0.208449 4.625 -19
-1.10324 -6.37073 17.1407
-3.04414 -9.9097 -9.99946
-8.19951 4.81736 8.15399
-6.4821 2.49593 9.99974
-3.15688 -6.93185 9.99965
3.66475 -2.77943 19.0001
-2.26237 -2.83105 19
0.258238 -2.85482 -19
-2.23872 -3.95848 -4.52416
7.25172 4.38873 10.0693
11.7995 -4.62819 6.32911
-2.08387 -8.08636 4.57537
1.52055 -8.45208 9.99965
-0.996819 0.814776 -5.97073
3.05831 6.89277 13.5718
-8.1995 -5.99903 -6.08238
6.72743 -5.07588 -9.99983
-6.44221 -9.9996 3.79687
6.85876 5.17547 3.226
-8.19962 5.75776 -2.19547
11.7995 8.23402 1.78625
11.7997 9.89782 -1.06862
8.61595 1.59146 17.0684
4.48103 -0.317591 5.99337
-2.84643 8.405 3.79699
-8.19946 -7.51668 -8.01653
-8.1995 -1.89481 -9.88818
-2.54891 -4.24779 4.23516
-6.44294 -4.09801 4.38892
5.86338 8.20997 -4.41541
9.38061 5.17888 3.04902
3.4375 -9.99922 -5.93423
-3.61668 -9.9994 9.89255
5.21603 6.26549 -9.99985
-6.438 9.99955 4.00959
9.4399 9.99958 6.256
5.54258 -9.99934 4.9049
-8.19953 5.18756 6.109
9.73047 -8.16713 9.99934
3.55863 -6.78162 11.8823
6.84502 4.87355 13.5866
6.11217 0.861887 5.95505
5.45388 3.33676 -18.9998
-3.94211 4.2574 10.0004
7.57402 -3.96207 -11.8538
-4.64411 -4.3168 4.16449
8.79691 -0.714323 -17.2048
11.6635 4.81634 -3.56724
-3.05423 -4.96073 -3.52252
4.63786 2.10815 18.9999
11.7997 -9.92449 -4.57688
7.71621 7.80127 -0.990252
-4.77949 -2.39508 -11.8252
2.12763 4.9739 -19
-0.982601 3.04379 5.32379
0.735021 0.975313 -19
4.71125 -8.21963 -9.99952
-8.08006 -6.74322 -9.99958
8.79368 -0.11522 -11.854
7.36951 9.99965 6.30123
-1.41429 -9.99949 -9.89053
-2.81392 -2.3764 -5.5116
0.781228 -0.17398 -5.99214
9.86853 9.99955 -2.79162
-0.849722 -4.78548 -5.40002
3.11287 -8.15761 5.85691
-8.19954 2.83618 8.4062
-1.8246 -9.99954 -7.95449
8.79144 0.305125 11.8646
-6.14651 4.57354 9.99959
-8.1119 9.99929 -2.85178
-0.492232 2.49986 -19
11.6593 -4.75171 9.99936
3.82991 0.629278 19
4.98359 -9.99942 -9.87472
-8.19952 3.63135 -4.96555
1.77977 6.62222 6.01015
-5.91781 9.99945 7.86428
-4.31405 -5.99677 0.153056
2.85176 -6.92378 10.0979
9.65264 4.28747 9.99955
-4.34098 9.99943 9.92734
-4.90564 -2.00459 -18.9052
-8.08154 -9.99941 -3.27626
9.78829 -9.9995 3.09279
-8.19957 -4.63903 6.62128
11.6934 9.99907 -8.15949
11.7994 7.97429 -7.9643
-2.77808 -9.88403 3.86669
7.6669 -3.81807 17.191
8.77713 0.7971 -13.7031
-0.24296 -9.99955 8.08718
3.79573 8.4447 9.99956
11.7994 -6.40392 7.27456
0.319611 6.97068 9.99998
-4.10967 9.99952 -7.777
4.63143 6.52535 9.99967
-8.19963 -2.73862 7.02131
7.68802 -0.81623 5.97239
-4.43544 -9.9996 -5.68281
11.6951 -9.99923 6.47325
1.97147 7.01495 15.3763
8.32438 9.99963 -5.67092
6.58142 2.22291 -5.59384
-1.16756 -0.485574 5.99551
11.6738 -5.92234 0.958204
8.13231 2.99417 -17.1374
9.95301 -6.34173 9.9994
7.55304 8.05728 -9.99952
-6.1297 9.99951 -6.46382
-3.02421 -5.09058 13.6799
-5.95848 -5.96868 -0.832208
8.57716 -2.53634 5.43038
-1.29935 -4.30118 18.9999
-1.90607 5.93602 11.9374
0.852061 -6.95348 17.1506
11.716 9.99917 -2.79154
-2.94277 4.81008 -3.67846
-2.49974 -1.7488 5.7478
4.78724 9.99968 -6.87592
-0.875817 9.99902 5.51185
11.6986 -9.9992 4.60856
-1.03823 6.51562 -10.0001
-8.19948 7.8284 9.92937
-5.05445 9.99953 -3.59917
-3.02202 0.386189 5.99478
2.99998 -6.89455 17.181
-6.37199 -0.964393 -5.93123
-8.19955 3.88814 -7.45193
-3.70132 -4.35357 15.4034
11.7996 -6.44754 9.85517
7.39563 -4.37602 10.0003
11.7996 5.72631 -2.15498
-8.19968 -6.03776 -0.883122
-2.33962 9.99968 -6.53774
-0.331401 6.68191 15.3534
-1.04127 -0.972433 -5.93557
-8.08949 -5.10809 -9.99948
-3.75586 5.69801 -2.2757
5.71582 -3.1689 19
10.13 -9.99951 -5.35946
1.70902 7.25575 9.99982
-4.05252 3.83845 15.2797
10.017 -3.03992 -9.99956
-5.99981 9.99943 -8.24969
11.7996 -4.02688 -8.21713
11.7996 5.33199 8.26612
7.13832 -8.61472 -2.73128
7.65298 -9.88804 -1.31502
-2.86142 -0.60794 -5.99658
-4.65646 0.102955 -5.99655
11.7997 4.57409 -9.93598
9.87335 5.8479 1.40685
1.91169 -2.50098 6.0179
-2.36715 9.99949 9.87538
3.70948 -4.6255 -19
11.7197 3.69741 -4.74481
0.683602 6.92981 -15.3783
-6.08349 -5.47072 -9.99961
-1.20601 -0.747376 19
-3.24429 6.79042 3.24745
-6.46493 -9.99947 -9.91414
3.88221 -9.99954 -8.00872
0.463313 6.87145 -10.0986
7.8917 3.45298 17.2724
4.71494 1.04427 -19
-4.41403 -6.28499 -9.99971
-8.19951 -0.081115 -9.89778
-4.78014 -2.63631 10
8.21809 -2.78942 10.0912
-8.19958 -7.9305 1.70208
9.8557 9.99953 0.984246
7.53722 4.02206 11.8726
1.1571 -6.97244 -17.3122
-0.138081 6.72714 11.994
8.80387 0.388357 -18.9131
-1.3571 6.40055 10.0005
7.83084 -3.54756 11.8129
3.4793 2.80861 -18.9999
3.84291 9.9995 7.96271
7.81596 -3.90847 -10
2.43912 -6.97916 -18.9171
-2.82047 1.17079 -5.88494
8.37026 -2.39604 -10.0939
-8.19943 7.96052 -7.91467
-6.45619 -9.99943 7.92504
3.58284 6.97023 -9.99989
8.49894 -2.11389 -11.8942
-0.28755 4.82288 18.9999
-0.305832 -6.68907 11.9047
-1.67127 1.54157 5.7957
-3.29931 -4.797 -10.0943
-5.19907 -0.23673 -15.3152
4.98084 1.0644 -5.91263
5.72315 -9.99961 7.43165
-4.75031 9.91327 -9.99936
0.729794 8.27796 5.92583
-6.41103 -3.08741 9.99963
5.44766 -6.15352 -10.0004
0.888469 6.95705 13.7152
-5.28615 0.975904 -9.99949
-1.10142 -6.36379 10.0831
6.52348 -0.0780617 -5.99504
-3.8636 7.98954 1.9846
-8.1005 3.96542 9.9996
-2.9237 0.360868 18.9998
8.59555 -1.72045 11.8762
9.72133 7.52619 -9.99946
4.42718 -4.64001 19
-6.18764 9.99959 -1.96038
11.7995 4.74265 6.29389
4.62887 -6.52181 10.0003
3.02264 -4.20404 5.87428
-5.74329 -9.99961 -4.08172
-6.4844 9.99944 -9.92411
-5.10748 -1.11733 -17.1253
-6.25869 -5.91498 1.01079
6.89395 -0.0277957 -18.9999
9.72073 9.99953 -0.983227
-6.27004 9.99948 9.903
-0.681268 -6.55071 -10.1207
7.00902 9.87093 2.97232
10.1051 4.0839 4.40378
1.54357 2.91964 -19
0.766395 -7.16962 -9.99991
-2.45747 -5.55937 -11.8699
11.6811 -6.55311 -9.99931
2.00747 7.19915 -9.99995
6.90757 -2.89028 5.25715
