4.61151 5.25756 -5.32492
3.9375 6.54923 -19
-4.58352 2.1034 -5.63917
-4.59515 -9.99964 4.41166
1.25675 9.86528 -5.97376
5.73871 5.78457 -13.5848
11.7995 5.67136 -5.6325
-2.50567 5.5201 17.3226
6.77778 -9.99947 9.84714
-8.19954 -1.07333 8.06225
-6.3691 6.33447 -9.9994
-5.8832 8.17456 9.99946
2.64683 5.0769 5.93591
-4.19715 7.97228 0.20786
7.89615 3.43616 -11.7968
11.7994 1.98331 -7.84159
-8.05978 -9.99942 -5.33525
-2.4282 6.25734 -4.27674
-4.97326 -1.79229 17.1476
2.35717 -5.15922 19
11.7995 -6.27982 -4.41045
-6.39211 1.08521 -5.90122
5.66758 6.31291 -4.59665
1.43416 -9.78707 -9.99953
6.52505 9.87658 -3.68891
-8.19932 -6.62649 9.8843
5.1779 -9.88555 -4.9574
11.7996 6.11428 -0.6926
-8.19947 -3.48835 5.07122
1.7615 -6.67455 -6.00905
-0.459708 6.64142 -17.1481
-8.1995 7.96798 1.88645
7.6872 4.14996 -10.0002
8.29786 -9.99935 -9.89298
7.16221 2.51602 5.44523
11.7995 6.39107 4.72186
1.63073 0.922521 19
-4.42978 -8.43731 9.99951
10.2008 5.80263 9.99942
7.27198 4.3651 18.8572
-2.39851 9.99929 4.58346
-4.02741 -8.11571 1.4567
4.74668 -6.35024 15.4063
8.49542 2.11436 15.4518
4.78594 -3.07111 5.22208
11.7995 0.0026077 6.15538
5.6788 5.68069 -18.9998
3.60313 -6.76733 -10.1453
3.39476 -6.14962 5.81332
-8.1995 3.23215 -9.81078
7.79068 -3.61697 -17.0132
-8.19954 -7.92391 -2.21721
9.70233 -9.99958 -1.05248
2.1626 6.86175 18.9992
7.94481 3.12912 -19.0001
-1.22008 8.321 5.18395
6.57554 -5.11619 -17.0527
-6.33514 -7.80535 9.99939
0.74285 2.71411 19.0001
-8.19926 9.85701 -6.27384
11.7994 7.59651 -6.13713
2.76628 0.841333 -5.95561
1.31674 -8.06027 5.97784
-8.19962 -1.12246 -6.06703
11.6243 -9.80463 -9.99891
-3.7143 -7.98016 -9.9995
4.30989 -6.54467 -15.4119
11.7995 -1.31114 9.83965
-3.18731 7.90301 -3.32661
-8.19951 5.91173 -7.83198
-0.587341 -6.58786 -14.5181
9.83297 -2.13083 -5.6203
7.71901 5.77614 -1.67408
7.74703 5.79581 1.5556
11.7995 -7.85284 3.69229
11.4738 9.99955 9.83602
-4.26632 -9.99962 -1.04019
3.04133 6.89312 -11.7842
7.47459 -4.11315 13.52
-6.53701 9.99953 -4.81635
4.3212 9.79014 -9.99946
-8.19954 -8.09822 5.5801
6.97143 4.99207 -3.34584
-4.14969 3.6907 12.4047
-4.93767 -1.56669 18.9992
5.03556 6.2052 17.1881
-4.31912 -9.99952 0.689076
-8.19955 -9.88669 2.54499
-6.29024 4.49537 3.99098
-8.19951 -2.71713 -7.86591
11.7995 6.921 2.76733
-8.19993 6.06727 1.0738
-8.19956 -8.44449 3.64831
-3.56839 2.41208 5.50162
-2.48475 -5.53675 -15.3766
11.7994 -6.09218 -0.850014
1.12347 -9.99948 9.85988
-1.00997 -6.41115 -18.8245
8.543 -1.46117 -18.9998
4.33671 -3.16767 -19.0001
-4.69547 -2.64423 15.3404
-2.27041 3.75945 4.67476
0.209316 -9.99955 -7.93356
4.08313 6.49111 18.9999
4.17138 6.59819 11.9301
9.84319 -3.76562 -4.67706
-8.1995 -5.79145 8.26178
11.7998 0.859831 -9.87304
-4.69281 2.64024 16.9468
-4.39967 -3.25844 18.8692
-6.44533 6.33353 9.99946
-4.20055 3.61657 18.8366
-6.0559 -9.99963 -2.28889
11.6295 -4.54001 -3.94212
9.51083 -5.58644 2.24092
-6.03083 4.54121 -9.99954
11.7995 0.0747807 -7.92374
-4.96649 1.81931 12.0844
-1.88129 9.86464 -4.73637
-3.25051 -4.84068 18.8781
4.44816 7.9413 -5.39804
-0.518984 9.99942 -5.79338
10.0612 9.99954 -4.73748
-4.37504 6.19272 -9.99954
-1.82583 7.93642 -4.77482
-4.81732 0.900746 5.94416
10.0879 -3.04795 9.99958
0.987038 6.96983 -11.9278
6.43033 8.31042 3.8316
-3.88531 -9.99929 2.44562
0.505967 4.77544 5.88471
6.40507 -8.24961 3.86118
6.38821 -6.35382 3.90071
-8.02 9.99967 -9.76606
2.2588 -7.01637 18.8249
1.87164 7.01218 -13.5871
8.33574 -9.99969 -4.68195
-4.36125 9.99949 -5.43117
11.7994 -7.82832 -8.2094
-6.33818 2.82755 -5.30108
7.10693 4.55966 -18.8844
8.4658 1.63726 -18.9996
-4.44565 4.11547 4.37299
-8.19948 -3.57106 -9.82071
11.7995 -2.85463 7.57833
8.79273 -0.204649 15.6012
-0.720812 5.99239 -5.46647
-5.04784 1.486 15.548
8.95114 -9.99953 -6.50792
-8.19949 8.05612 5.90041
-8.19954 8.11434 -0.1002
-8.19953 7.90391 3.71709
11.616 2.49448 -9.99945
0.0716718 -0.684125 -19.0001
5.0469 -6.79633 5.04004
8.32451 -2.52728 13.3612
1.84184 9.99951 7.99986
-8.19944 8.25407 7.94096
-5.0386 -1.54273 13.6024
4.92426 8.22748 5.12362
1.35366 -6.98189 -15.44
9.84134 -5.71828 -1.88567
1.50359 -6.99066 12.0698
8.07127 -3.1103 -18.8763
-4.02142 -5.97956 1.49318
5.98807 -5.61532 -15.2763
11.634 5.90148 1.10271
-4.10785 -3.75901 17.0671
-3.63493 -5.26806 2.87888
9.32709 9.99964 2.72873
-1.35257 -6.26589 13.6319
9.94885 3.80549 -4.65629
-8.1997 5.58645 2.68963
-6.1639 9.9996 0.288775
4.00256 1.50182 5.81047
-2.69434 2.4058 -18.9998
11.7995 -0.901163 7.98748
-1.07899 -9.99944 9.87269
0.353684 -8.47513 9.99957
-1.55007 -8.13515 -9.99951
-0.0194805 9.99962 -7.94641
1.07051 -4.04861 19
11.7995 -1.70217 -8.17532
0.651872 -4.38432 5.9277
10.2369 -1.09055 9.99964
-1.71079 -6.0538 18.8657
2.14283 6.86638 -18.9996
-8.06683 9.99931 -0.944094
2.59375 -1.11899 -5.95749
-1.06303 -4.84808 5.27871
-3.81078 -9.99938 -2.64076
-4.14803 3.69914 -15.3582
0.645561 -6.9194 13.6928
8.99839 4.90326 -3.46271
-2.7508 -5.3215 17.0981
9.89106 5.67501 -1.97926
1.87078 9.99965 -7.93926
-4.8176 1.89931 18.9999
8.44337 2.23886 -15.3399
-2.62015 -5.26691 -18.9997
-8.05956 -4.78626 9.99955
4.5592 -0.659082 -5.99209
0.863194 9.86198 -9.99945
9.08852 0.704286 -10
6.79978 -9.99964 3.57766
11.6783 -9.99939 -8.20875
-8.19955 -8.1316 -0.259475
-6.03498 5.49367 2.40379
-0.636632 -6.56669 -16.3882
11.7998 -4.45404 4.23739
0.25284 6.70906 18.9996
-3.72449 4.32729 16.8789
8.55158 2.38349 -9.99986
-8.00588 1.3759 -9.9996
6.85953 -9.99966 -5.90544
9.82678 6.00552 -0.0869739
-5.95523 -2.66241 5.37174
-5.87239 -5.30577 2.82498
-1.47634 0.499397 -18.9999
-8.19948 -5.24214 -8.16369
7.47244 -4.12307 -15.2764
1.58095 -6.04116 5.99408
-2.00004 -5.87923 -13.5687
11.7994 -8.10319 9.86477
-3.46838 -9.99964 6.13392
6.29653 -5.3732 16.6812
8.06445 -3.16542 -13.7007
11.6848 8.27814 9.99927
-2.19642 -6.00162 -10.0001
11.5459 -0.871098 -9.99949
11.6602 -1.59889 5.7829
-5.19192 -0.173499 -18.8775
5.35818 -5.79942 -4.82243
2.17927 1.66347 6.01144
8.47582 -9.99962 3.9613
5.18533 9.87427 -4.9531
11.7998 4.44212 4.32534
8.71178 -1.12546 -13.7257
-6.13432 -9.9996 1.84348
1.41497 5.28629 -5.9823
7.71496 -9.99947 7.96673
3.88162 6.62041 5.62466
-6.04369 5.84567 -1.36149
-1.5587 6.1441 18.8693
-0.295744 -9.99876 -5.83192
7.81131 9.99955 1.34566
2.1239 -9.99942 -8.04744
11.5912 0.5376 9.99951
-1.54625 -9.99972 5.13428
11.7996 9.84048 -6.24169
5.97963 -3.21575 -18.9999
-2.37185 5.62996 15.4676
2.3735 -9.9999 6.12006
-6.71338 -1.1425 -9.99974
11.7995 7.94503 -0.128765
8.59838 -1.06658 18.9997
11.7996 6.40361 9.86337
-0.763556 -6.51106 -12.2603
-1.10454 9.8879 -9.99929
1.23523 9.99951 9.94334
-5.2025 -0.292672 11.8749
5.86895 5.69448 18.8643
9.81921 2.1009 -5.6351
7.80227 -8.03774 0.310699
11.6704 0.608268 -5.96832
11.7995 -7.77835 1.75878
3.71607 9.9996 -8.19896
11.6519 -8.16108 -9.99961
11.7995 8.20942 -9.87379
4.49796 -6.47302 13.5608
5.9513 9.99957 -8.36233
3.80387 -4.46075 -5.66901
11.7997 -9.85271 2.7521
-4.89289 5.06175 -3.23116
-8.19954 9.74941 -4.46753
-2.05646 6.67343 4.59136
-4.78167 -2.37908 11.7971
1.90206 -9.99962 7.99174
8.9673 -1.08878 -9.99999
3.33245 4.68909 18.9999
0.533429 -1.69322 -5.88052
-8.19957 5.63405 -5.79327
-2.76866 5.30608 -11.89
9.98753 -9.85669 -9.99951
-5.81629 2.91608 5.26278
11.7998 2.24003 -5.73369
-8.19949 9.84948 4.73344
-8.0903 -0.194338 6.0002
-6.42024 4.2049 -4.27855
11.7995 -5.59836 -2.5442
-4.11079 3.75483 -11.8432
7.95341 -9.99943 0.11726
-6.33994 -2.74901 -5.33253
-0.212241 8.37036 -9.99957
-8.08254 -9.99945 -1.37478
11.7995 -6.70844 -6.3391
1.55303 -4.91013 -19
-2.01761 -5.87158 -17.2636
2.45367 -0.157032 6.00329
-3.6332 4.42861 -17.1455
-0.420688 -6.54377 5.5946
1.73222 -1.11264 -19
-1.72006 -3.30651 5.02147
-6.70859 0.435217 9.99964
5.45183 -3.76637 -4.75604
-3.12573 9.99949 -3.70663
-6.00945 -7.84492 -9.99943
-2.95518 9.87883 -9.99925
8.0118 9.99953 -7.91279
7.10219 -4.56604 -18.8542
7.13982 9.99941 9.88357
6.15187 7.99845 9.99944
11.7994 5.90098 -7.80831
-4.70314 -6.28412 9.99964
-5.364 -0.181989 -9.99961
-3.2239 -6.81057 -3.28039
-5.19089 -0.625817 15.4811
9.62505 9.9995 -6.48127
-2.2868 -5.69573 11.8664
7.81234 -3.39817 -4.93938
4.9597 -6.24413 -13.5781
9.3584 9.99935 9.89442
5.76186 6.41526 4.51235
-8.19952 0.22097 9.80533
3.96493 -6.54867 18.9997
5.72951 -1.356 5.84068
-4.03208 -3.86687 -11.8455
-8.19952 -6.62166 6.64469
6.11203 -5.52794 14.0242
-4.64614 2.74386 -17.0998
-8.19955 -6.51103 -4.21482
-3.04064 5.07781 13.6817
-4.48907 -3.07026 -17.1044
-2.94431 4.8899 18.9997
6.06461 4.13169 -4.37575
8.80086 -0.141841 17.3942
10.2872 -9.99954 -3.11155
-6.24915 -5.45271 -2.4956
-1.7826 8.06485 9.99946
-1.40948 -1.57186 -19
4.08625 -9.99952 5.74648
-6.27003 -0.736137 5.98206
-6.23108 -5.38731 9.99946
9.9648 3.51577 -9.99959
8.01987 -2.92117 19.0001
-8.19939 6.71616 -9.84488
-6.39167 -3.42495 -9.9997
-5.13103 1.02549 10.1412
6.40299 2.17124 -18.9999
-5.05294 -1.95244 -9.99996
-1.04303 6.39963 -11.897
6.30815 -7.8192 9.99941
6.91092 6.69378 -3.16273
2.93392 8.22591 5.89182
-5.20517 0.440862 17.2573
10.0989 9.99948 8.11883
-4.92424 -9.99951 -9.8705
5.9576 4.26002 4.32513
11.6216 5.27675 2.88055
-4.5619 2.9205 -13.5991
6.07383 -5.55846 -11.8421
11.7996 -9.78217 9.80814
7.87302 6.416 -9.99957
-8.19938 -8.41377 -9.85592
4.1099 -2.48698 -5.53955
-3.88752 -9.9995 -7.94831
2.56408 9.99975 6.1196
8.13831 2.98522 13.701
7.09859 -4.57029 18.8495
6.00542 5.60476 11.8765
11.7996 9.87251 4.72815
9.82048 -0.061608 -5.99707
-0.254147 8.23128 -5.65591
-8.09328 -3.84431 -4.63153
6.72906 -4.74721 -3.70322
3.53279 -1.16335 -19.0001
-8.19949 1.61648 5.93601
-8.19945 -7.96851 7.85093
-5.15772 0.847881 -17.091
6.8613 -1.51246 -18.9999
-1.27217 6.2971 13.9372
7.36779 -7.70834 2.26804
-8.19952 1.74824 -7.99403
7.54894 -5.57347 -2.22876
0.388193 -6.8466 10.1497
4.99206 6.22659 -11.8471
6.11581 9.99953 8.21828
-2.36734 5.62846 -10.1033
-5.1991 -0.0200826 -11.8126
5.13106 3.98016 18.9998
7.49569 -9.8884 1.88472
9.61755 -7.82136 -9.99945
-8.19963 -6.12102 0.802386
8.60954 1.64495 -11.6942
11.7995 9.79075 8.13251
-8.19943 0.537884 -6.14724
10.086 0.837552 5.9588
-4.10602 9.87318 1.08353
6.51432 2.3596 18.9999
-3.70618 9.99952 8.18818
8.20211 1.10302 -5.89947
6.74723 -4.95578 11.8934
7.53777 -9.99949 -7.95463
-4.20671 -3.99099 10
6.25996 5.40319 -10.1157
-3.6328 4.42698 -10.1242
-8.19962 -2.52486 -5.6147
8.53783 -1.94689 -17.2683
8.07075 8.40134 9.9995
-1.83423 4.02551 -4.77684
7.48686 9.88338 -1.91288
11.7995 -6.28909 4.96974
4.83602 -4.92875 5.20815
11.7995 -4.77533 8.24472
11.7994 8.37846 -4.36344
5.13681 -9.99947 9.79697
1.43268 -6.98595 15.4662
8.02542 3.95147 4.53703
8.23429 2.75464 -13.5716
-3.79673 -4.21209 11.8167
-2.90457 -5.19067 10.1203
2.98886 -6.90192 -14.2136
3.1794 4.31435 -5.84987
1.45178 4.7344 19
8.57175 -9.99971 -2.91884
4.20991 9.99928 5.63383
6.69505 -6.62059 -3.46238
6.56625 -9.91205 -3.63435
7.67119 8.05071 1.25366
-6.23745 -4.27987 -4.20662
-5.82073 9.99952 2.29253
6.76461 -4.94609 -13.5786
-4.61971 2.79498 10.166
9.74103 -9.99933 -8.0863
-1.93969 -3.34664 -18.9999
-8.19952 -0.53226 -7.97878
-3.42197 -4.65986 -17.1325
-4.38903 6.33598 9.99951
5.18499 -0.999765 -19.0001
7.96504 9.99932 -0.323567
1.97271 -4.97225 -6.02155
-8.05704 9.99931 1.01342
-3.98154 7.95657 -1.67269
-2.40609 7.91199 -9.99944
-3.8655 5.43488 2.57003
-8.19952 0.966328 7.80145
-1.66147 -9.85195 -4.89975
-3.51413 4.56014 -13.5919
4.87337 3.19419 -5.15513
11.7995 -8.08212 -4.42015
6.59332 9.99966 -6.46063
1.86742 3.0652 -6.0184
8.1728 2.69536 18.9998
11.7995 7.94512 -2.21963
11.6488 -9.99925 -0.588155
-8.19949 6.10708 9.82836
9.12151 -4.88871 -3.48328
2.20963 -7.25119 -10.0001
11.7994 -4.84524 -6.20942
2.2413 6.99478 11.9684
-8.07626 -9.99946 0.666072
-8.19952 -6.76485 3.70397
-4.19657 -7.96061 -0.390931
4.45321 -6.49119 -11.8459
8.52713 -1.9918 17.1084
4.96378 6.24191 13.6048
9.90472 7.84609 9.99939
-2.66312 -8.30252 -4.00553
-2.17635 -5.77577 15.3671
-4.96606 1.82803 -18.8799
11.7997 4.27787 9.87838
10.0851 -4.69223 3.74852
11.7995 3.10131 5.27917
-8.19952 3.20083 6.92575
8.03956 3.43209 -4.91932
-3.62804 9.99914 2.86288
3.09969 6.88303 17.1763
-6.231 -9.99964 -0.246978
-8.05451 -9.99956 6.45055
-1.91373 9.99956 -8.08758
7.57871 -7.58982 -1.6157
2.77486 -6.92911 -12.2405
9.50539 -5.50571 -9.99943
3.24271 9.99941 -5.97812
-8.06149 -4.86976 -3.49978
-8.19954 6.39845 4.86354
0.271993 -6.64768 18.9996
3.90386 6.6733 -13.5666
9.50355 2.62928 5.39284
7.8017 9.91806 -9.99955
-5.12856 0.989374 -13.556
0.424196 0.619379 5.99524
-3.96939 -3.96185 -15.3234
-4.72343 -1.79932 -5.73941
11.7994 7.60874 8.09208
-2.98788 2.92637 -5.24275
11.6073 -9.99917 -6.404
8.51396 -2.06899 -15.4393
-4.29722 -3.46137 13.5615
-2.69994 2.58725 18.9998
3.09185 -9.82957 -9.99948
-2.37124 -9.99951 8.24057
11.7995 -9.88956 8.13843
-3.29748 -1.35191 18.9998
3.43536 -1.90598 5.79605
7.8957 -7.06913 -9.99944
11.7997 -2.6893 -9.87812
-4.26781 8.04704 -9.99937
2.56903 9.77393 -9.99951
11.7995 -5.80234 -8.14814
0.852802 9.99966 6.12179
4.52464 6.46095 -15.3916
-4.17867 6.09029 -0.678468
-4.31408 9.99951 -0.643986
-0.44523 -8.36536 5.59045
11.7996 6.44815 -9.85971
11.7995 -8.01357 -0.318506
0.567868 -8.23987 -5.89679
-8.1993 -9.85615 8.16027
11.7994 6.66822 -3.95399
-0.817135 1.15551 19
5.11949 2.90013 5.24714
3.33836 6.84855 -17.1347
-0.516996 -2.53801 19.0001
-8.19958 7.25151 -4.01094
11.7995 -2.8605 -6.85686
-6.18618 8.11325 -9.99932
5.22163 -6.11338 11.8355
6.13052 0.500354 19
-4.64502 9.99957 4.43045
-6.07691 9.99957 6.00969
6.71831 4.9872 16.9499
1.68511 3.45184 6.00449
0.409819 -0.548423 19.0001
-2.62393 -9.99965 -6.31139
6.10955 9.85602 -9.99939
11.7995 1.11625 8.05604
-2.90531 4.88003 3.74694
7.21882 -5.53356 2.58508
-2.41943 5.59975 10.096
-3.43756 -4.64176 -13.5625
9.38557 -4.64152 9.99953
11.7992 -5.56688 2.71264
6.24683 5.63574 9.9999
-4.54369 -2.95591 -13.581
3.00941 9.99951 9.88433
4.70603 -6.37044 17.2913
-1.99928 5.88228 -13.6326
10.1816 -9.99939 9.81989
6.76786 -1.24845 18.9999
-1.69787 -8.3203 9.99951
-8.19952 -4.20985 -6.56667
2.368 -3.04215 -19.0001
3.93457 4.6413 -18.9998
-2.20761 5.75562 -17.1821
8.33007 -2.51509 15.277
8.56475 -9.99941 9.84167
8.14193 -8.19622 9.99947
2.22631 -2.99623 -6.00885
11.7995 -8.4553 -6.39516
-5.19594 0.517335 13.7568
-3.35086 0.467003 -18.9998
5.1175 6.16584 -17.2073
1.49039 6.99462 -17.1159
8.72079 1.07989 13.8495
-8.05137 9.99969 6.57934
11.7995 8.27093 3.96372
0.284632 2.31222 5.81109
11.7995 8.14541 6.10356
9.67885 -9.99945 7.63238
-7.99929 9.71138 9.99978
0.53025 -3.85805 -5.8816
-7.81631 -9.99957 9.84451
5.68201 -5.62321 -18.9997
2.7477 0.779861 -19
4.08864 -6.614 -18.8431
11.6232 9.99918 2.8198
8.90257 -0.400632 10.0002
10.1478 2.99903 9.99953
-8.19963 2.1866 -5.79343
0.0437757 4.02268 -5.73523
-4.87991 -2.08561 -15.3427
5.86095 5.70131 15.4022
-8.19956 -5.72249 5.18377
-8.19947 -8.33086 9.86163
7.942 -5.97896 -0.593459
6.43236 -8.17444 -9.99936
-2.8837 5.21036 -15.3405
7.85127 -5.9166 1.01818
-3.3282 -7.70324 3.1062
-4.65125 3.02573 -10
-1.40577 -9.99962 6.77529
-8.05746 -4.7468 3.68667
6.06257 -5.72814 9.9998
-7.9768 -1.41421 9.99942
10.0901 9.99952 4.50848
11.6907 9.99921 0.951592
-1.96133 -6.27847 -4.66912
3.31474 6.84573 10.139
8.39631 2.35905 11.8719
8.16985 9.9995 8.14091
4.70833 -1.28412 19.0001
5.66114 -7.79327 -4.61315
-4.93877 1.90279 -15.318
3.1896 -9.99948 9.83709
-5.63776 -9.99939 9.87776
-1.03507 -2.74792 -5.32654
2.97776 -6.9046 -16.7745
4.89025 -8.4337 5.14169
-2.96468 5.14281 11.818
1.02672 -6.96577 -13.497
-8.19864 -9.89047 -7.61289
-8.05831 9.99962 -8.00308
-5.12574 -1.01754 -13.6003
2.60665 6.95068 -15.2801
8.77255 -0.821195 13.7721
2.77179 -6.92947 14.1629
-6.59749 5.2591 -2.89319
7.46538 4.13118 15.0972
9.74778 -9.99954 5.53575
9.85371 -5.99336 0.202255
8.10204 -1.32607 -5.84737
-5.07001 0.0956959 18.9997
-8.19907 8.39177 -9.85953
-8.19952 1.96589 9.88883
6.20518 -2.11389 -5.65127
8.60154 1.65872 -17.1309
-3.92764 9.9991 -2.26093
-8.03601 -9.99832 -9.64481
11.6276 9.99937 6.44485
-4.73201 2.54615 14.0009
-8.0688 9.9994 2.80485
-4.79069 -4.9782 -3.35492
0.333787 6.84938 -18.8757
-8.19948 4.58043 4.10117
1.02864 6.96677 17.1597
11.7995 -7.75274 -2.44038
6.69705 5.00233 -11.8724
9.73648 5.49618 -9.99948
-8.1996 8.06605 -2.18865
-8.19946 4.92308 -9.84216
-8.19963 6.12953 -0.678242
-0.307431 9.99953 8.03609
7.54129 4.03089 -15.4057
3.49107 3.347 5.79387
-1.42515 6.08066 -19
8.13295 9.99964 4.50744
-4.44672 -1.21641 5.87614
11.7996 9.91361 -4.24951
-6.29219 6.00355 0.494348
-0.176098 6.72395 -13.6428
0.494426 -9.99982 6.0277
-6.55414 1.29292 5.853
11.7995 4.02718 -6.6589
-8.19955 -3.67384 8.45933
-3.66696 8.13518 9.99936
5.61091 9.99963 6.50973
7.28037 8.14531 -2.45751
-8.01561 9.99966 8.32367
0.669503 1.81924 -5.91586
2.67295 -0.882122 19.0001
-8.1995 6.54777 7.41875
11.7994 -8.13057 5.77303
9.56119 9.83275 -9.99966
-0.404911 -6.66149 15.3843
11.7997 -9.84984 1.05691
-6.51693 2.61926 -9.99961
11.6848 2.27483 9.99945
-8.02959 -1.83157 5.73511
-1.28191 3.95518 -19
-8.1995 -8.31961 -4.14631
-3.93736 -3.79983 -18.9996
-3.86245 -3.02378 5.20371
1.0928 7.16002 -5.96146
-1.14155 3.1804 19
7.96571 -6.2774 9.99953
-5.34716 -0.93277 10.0005
11.7995 3.79526 -8.39257
7.94948 6.00222 -0.0405062
-4.2212 3.56985 -18.8793
-6.43926 -9.99958 -6.17758
-4.43898 -9.99945 7.91506
-3.03039 -9.9999 -3.98275
-3.79228 -8.12287 -2.16219
3.69169 -6.41711 -5.71138
11.7995 3.06688 7.93248
-2.98148 4.94107 -18.9991
-1.12411 -7.92591 -5.2348
11.7991 -3.09045 5.34271
7.23028 4.41435 -13.6133
6.60918 -9.99939 -9.82729
-3.23365 -1.52319 -18.9999
7.09789 7.18989 2.83975
11.7991 -3.1577 -5.22997
11.7998 1.73742 5.94106
8.2138 0.848809 5.95895
-1.21577 5.1528 5.1879
-8.19947 -8.1546 -6.12628
5.75241 7.93648 -9.99948
11.6361 -4.60472 -9.99934
8.55322 0.852313 18.9998
-5.89544 -9.99957 5.98925
4.97884 -6.23468 -17.1574
10.0296 -3.18548 5.09337
-0.910112 6.45258 16.9821
3.66322 2.28468 -5.7214
1.5724 -9.99968 -6.15057
-0.425778 -4.68456 -18.9999
-8.19963 -5.8078 -2.12522
4.066 6.62147 15.4395
-8.0488 -9.99944 4.65565
-4.91599 1.97514 -11.8436
9.67 -1.09243 5.89916
11.7994 -8.06256 7.90161
2.49651 -8.28287 -5.96004
6.65097 5.04623 -17.1441
-1.016 2.47353 -5.47686
-8.0623 -5.58812 2.22016
-4.40943 -3.6097 -10.0002
0.982513 -6.96813 -11.6286
-8.19966 4.89041 -3.80323
9.94719 9.99945 -8.24573
-8.10015 -2.95017 9.99953
6.3107 -4.39639 4.07959
-1.26945 6.30184 -15.4052
-0.220538 6.67897 5.65509
5.56871 -9.99958 -7.42006
3.94599 -9.99963 7.86921
4.24943 -8.19317 -5.49152
7.62595 -9.99966 5.90548
8.08791 6.48006 9.99958
-0.486706 9.78838 9.99944
5.78952 -5.75263 18.8566
8.18211 2.90564 10.1289
7.24028 -4.40175 15.2941
-0.154206 -9.81386 -9.99947
11.7995 6.22993 6.53745
3.18375 6.43037 -5.85089
11.6696 -1.17914 -5.88539
8.79432 0.296754 -15.1754
-3.87951 9.9996 6.2173
-0.0180419 -6.16283 -5.71448
4.57348 4.91909 5.33814
5.965 9.99952 4.54542
1.36338 -2.15178 19.0001
11.7997 -2.98553 9.80422
-4.25924 5.89977 1.06248
8.92948 1.22247 9.99994
8.27532 -4.37228 4.11064
8.35545 9.99964 -3.71687
-4.10697 -5.75482 -1.75985
0.930896 -1.13865 5.96853
-2.06589 9.99958 7.2489
11.5164 9.82697 -9.99804
-2.28622 -6.29693 4.39546
5.08416 9.99946 9.87005
-0.358465 -2.47233 5.6214
2.55631 8.32888 -5.95447
-8.19954 7.75387 -5.9017
0.642504 -6.76204 -18.9992
2.75607 2.71194 19
-4.53304 3.82655 -4.63479
-5.98943 -9.99942 -7.9792
-4.39902 -3.61934 -4.78094
9.71846 -9.99953 1.13727
6.19546 5.46659 -15.3549
4.49855 -8.40741 9.99946
-8.02411 3.17705 5.09007
11.7997 -9.82184 -2.29231
0.340118 4.90329 -19
-0.969697 -6.42592 17.1584
-3.26876 -9.8696 -9.99946
-8.19951 4.86053 8.21797
-6.5213 2.67871 9.99972
-3.0593 -7.22331 9.99962
3.23019 -2.96369 19.0001
-2.30359 -3.06962 19
0.326736 -2.86198 -19
-2.34418 -4.0108 -4.48372
7.27022 4.36821 10.156
11.7995 -4.72106 6.30431
-2.03871 -8.09295 4.61035
2.49017 -8.50421 9.99961
-0.796122 0.610884 -5.99521
2.97479 6.90241 13.7569
-8.1995 -6.06755 -6.11378
6.6835 -5.27497 -9.9998
-6.32608 -9.99961 3.77037
6.90307 5.24715 3.15359
-8.19964 5.76449 -2.27672
11.7995 8.257 1.72666
11.7997 9.86159 -0.803816
8.60003 1.67686 17.2273
4.35952 -0.256014 5.99349
-2.84062 8.42684 3.80355
-8.19946 -7.45681 -7.9825
-8.1995 -1.91038 -9.83631
-2.71031 -4.3732 4.10427
-6.47623 -4.11794 4.36855
6.05438 8.1328 -4.23537
8.92469 5.11447 3.13721
3.52245 -9.99932 -5.95297
-3.31741 -9.99941 9.88882
4.9202 6.41421 -9.99975
-6.504 9.99955 4.09328
9.44631 9.99958 6.31161
5.64436 -9.99932 4.88929
-8.19954 4.98123 6.16369
9.9851 -8.23122 9.99932
3.33099 -6.85117 11.9889
6.61388 5.08194 13.74
6.07808 0.859656 5.95575
5.24435 3.42924 -18.9998
-3.7035 4.34488 10.134
7.49189 -4.09546 -11.8758
-4.68536 -4.3567 4.12343
8.80187 -0.263761 -16.8419
11.5964 4.81377 -3.57213
-3.0757 -5.01923 -3.49118
4.61839 2.17551 18.9999
11.7997 -9.86501 -4.33256
7.77013 7.93589 -0.660518
-4.90519 -2.00885 -11.824
2.18065 4.82495 -19
-1.0216 3.11119 5.30214
0.891768 1.00529 -19
4.32288 -8.26711 -9.99955
-8.03807 -6.72912 -9.99957
8.79073 -0.379743 -11.797
7.43395 9.99965 6.32607
-1.7527 -9.99949 -9.84544
-2.89377 -2.43984 -5.47992
1.03119 0.0319039 -5.99256
9.76265 9.99955 -2.72448
-0.972736 -4.72922 -5.32898
3.16503 -7.99529 5.84823
-8.19954 2.87161 8.52318
-1.70106 -9.99955 -7.90597
8.79075 0.529855 11.9676
-5.81112 4.56733 9.99962
-8.02084 9.99931 -2.8487
-0.60459 2.23823 -19
11.6166 -4.70339 9.99936
3.79835 0.614694 19
4.97054 -9.99943 -9.83464
-8.19954 3.61992 -5.03955
1.74998 6.59715 6.00787
-5.78675 9.99945 7.86771
-4.3353 -5.99722 -0.184009
2.29394 -6.98784 10.1343
9.1041 4.59064 9.99961
-4.47196 9.99943 9.88207
-4.87357 -2.11527 -18.862
-8.03127 -9.99941 -3.33488
9.95348 -9.99949 3.10368
-8.19957 -4.56071 6.72767
11.6905 9.99905 -8.10816
11.7994 7.99862 -7.97964
-2.75625 -9.85311 3.89536
7.68188 -3.79343 17.0759
8.75788 0.88393 -13.4191
-0.0776055 -9.99955 8.15468
3.98623 8.39626 9.99954
11.7994 -6.45962 7.26687
0.361263 7.18064 9.99985
-4.04709 9.99952 -7.89518
4.88863 6.43923 9.99971
-8.19962 -2.6365 7.1646
7.52105 -0.897976 5.95311
-4.47825 -9.99959 -5.81683
11.6542 -9.99924 6.44428
1.97225 7.01493 15.3988
7.90705 9.99966 -5.4728
6.62667 2.26032 -5.57507
-1.07468 -0.577804 5.9953
11.6612 -5.91911 0.981617
7.87491 3.47789 -17.1538
9.94148 -6.40629 9.9994
7.80652 8.2364 -9.99954
-6.00834 9.99951 -6.57527
-3.0383 -5.07536 13.551
-6.09569 -5.96369 -0.854346
8.40918 -2.59073 5.40522
-0.756656 -4.59301 19
-1.4281 6.22772 12.1213
0.982131 -6.96284 17.2418
11.6734 9.99919 -2.5207
-2.92417 4.79681 -3.70455
-2.48951 -1.72058 5.75448
4.86795 9.99968 -6.7866
-0.802245 9.9991 5.60734
11.6625 -9.99921 4.57291
-1.1405 6.51974 -10
-8.19948 7.86365 9.87288
-5.42616 9.99954 -3.51769
-3.03586 0.269879 5.99498
3.01797 -6.8939 16.5868
-6.38364 -0.814964 -5.96627
-8.19955 3.87242 -7.4747
-3.65041 -4.41243 15.3056
11.7996 -6.42871 9.80293
7.51729 -4.26663 10.0004
11.7996 5.74164 -2.22363
-8.06604 -5.98471 -0.608492
-2.68214 9.99969 -6.40878
-0.100425 6.73868 15.3627
-1.28975 -1.01463 -5.92415
-8.04097 -5.10217 -9.99948
-3.75538 5.77048 -2.27486
5.68635 -3.07185 19
10.1696 -9.99952 -5.12836
1.87971 7.29981 9.99984
-4.00312 3.91175 15.0371
9.97491 -3.20059 -9.99955
-5.97711 9.99943 -8.24804
11.7996 -3.9134 -8.24219
11.7996 5.30848 8.23675
6.88113 -8.40512 -3.22141
7.5842 -9.83032 -1.63468
-3.07724 -0.660883 -5.99671
-4.62422 0.284727 -5.99732
11.7997 4.61828 -9.88952
9.86428 5.72967 1.78375
1.75194 -2.80786 6.00666
-2.36475 9.9995 9.8196
3.54785 -4.88938 -19
11.6978 3.70138 -4.74263
0.614141 6.9129 -15.3872
-6.05428 -5.49082 -9.99962
-1.56052 -0.733803 18.9999
-3.25979 6.80508 3.2219
-6.53739 -9.99948 -9.88761
3.92183 -9.99954 -8.04273
0.328192 6.84273 -10.1529
7.89762 3.4419 16.9583
4.66835 1.11218 -19
-4.41732 -6.27549 -9.99971
-8.19951 -0.0975025 -9.86102
-4.87521 -2.48748 10.0001
8.40374 -2.3404 10.1077
-8.19958 -7.86492 1.74908
9.9009 9.99952 0.922091
7.45441 4.14818 12.2315
0.919691 -6.95645 -17.3196
0.321367 6.84101 11.7699
8.79446 0.0645313 -18.8501
-1.07946 6.49411 10.0004
7.96195 -3.32319 11.681
3.22414 2.73603 -19
3.95867 9.99951 7.89789
7.74118 -4.12033 -10
2.43538 -6.98031 -18.8574
-2.65303 1.12576 -5.89632
8.27394 -2.66558 -10.1489
-8.19944 7.941 -7.84755
-6.38524 -9.99943 7.98289
3.47405 7.12112 -9.9999
8.43874 -2.25761 -12.0103
-0.44187 4.7402 18.9999
-0.475304 -6.63482 11.9438
-1.61187 1.43356 5.82233
-3.32582 -4.76708 -10.1321
-5.19817 -0.0522181 -15.3246
5.05632 1.11908 -5.89945
5.84437 -9.99962 7.32272
-4.73215 9.88088 -9.99936
0.798648 8.30024 5.93225
-6.41267 -3.18836 9.99962
5.3114 -6.2744 -10.0002
0.766961 6.95016 13.5923
-5.26113 1.27673 -9.99952
-1.32528 -6.26485 10.1207
6.60932 -0.0449526 -5.99506
-3.85921 7.97983 1.99567
-8.03564 4.1803 9.99959
-3.02643 0.733028 18.9998
8.66805 -1.3308 11.7931
9.80986 7.64008 -9.99945
4.35596 -4.52605 19
-6.15975 9.99961 -1.76178
11.7995 4.37493 6.48458
4.28226 -6.67484 10.0001
3.04868 -4.20222 5.86993
-5.71653 -9.9996 -4.18193
-6.45571 9.99944 -9.89227
-5.10298 -1.14637 -17.0873
-6.15894 -5.90797 1.04202
6.72132 0.368488 -18.9999
9.80379 9.99952 -0.999735
-6.28855 9.99948 9.84446
-0.705966 -6.54034 -10.1772
7.07581 9.8504 2.85471
10.08 4.23794 4.24446
1.22975 2.99227 -19.0001
0.650349 -7.25408 -9.99986
-2.55548 -5.47876 -11.7997
11.623 -6.42556 -9.99931
1.85165 7.2584 -9.99993
6.76499 -2.99724 5.20145
