-0.425934 -0.0169807 0.315014
-0.0274592 -0.647177 -0.676007
-0.12519 -0.559626 -0.081795
0.0161975 -0.427964 -0.931767
-0.535627 0.0458878 -0.611463
-0.763349 -0.405001 -0.487493
-0.240819 -0.582331 -0.17937
-0.429726 -0.534102 -0.80484
-0.248552 0.152691 0.691499
-0.658195 0.142133 0.703141
-0.533696 -0.101721 -0.984497
-0.798082 -0.634833 0.421074
0.425921 -0.664357 -0.255195
-0.14188 0.472206 -0.429231
-0.628621 0.081277 -0.968059
-0.89569 -0.542868 0.422803
0.346821 0.402465 -0.600255
0.640562 0.188274 -0.145552
0.383202 -0.696761 -0.52571
0.0424692 -0.430092 0.158312
-0.713727 0.178815 -0.250072
0.152608 -0.39313 -0.93429
-0.0756363 -0.283473 0.1878
-0.637129 -0.549088 -0.0633391
0.0484625 0.165254 0.732519
0.212218 -0.255133 0.261044
-0.400272 -0.365281 0.309951
-0.518671 -0.0349147 0.58932
-0.923397 -0.640702 0.175788
0.149455 0.105108 0.194746
-0.229235 0.2991 -0.508402
-0.0722143 0.440781 -0.652109
0.232556 -0.598978 -0.922753
-0.116054 0.0362445 0.680943
0.324541 -0.429712 0.176865
0.619608 0.217968 -0.207942
-0.709403 0.102067 0.691263
0.100345 0.282886 0.824303
0.181384 -0.088603 0.261477
-0.396752 -0.566172 -0.0990284
0.420608 0.373715 -0.725543
-0.468764 -0.417514 0.46259
0.52681 -0.22264 0.180963
-0.0558008 0.354759 -0.843595
-0.345961 -0.538938 -0.637296
0.563293 -0.603712 -0.363841
0.818108 -0.0725062 -0.899589
0.29005 0.159326 0.147553
-0.877977 -0.0413415 0.0923164
-0.170936 -0.598462 -0.179698
-0.556313 0.217399 -0.117999
-0.720756 -0.000126031 -0.966961
-0.938363 -0.217517 0.34886
-0.725221 -0.0743967 0.605277
-0.71087 -0.201608 -0.605659
-0.0594624 -0.663269 -0.224944
0.412089 -0.699451 -0.458996
-0.725707 -0.132905 -0.591751
0.0992737 0.370603 0.884321
-0.0600182 -0.518583 0.0213362
0.147513 0.421402 -0.193268
-0.626842 -0.0864315 -0.809893
-0.861998 0.0290061 -0.142943
0.93649 -0.0416583 -0.545294
0.783252 -0.318635 -0.581058
-0.619183 -0.0334414 0.586008
-0.335315 0.0796257 0.756873
0.654151 0.150214 -0.0857958
-0.594338 0.629453 0.812963
-0.32996 -0.234946 0.240705
0.0650394 0.43627 -0.679814
0.104436 -0.572797 -0.0654617
0.666927 0.219833 -0.271251
-0.200802 0.258132 -0.706116
0.595105 0.199421 -0.0924275
0.246909 -0.43804 0.172859
0.677944 0.212042 -0.406054
-0.163934 0.0371255 -0.929783
0.241243 -0.557482 -0.00761098
-0.429273 -0.576307 -0.458725
0.0613165 -0.652308 -0.971527
0.458808 -0.273141 0.207867
-0.613812 0.562914 0.639474
0.778463 0.098702 -0.709836
0.576852 -0.548099 -0.674919
0.0597318 0.15653 0.67605
-0.924527 -0.330438 -0.257517
0.526393 -0.456839 -0.926612
-0.829552 -0.239062 0.597229
-0.577744 0.76159 0.844044
-0.707169 0.570778 0.749055
0.813501 0.071007 -0.651647
-0.829026 0.00508025 0.111102
-0.684771 0.0658063 0.354597
0.405206 0.382357 -0.306745
0.0589245 0.284825 -0.0474697
-0.0679959 0.233474 0.0255707
-0.268505 0.238656 -0.798009
-0.0998258 -0.709568 -0.959261
-0.348227 -0.114802 0.5003
-0.242064 0.291128 -0.201768
0.398286 0.344936 -0.783337
-0.204758 -0.564535 -0.113013
0.958016 -0.0211315 -0.60766
-0.34702 -0.453158 0.0764127
0.720037 -0.440913 -0.456307
0.3589 -0.467686 0.124341
-0.489347 0.24999 -0.360333
-0.0441073 -0.697512 -0.962573
-0.449075 -0.226887 -0.768139
-0.888314 -0.107349 -0.393174
-0.790527 -0.554249 0.00155162
0.83119 -0.150794 -0.896045
-0.396795 0.055874 0.612747
0.916949 0.026125 -0.716007
-0.935404 -0.151223 -0.191275
0.0256723 0.267178 0.998988
-0.4483 -0.470274 0.0818185
-0.20663 0.164609 0.813632
0.742597 0.107794 -0.489115
-0.281701 -0.10188 0.243835
0.0433095 0.239826 0.854043
0.741948 0.0577916 -0.639012
-0.716536 -0.552306 0.522257
-0.256652 0.178426 -0.575688
0.43497 -0.0479192 0.222754
-0.63272 -0.160391 -0.839104
-0.612403 -0.344355 -0.900799
-0.842249 -0.0302838 0.370289
-0.548081 0.246759 -0.316719
0.476549 -0.331742 0.179347
0.768972 0.0245039 -0.591734
0.362835 -0.0275518 0.24426
0.147412 -0.561224 -0.00135965
0.806141 -0.0799713 -0.267349
-0.595912 -0.579252 -0.106798
0.731448 -0.353569 -0.140227
-0.386958 0.0142039 0.750982
0.278074 0.154474 -0.947033
0.0848859 -0.74192 -0.270745
0.0253838 -0.663786 -0.730418
0.526568 0.096221 -0.887606
-0.0697164 -0.587216 -0.698353
-0.412651 -0.0632847 0.437689
-0.728966 0.106188 -0.453173
-0.90416 -0.36581 0.0529773
0.571902 0.110514 -0.839555
0.0924931 0.207118 0.711107
-0.942796 -0.108752 0.216151
0.453418 -0.38786 0.154448
-0.958861 -0.283225 0.317245
0.360938 0.157242 0.140196
0.643995 -0.482694 -0.156273
0.310298 -0.723745 -0.529861
-0.506722 -0.482504 -0.565287
0.181022 -0.171638 0.265796
-0.539434 -0.367302 -0.979188
0.404466 0.242507 -0.960438
-0.109439 -0.598597 -0.484705
0.761372 0.0499976 -0.221891
-0.240739 -0.044737 0.780574
-0.685663 0.158786 -0.438938
-0.781605 -0.113473 0.590784
0.0790028 -0.583567 -0.130437
-0.21417 0.172461 0.738233
-0.851108 0.0164609 -0.363271
-0.192981 -0.571148 -0.309041
-0.642803 -0.651042 0.325433
-0.0471561 -0.478778 0.0766212
-0.0222387 0.136868 0.736254
-0.472827 0.174715 0.081099
-0.626841 -0.399341 -0.870388
-0.0298898 -0.0103648 -0.932557
0.305027 -0.686923 -0.704869
-0.38894 0.193012 -0.863762
0.380495 0.0853658 0.180962
-0.282657 0.237365 -0.400413
-0.725427 -0.550413 -0.154076
0.124249 -0.408288 0.192125
-0.0936428 0.127151 0.130625
0.651902 -0.500326 -0.573175
-0.779267 -0.181115 0.603781
-0.589609 0.588012 0.757757
0.89617 -0.35102 -0.715476
-0.947378 -0.292163 0.0589283
0.418166 -0.622952 -0.738797
0.364994 -0.510642 -0.996092
0.397084 0.249279 -0.0652347
-0.0534278 0.212682 -0.931284
0.741654 -0.380072 -0.581455
0.730919 -0.420727 -0.262642
-0.600603 -0.385238 -0.597885
-0.81309 -0.470495 -0.359871
-0.524583 -0.573711 -0.076691
-0.382661 -0.395654 0.233939
0.207341 0.397423 -0.741968
0.377939 0.295805 -0.920394
0.38474 0.237585 0.00884588
-0.466401 -0.579875 -0.123463
-0.822015 0.0320959 -0.423097
0.520001 0.314634 -0.28696
0.780605 -0.202781 -0.916686
0.939011 -0.305614 -0.693083
-0.0792036 -0.714554 -0.330247
-0.654284 -0.426977 0.592292
-0.258224 0.0573731 0.201995
-0.578526 0.221693 0.641975
0.0189672 -0.735579 -0.261921
-0.193708 0.0521644 0.17161
0.735914 0.0681984 -0.153729
0.473168 -0.643355 -0.333083
-0.890929 -0.308254 0.0188249
0.12393 0.449978 -0.639251
0.90441 -0.215014 -0.508126
-0.611241 0.198037 -0.0701331
-0.250663 -0.602685 -0.971556
-0.925127 -0.222761 0.439892
-0.644096 0.0791049 0.224879
0.19356 0.447099 -0.602489
-0.615599 -0.528639 0.0194617
-0.126846 0.0412124 0.586985
-0.429146 -0.601235 -0.236929
-0.280989 -0.0741725 0.734823
-0.706741 0.0594961 -0.50165
-0.255089 -0.185693 -0.982717
0.0858661 0.213727 0.0576993
0.740684 0.143063 -0.332786
0.269437 -0.160747 -0.997201
-0.806899 0.0148804 0.337534
-0.643239 0.725898 0.748525
-0.102039 0.0874383 -0.928886
0.242191 -0.131442 0.269039
-0.526469 0.0138383 -0.70914
-0.642434 0.740014 0.871429
0.590341 0.217422 -0.717917
-0.373995 0.327113 -0.971917
0.347287 -0.659959 -0.773766
0.650332 -0.536928 -0.28897
-0.844845 -0.085204 -0.455906
-0.104989 -0.469823 0.0483418
-0.865796 -0.359024 -0.0130617
0.667978 -0.488648 -0.633479
0.683806 -0.363527 -0.883689
-0.541082 -0.147354 0.609401
0.631446 -0.543288 -0.460524
-0.911423 -0.0799995 -0.208952
-0.442984 0.0962036 0.185567
-0.345677 -0.34346 0.177279
-0.0234462 0.497118 -0.478561
-0.559558 -0.503821 -0.806068
-0.76059 -0.540492 -0.2233
-0.494621 -0.206451 0.600045
0.754249 -0.0523654 -0.928188
-0.100777 -0.54832 -0.632331
0.331681 0.420439 -0.41149
-0.717592 -0.381825 -0.53626
-0.900336 -0.246681 0.00715327
-0.545808 -0.00948871 -0.644727
0.639245 -0.00367303 0.0620328
-0.249462 -0.612184 -0.899543
-0.688767 -0.1235 -0.847784
-0.955447 -0.47239 0.095066
0.0907683 0.33705 -0.871678
0.274878 0.264711 -0.991294
0.598799 0.158395 -0.035087
0.621026 -0.330942 0.0766133
-0.323505 0.0794754 0.207503
0.466809 -0.621553 -0.637142
0.747089 0.105226 -0.411499
-0.283405 -0.0289212 0.237115
-0.903402 -0.292157 -0.0452534
-0.131543 0.388614 -0.679702
-0.610397 0.673392 0.889047
-0.448751 -0.617978 -0.314005
0.800604 -0.0252234 -0.31637
0.570728 -0.574265 -0.482237
-0.505816 0.0670914 -0.668457
0.107873 -0.620127 -0.833792
0.438935 0.368965 -0.448809
-0.805557 0.408807 0.758986
-0.772007 0.0514272 -0.469688
-0.00567205 0.453409 -0.669218
-0.903131 -0.280121 0.569528
-0.928188 -0.502387 0.302128
0.629176 -0.190323 0.093511
-0.589902 0.432435 0.623283
0.800018 -0.388216 -0.795586
-0.208263 0.31154 -0.264101
-0.281142 -0.540156 -0.668641
-0.669599 0.650084 0.930084
-0.0833716 -0.0541958 0.203593
0.737738 0.0152306 -0.102142
-0.170612 0.37112 -0.875792
0.704502 -0.260064 -0.0157459
-0.746176 -0.724443 0.187855
-0.75238 0.0401975 0.376592
-0.541942 -0.4213 -0.806295
-0.472614 -0.0544054 -0.985708
0.567327 -0.553666 -0.543976
-0.055283 0.154664 0.805429
0.0462049 0.236394 0.0216288
-0.39813 -0.188169 0.378744
0.724457 -0.0396583 -0.0501086
0.617715 -0.339571 -0.921899
-0.766293 0.201578 0.71172
-0.206403 0.37407 -0.499086
-0.698562 0.0758864 0.166402
0.512457 0.337891 -0.439411
0.883191 -0.19082 -0.85742
-0.722959 0.439341 0.600621
0.348047 -0.706443 -0.588638
0.0155963 -0.50908 0.0566557
-0.215651 -0.0666474 0.221231
0.108665 0.109382 -0.927483
-0.361268 -0.586224 -0.236568
0.0567594 0.487004 -0.466511
-0.396973 -0.0802208 0.316119
0.670461 0.186525 -0.601615
0.0468267 -0.628226 -0.822033
-0.39257 -0.452949 -0.977985
-0.841873 0.0257453 -0.0649966
-0.759674 0.230158 0.542694
-0.452454 0.107055 -0.831035
0.117809 0.181059 0.111255
-0.596262 0.74344 0.903487
-0.213361 -0.523635 -0.626279
-0.818504 0.0691476 -0.108456
-0.518119 -0.436574 -0.976698
-0.327812 -0.105735 0.682241
-0.46559 -0.353625 0.565083
-0.892593 -0.436493 0.0500126
0.634228 0.207685 -0.664876
-0.0714331 0.297603 -0.102103
0.716593 0.161944 -0.272828
0.503428 -0.479577 0.00464422
-0.339972 0.244875 -0.361167
0.213556 -0.658 -0.809978
-0.35138 0.135523 -0.796094
0.247157 -0.0620726 0.263545
-0.485145 -0.54307 0.195306
0.315148 -0.0756248 0.262443
-0.694645 0.326457 0.798899
0.179184 -0.0368042 -0.939255
-0.900659 -0.183191 -0.3789
0.344222 -0.7241 -0.339153
-0.139114 -0.245365 0.193954
0.541611 0.225683 -0.82282
-0.709031 -0.150408 0.610485
-0.0194725 -0.0934558 0.225091
0.029381 0.100272 0.677051
0.313682 0.104731 0.185342
-0.298592 -0.101512 0.560427
-0.0068476 0.281982 0.821947
-0.22663 -0.360384 -0.980845
-0.587295 0.665938 0.745424
0.347999 0.385987 -0.731918
-0.857975 -0.569046 0.0211323
-0.153214 -0.0173727 0.187693
0.693261 0.136144 -0.147132
0.25063 0.358098 -0.173557
-0.0487684 -0.369861 -0.935072
-0.141745 0.457047 -0.288489
0.213711 -0.702674 -0.192434
-0.295082 -0.0558621 0.509693
0.318319 0.393968 -0.657142
-0.663077 -0.584431 -0.33006
0.232171 0.432197 -0.544544
-0.115144 0.0517564 0.167886
-0.947932 -0.157504 0.070333
0.56447 0.271454 -0.228559
-0.220636 -0.412569 0.121358
0.418653 -0.674185 -0.340838
-0.974965 -0.22657 0.269571
-0.688769 -0.526837 -0.429696
-0.687924 0.0223639 -0.549566
0.475322 -0.581654 -0.773542
-0.74699 0.188904 0.58243
-0.0626708 -0.60191 -0.620841
-0.804002 0.00588497 0.419708
0.36819 0.399654 -0.460723
-0.315736 0.182522 -0.539062
-0.843328 -0.493916 0.0163808
0.276878 -0.530301 -0.995887
0.372554 -0.294888 0.242013
-0.439551 0.161537 -0.526684
-0.941843 -0.277084 0.390767
-0.30141 -0.57086 -0.206786
-0.145464 -0.510511 -0.586554
-0.066705 -0.667944 -0.493133
-0.428805 -0.0532783 0.376915
-0.0605085 0.484217 -0.540026
-0.0679757 0.0085383 0.643095
-0.914988 -0.267 -0.301638
0.0247484 -0.686307 -0.659341
-0.544239 -0.588583 -0.14796
0.380015 -0.699142 -0.395373
-0.890672 -0.130706 0.0143732
-0.0131257 0.193744 0.851939
-0.0165219 -0.219968 -0.9377
-0.818082 -0.667802 0.36416
-0.201709 -0.283562 0.198046
-0.237316 0.203353 -0.931303
-0.491978 0.215334 -0.428344
-0.472213 -0.401761 -0.627079
0.136046 0.422869 -0.708106
0.221418 -0.497665 0.116367
-0.0893605 -0.423473 0.113552
-0.324452 0.36736 -0.93769
-0.883267 -0.065195 -0.345239
0.0938944 0.134353 0.152817
0.143878 0.302744 -0.131085
0.0038115 0.254001 -0.0104861
-0.666865 0.172716 -0.120556
-0.529303 -0.410766 0.584251
0.401878 -0.628545 -0.185002
0.277213 -0.236895 -0.996445
-0.238706 0.380859 -0.897209
0.221057 -0.598095 -0.862696
-0.406396 -0.118082 0.383479
0.159614 -0.750762 -0.398828
-0.959791 -0.372235 0.29622
0.0137483 0.202592 -0.930501
-0.865152 -0.661636 0.315261
-0.671384 -0.650173 0.39968
0.209401 0.412586 -0.199669
0.0100114 -0.69744 -0.208118
-0.741284 0.396613 0.534381
0.430931 0.169021 0.0930189
0.280635 -0.686213 -0.770286
-0.293858 -0.570177 -0.463146
-0.897376 -0.19164 0.00811725
-0.224184 0.00091261 -0.932156
0.00392362 0.389844 -0.803572
0.220512 -0.436333 -0.931951
0.0665132 -0.657239 -0.164608
-0.505003 0.110887 -0.878635
-0.386344 0.261635 -0.18796
-0.8444 -0.16159 0.581015
-0.638499 0.0677243 0.417799
0.918641 -0.237247 -0.814866
-0.0365575 0.0670178 -0.929508
-0.741059 -0.233754 0.613868
0.569628 0.301104 -0.443729
0.81014 -0.239696 -0.452565
-0.61627 0.00826968 -0.983044
0.551412 0.0958192 0.0766752
-0.867994 -0.0763962 0.0216454
0.645854 0.0949974 -0.857496
-0.894032 -0.358452 0.557731
0.72652 -0.312512 -0.075381
-0.442309 -0.194576 -0.973607
-0.686187 0.0443893 -0.972301
-0.0667178 -0.705135 -0.88113
0.260322 -0.201525 0.270182
-0.227529 0.116291 0.133284
-0.681185 -0.0265359 0.623851
-0.3557 -0.568435 -0.493958
0.399133 0.291691 -0.116518
-0.616444 -0.535476 -0.469014
-0.101178 0.488672 -0.484436
0.130533 -0.316666 -0.9377
-0.897416 -0.0213456 -0.17346
0.550914 0.149272 0.0179554
-0.607235 -0.1156 -0.644749
-0.700158 -0.533489 -0.081945
0.80497 -0.337243 -0.847795
0.651273 0.108208 -0.761294
-0.263997 -0.251139 0.223262
-0.625898 0.554985 0.824433
-0.249402 0.148513 -0.641685
-0.443915 0.113053 -0.680729
0.789456 -0.307047 -0.461711
-0.941162 -0.372467 0.491219
0.0476072 0.325217 0.972202
-0.666406 0.0066483 -0.858628
0.985242 -0.225983 -0.599813
0.310171 -0.330615 0.24205
-0.453512 -0.230031 -0.709736
0.496763 -0.519041 -0.810153
-0.477595 -0.413778 0.548411
0.26672 0.424406 -0.60107
0.212385 -0.731259 -0.641502
0.102693 -0.181305 0.255325
-0.882977 -0.392253 -0.281162
0.468823 0.332823 -0.766095
-0.572607 0.0966728 -0.906578
0.577625 -0.508686 -0.741061
-0.412217 -0.0034355 0.488472
-0.083311 0.457995 -0.591664
0.272659 0.203249 -0.989158
-0.173951 0.21986 -0.927826
0.0251364 0.0515239 -0.929324
0.528001 0.285154 -0.721331
-0.957217 -0.224917 0.060283
0.142494 0.375157 -0.833275
0.428028 -0.564421 -0.901038
-0.571475 0.101065 -0.972717
-0.486814 -0.473433 0.327965
0.956989 -0.291231 -0.628032
-0.765759 0.370933 0.801917
0.69347 -0.375941 -0.0842915
-0.610823 -0.0051553 -0.823924
-0.0762862 0.496273 -0.415915
-0.466229 -0.2542 -0.822205
-0.513047 -0.0848073 0.639843
-0.210421 0.415323 -0.427679
-0.173404 -0.338537 -0.941635
-0.312016 0.198446 -0.978322
0.48103 -0.00231129 0.184716
0.823769 -0.129962 -0.498697
-0.157643 0.398054 -0.242744
-0.448831 -0.430568 -0.69684
-0.304716 0.210791 -0.466265
-0.655367 -0.464379 -0.959068
0.756781 0.102072 -0.274894
-0.493022 -0.344054 -0.808868
-0.172454 -0.489192 0.017128
-0.698629 0.247621 0.76746
-0.733884 0.344208 0.593683
0.140054 -0.743688 -0.527861
-0.74691 0.0410415 0.457678
-0.0778157 0.349372 -0.966376
-0.881107 -0.143675 0.530458
0.460876 0.358704 -0.387923
0.0516891 -0.290794 -0.937701
-0.644472 -0.601406 -0.264766
-0.805009 -0.687038 0.16172
-0.194152 -0.409295 -0.940257
-0.432368 0.188531 -0.46401
-0.807653 0.46962 0.791473
0.669474 -0.147654 0.0453822
0.837995 0.0912059 -0.717587
-0.79539 -0.728941 0.231026
0.163133 -0.462559 -0.935622
-0.506867 0.1754 -0.493637
-0.91239 -0.158914 -0.0496938
-0.145445 0.196887 0.0491155
-0.708722 0.269388 0.494982
-0.154605 -0.38535 0.127352
-0.838826 -0.0914087 0.548767
-0.909647 -0.132755 -0.327011
0.141966 0.403957 -0.775218
-0.679322 0.104226 0.0397343
-0.725422 0.634391 0.865779
0.135555 0.460203 -0.256083
-0.0153191 -0.0849627 -0.934641
-0.109845 0.105214 0.837
0.338528 0.354703 -0.814466
0.452883 0.0617674 0.165918
-0.579806 -0.635081 0.125025
-0.657735 0.115822 -0.498472
-0.661737 -0.570935 -0.134318
-0.383395 0.265449 -0.878914
-0.322622 -0.4042 0.127275
0.0646843 -0.568072 -0.985064
0.301065 0.413673 -0.548423
-0.824289 0.071933 -0.345082
0.409215 -0.236857 0.240013
0.410529 -0.643113 -0.668663
0.205073 -0.0849359 -0.986292
-0.587256 0.367669 0.587476
-0.723886 -0.0342683 -0.895275
-0.122108 0.363401 -0.74499
-0.209895 0.221737 0.00617387
0.66703 -0.295767 0.0364299
0.152582 0.0392977 -0.929306
0.345589 -0.569001 -0.982071
-0.66591 -0.49765 0.560094
-0.602437 0.723519 0.709824
-0.526242 -0.128687 -0.734094
0.646778 0.252152 -0.352972
-0.593973 0.0378966 0.56531
-0.212691 -0.597799 -0.241605
-0.606989 0.457729 0.765537
0.271626 -0.746437 -0.348332
-0.543693 0.162447 0.0691845
0.422264 -0.165352 0.237599
-0.858421 -0.153783 -0.441103
0.860135 -0.336124 -0.794937
0.189514 -0.73529 -0.573362
0.0409163 0.176511 0.107471
0.808966 -0.20312 -0.379659
-0.782485 0.115282 -0.133416
-0.672761 -0.497762 -0.485648
0.801613 -0.274861 -0.388625
0.42858 -0.447644 0.114878
-0.776425 0.0227819 0.0664473
-0.21581 -0.596147 -0.832935
-0.111146 0.224823 -0.934276
-0.499873 0.128844 0.133434
-0.172035 0.438458 -0.488103
0.396202 -0.413228 0.172004
-0.921414 -0.0735209 -0.283359
0.471692 0.364656 -0.569299
-0.575065 0.379413 0.661086
-0.586336 -0.548807 0.403043
-0.651833 0.0838879 0.103477
-0.815867 -0.140705 -0.499647
0.447068 0.337753 -0.261785
-0.130965 -0.13849 -0.937291
-0.90142 -0.258158 -0.372718
0.408259 -0.606043 -0.117395
-0.783561 -0.505743 -0.158936
0.481281 -0.521009 -0.943278
0.0376563 -0.0266376 -0.933211
0.158157 -0.70018 -0.70277
-0.912902 -0.402189 0.367952
0.427975 -0.271547 -0.994485
-0.934926 -0.156679 -0.114144
-0.829557 -0.210955 -0.492847
-0.373654 -0.380131 -0.98424
-0.138654 -0.532578 -0.957856
0.162309 -0.608808 -0.850747
0.532804 0.167149 -0.851599
-0.78038 0.0872802 -0.401478
-0.887979 -0.330601 -0.328089
0.536573 0.200911 -0.047113
-0.650213 0.554235 0.572616
-0.543143 -0.580088 0.169329
-0.699594 0.591886 0.593242
-0.106225 -0.656322 -0.283599
-0.857758 -0.409364 -0.0749274
0.420741 0.122058 0.142098
-0.540977 -0.266245 0.60691
-0.503269 -0.18083 -0.7895
-0.740467 0.260435 0.611407
-0.751031 0.0555234 0.304333
-0.379259 0.169407 -0.571264
0.526414 -0.365549 0.139779
-0.471602 -0.280963 0.581081
0.113685 -0.74754 -0.466149
0.0525165 -0.74976 -0.334731
-0.66997 -0.522116 -0.0109548
-0.599289 -0.580351 -0.898087
-0.237188 0.344334 -0.441063
-0.493527 0.0994995 -0.606897
-0.106146 -0.599514 -0.217926
0.122446 0.483697 -0.400532
0.411983 -0.549033 -0.0604484
0.915829 -0.299793 -0.769512
-0.172936 -0.0154038 0.581215
-0.459053 -0.362 0.489372
0.175713 0.144761 0.14514
-0.769588 0.0526767 0.140465
0.634573 -0.458174 -0.751447
0.809169 -0.0857362 -0.342909
0.61529 0.108797 -0.796869
0.63308 -0.498867 -0.688414
-0.207322 -0.6631 -0.889726
-0.806291 -0.366416 0.590302
-0.196802 0.291707 -0.636383
0.411295 -0.330977 -0.994447
-0.570116 -0.0836583 0.594049
-0.319824 0.150483 -0.608544
0.653164 -0.437254 -0.0949317
0.717671 -0.178658 -0.948312
0.215947 0.176498 -0.936939
-0.434577 0.208309 0.0258671
0.311012 0.24834 0.0332704
0.627256 0.255019 -0.427711
-0.452867 -0.48744 0.247437
0.0678239 -0.0938646 -0.935118
0.35578 0.0309691 -0.996481
-0.20759 -0.349035 0.167251
-0.631477 0.368732 0.527918
0.138328 -0.49472 0.116431
-0.0874079 -0.0713092 -0.933899
0.347 0.2828 -0.9767
-0.802291 -0.62697 0.0272667
-0.958815 -0.161772 0.287031
-0.828349 0.0861236 -0.180555
0.757135 -0.377056 -0.45525
-0.753335 0.306821 0.538247
-0.953246 -0.579369 0.21598
-0.860078 -0.516708 0.487454
0.493558 0.352601 -0.505761
0.673201 -0.219644 0.0380168
-0.0257807 0.234127 0.749515
-0.693463 -0.69012 0.333123
0.413801 0.312926 -0.197933
-0.350791 -0.561618 -0.845413
0.503399 -0.0707743 0.189139
-0.113142 -0.526586 -0.698447
0.0160151 0.192289 0.787982
0.0825839 0.300409 0.891039
0.630896 0.161258 -0.725811
-0.0257423 -0.168165 0.228008
-0.616921 -0.520954 -0.862453
0.340606 0.406953 -0.33559
0.901185 -0.344004 -0.634808
0.545066 0.0483578 -0.946228
0.0883519 -0.72244 -0.641175
0.733345 -0.25587 -0.926998
0.152132 -0.624232 -0.908758
0.656426 -0.0733416 0.0572376
-0.448481 -0.452231 -0.606405
0.637378 -0.369679 0.0283599
-0.501345 -0.545376 -0.803006
-0.897846 -0.0134656 -0.24651
-0.474683 -0.00496384 0.371799
0.753509 -0.283262 -0.134562
-0.61647 0.196071 -0.145138
-0.575672 0.03367 0.495688
-0.772319 0.128463 0.596205
-0.173443 -0.590166 -0.981787
-0.443072 -0.305716 0.43646
-0.376931 0.223906 -0.0139719
-0.474266 -0.0370471 0.668712
0.760027 -0.0544117 -0.113786
-0.11797 0.0662529 0.907867
0.410271 0.0198292 0.209708
0.428208 0.386702 -0.51592
0.529918 0.238646 -0.105555
-0.31185 0.113715 0.697754
-0.501532 0.0702059 -0.80748
0.706166 -0.0991182 -0.956237
-0.572047 -0.174313 -0.826387
0.610077 0.111238 0.0164922
-0.756983 -0.507382 -0.0917549
-0.495268 0.126235 -0.548658
0.684227 -0.0269267 0.00771551
0.803169 -0.237402 -0.320037
-0.497509 -0.246974 -0.984096
-0.0670111 0.249228 0.821247
-0.0617736 0.386813 -0.777321
-0.608252 0.161043 0.660107
0.498913 0.154624 0.0661255
-0.248692 -0.501755 -0.00635989
-0.289016 0.0251654 -0.950816
-0.248936 -0.587633 -0.334459
-0.369373 -0.218023 0.307233
-0.779442 0.14042 -0.203537
0.27405 -0.421353 -0.935752
-0.945678 -0.275006 -0.218037
-0.733684 -0.645839 0.430563
-0.883698 -0.0237561 -0.0964288
-0.190058 -0.531108 -0.0476556
-0.214841 0.197788 -0.762858
-0.750895 0.0695014 0.0215898
0.769278 -0.343453 -0.519153
-0.643859 0.298702 0.499962
-0.626827 0.0639783 -0.879408
-0.533264 -0.508922 0.502321
-0.139007 0.233864 0.00619988
0.543225 -0.024807 0.148916
0.820727 -0.0676538 -0.511853
0.15569 -0.736655 -0.241312
-0.83617 -0.577617 0.452089
0.177118 0.27451 -0.989498
0.0816146 0.189827 -0.929862
0.208779 -0.706443 -0.755812
-0.620032 -0.149655 0.605457
-0.912219 -0.509596 0.0420741
0.31795 0.359909 -0.197263
0.891962 -0.0841231 -0.51226
-0.577458 -0.62085 -0.268783
-0.137847 0.207899 0.82193
0.0250694 0.103975 0.148183
-0.339621 0.0205412 0.791271
0.386519 -0.0993032 0.248249
-0.467824 -0.359038 -0.727516
-0.447924 -0.509968 0.0151712
0.582127 -0.240189 0.135743
0.699544 -0.101095 -0.00172732
0.232119 -0.7494 -0.412103
-0.119068 0.348527 -0.816469
-0.755099 0.532452 0.886139
0.277049 -0.557172 -0.0833011
0.457434 -0.67877 -0.406287
0.27603 0.378623 -0.78459
-0.272343 -0.379107 0.161515
-0.56196 -0.353871 -0.846897
-0.834278 -0.406175 -0.399051
-0.889194 -0.00823578 -0.316882
-0.243045 -0.526386 -0.803596
0.277873 -0.665134 -0.173633
-0.349339 0.256353 -0.132594
0.768041 -0.00100072 -0.167426
-0.794132 -0.541815 0.511112
0.238162 -0.334596 0.243614
-0.342646 0.212598 -0.817383
-0.218014 0.179977 0.0768755
-0.632857 0.74154 0.807686
0.558577 -0.482059 -0.029098
-0.272688 0.203295 0.0504962
-0.452002 -0.482657 -0.9767
-0.0484249 0.276475 -0.0322652
0.561082 0.251567 -0.765631
-0.227479 0.376649 -0.365766
0.690874 -0.460767 -0.206348
0.117256 -0.633149 -0.974715
0.525522 -0.581419 -0.587678
-0.665804 0.204399 -0.29803
-0.424584 -0.327286 0.365827
0.174762 -0.321437 0.246806
-0.866495 -0.677687 0.197957
-0.417531 -0.535349 -0.507631
-0.257762 0.214248 -0.511278
0.338168 -0.629338 -0.16716
0.267325 0.446893 -0.429244
-0.602312 -0.604779 -0.340366
-0.405939 -0.603561 -0.178234
-0.736082 -0.2532 -0.579998
-0.15378 0.0332527 0.875139
0.539065 -0.438749 0.047252
-0.762604 -0.597611 0.477786
0.0725409 0.384121 -0.826847
0.0417739 0.337279 -0.923205
0.0928824 -0.758025 -0.392768
0.446875 0.207166 -0.922621
-0.779629 0.442208 0.82493
0.254031 0.261027 -0.0228161
0.781558 -0.249258 -0.193374
0.0469872 -0.496384 -0.931523
-0.532996 -0.141598 -0.675185
-0.610332 -0.0422034 -0.629865
-0.286465 0.158706 0.105425
-0.138635 -0.463573 -0.93
-0.0754947 0.27023 -0.988401
-0.438563 -0.0967127 0.686243
-0.0236951 -0.397482 0.155855
-0.646041 -0.468794 -0.896444
0.00945658 0.424656 -0.734789
0.803545 -0.0334631 -0.397938
-0.198171 0.0931506 0.587558
0.606775 0.060053 0.0593379
-0.412556 0.0121507 -0.985073
-0.439121 -0.491346 0.160199
0.00164272 -0.544706 -0.00462054
-0.29649 0.0663989 0.818979
-0.410842 0.253403 -0.332417
-0.616416 -0.703657 0.126875
0.874553 -0.105968 -0.862166
-0.615206 0.0807146 0.155883
-0.66317 -0.158062 -0.630946
0.427802 0.0600402 -0.987228
0.262661 0.0922515 -0.9364
0.371072 -0.672067 -0.717844
0.579295 -0.560168 -0.204067
-0.736701 0.172254 -0.329523
-0.739458 -0.606592 0.00917461
-0.046897 -0.711347 -0.272322
-0.955237 -0.55124 0.09116
0.282942 -0.708566 -0.229187
-0.578651 0.160175 0.594767
0.799157 -0.132895 -0.230057
-0.769815 -0.190212 -0.545888
-0.92891 -0.069783 0.151432
-0.615703 -0.567283 -0.960191
0.958281 -0.249084 -0.746942
-0.627975 -0.568902 -0.403884
-0.5369 0.0470897 0.341906
0.599138 -0.482903 -0.096986
-0.63234 0.20718 0.716896
-0.620553 0.177078 0.474848
-0.517032 -0.504542 -0.9767
-0.275958 0.150586 -0.927209
-0.0138866 0.179061 0.675671
-0.669818 -0.701768 0.0688391
-0.655453 -0.354768 0.61104
-0.30053 0.0998201 -0.933157
0.796698 -0.0125955 -0.547119
-0.533988 -0.626686 -0.897134
-0.136411 0.116828 0.616254
0.656125 0.045802 0.0114518
0.136933 -0.746548 -0.314721
-0.375312 0.066161 0.691598
-0.297628 0.232345 -0.00453256
0.000612942 0.491635 -0.416374
-0.952591 -0.28763 0.457569
0.711353 0.0689863 -0.87681
-0.471095 0.027385 0.308029
-0.0994131 -0.316664 -0.937643
-0.428738 0.147968 0.136297
-0.402646 0.25139 -0.083344
0.482091 0.0825103 -0.93983
0.486825 0.344033 -0.701235
-0.863432 -0.641647 0.0571
-0.265373 -0.585 -0.263689
-0.499545 -0.600939 -0.842653
-0.64522 0.399821 0.796375
-0.0449251 0.0855492 0.162435
0.176558 0.327965 -0.870601
0.873126 0.0560591 -0.764915
-0.603268 0.0978244 0.614204
0.948034 -0.255557 -0.55263
0.340084 -0.192106 -0.990872
0.697483 0.0844223 -0.0949155
0.619764 -0.380956 -0.863423
-0.601224 -0.58588 0.304556
-0.405295 -0.0635323 -0.98791
-0.548115 -0.296635 -0.98138
-0.622212 -0.483114 -0.526532
0.311084 -0.144143 0.268854
-0.680924 0.153635 -0.0666406
-0.597737 0.112154 0.464162
-0.668584 -0.00939577 -0.595351
0.194014 0.428071 -0.669584
-0.214312 0.186805 -0.696769
0.307522 -0.474146 -0.989275
-0.831938 -0.477008 0.535713
-0.653115 -0.405529 -0.952501
-0.126936 -0.0295647 0.639607
0.687578 -0.391605 -0.75545
-0.641886 0.206748 -0.222758
-0.203005 0.266288 -0.982024
-0.00771469 -0.618316 -0.79425
-0.701218 0.346431 0.50722
0.458294 -0.615995 -0.214948
0.265251 0.340755 -0.843978
0.030034 0.495075 -0.310463
0.199614 -0.145714 -0.987062
-0.202413 0.149233 -0.924156
-0.381746 -0.492067 0.0345313
-0.9967 -0.314482 0.177532
-0.389706 -0.61133 -0.286854
0.436414 -0.50536 0.00151519
0.109725 0.354572 0.828265
0.806057 -0.155097 -0.308474
-0.486675 -0.179469 -0.704663
-0.577848 -0.454763 -0.567715
-0.60796 -0.638078 0.258115
-0.224311 0.254337 -0.568602
0.524397 -0.604396 -0.221765
0.703766 0.105896 -0.810575
-0.00560842 -0.0247037 0.21402
-0.00980058 0.287082 0.948077
-0.27123 0.0793928 0.571909
0.522214 0.274895 -0.166138
-0.156375 0.169513 0.876015
-0.524437 -0.337679 0.596317
-0.25067 -0.0227452 0.688337
-0.837967 -0.0554067 0.431271
-0.931744 -0.328636 -0.169521
0.607296 -0.555849 -0.333864
0.812946 -0.168489 -0.444534
0.365924 -0.438302 -0.993735
-0.519579 0.249817 -0.169811
-0.690597 -0.605723 0.473819
0.655494 -0.149529 -0.978121
0.679728 0.14944 -0.667273
-0.120909 -0.522792 -0.0184494
0.274158 -0.387095 0.211388
-0.685764 0.542071 0.86996
-0.923129 -0.0877877 0.279989
-0.402823 0.178791 0.0790653
-0.0101906 -0.510787 -0.93037
-0.19734 0.375029 -0.968303
0.117113 0.333562 -0.92332
0.281283 0.430515 -0.289029
-0.592293 -0.515733 0.538531
-0.556456 -0.570437 0.245066
0.283031 -0.00356476 0.248821
-0.657036 -0.692172 0.26057
0.205392 0.443276 -0.265025
-0.581542 0.750852 0.779254
-0.206898 0.0220345 0.736439
0.383889 0.356927 -0.233157
-0.719823 0.187685 0.484034
-0.287722 -0.558356 -0.127742
-0.580135 0.181574 0.00164735
0.0410185 0.304418 -0.984141
-0.266485 -0.529815 -0.0681902
0.081651 -0.649125 -0.892664
0.962438 -0.0230221 -0.678822
-0.636842 0.0297024 0.620126
-0.593193 -0.185864 -0.65871
0.239409 0.243059 0.0590463
0.527543 0.325101 -0.366429
-0.867054 -0.677811 0.125032
0.510644 -0.386682 -0.962836
0.676951 -0.497807 -0.447976
0.662396 0.0489325 -0.921562
-0.148982 -0.493171 -0.657779
-0.859373 -0.110081 0.471329
0.0403316 0.274586 0.762109
0.497211 0.191105 0.00306183
0.878869 0.0699302 -0.673658
-0.469667 -0.561944 -0.978011
-0.582236 0.692401 0.828112
0.351253 -0.577266 -0.918338
0.365456 0.413179 -0.529656
0.824865 -0.351825 -0.618395
-0.141294 -0.314463 0.160782
0.232372 0.11467 0.175683
0.68729 -0.476215 -0.516097
-0.576846 0.235529 0.576359
0.712407 0.125021 -0.612067
-0.628722 0.337878 0.76313
-0.615331 0.136668 0.0546456
-0.792778 -0.514593 -0.28635
-0.058455 -0.638965 -0.984389
0.781393 0.0237687 -0.37123
0.444185 0.290958 -0.827561
-0.687134 0.695217 0.891272
-0.52868 -0.419988 -0.601607
-0.670603 0.131642 0.452273
-0.131213 -0.703702 -0.888918
0.512274 0.316888 -0.590323
-0.137218 0.264241 -0.983483
0.0185046 0.481045 -0.541733
-0.712754 0.0765792 0.245389
-0.91238 -0.0414456 0.233795
-0.682144 -0.64407 0.0297295
-0.781416 0.00107358 0.499656
0.411251 0.385525 -0.590584
-0.310248 0.128342 -0.677956
0.116795 -0.112268 0.254872
-0.582097 0.047115 0.429919
-0.401304 -0.177296 0.516216
-0.158975 0.0616017 0.795215
0.79099 -0.278124 -0.259605
-0.450578 -0.408672 0.355622
0.224808 -0.580673 -0.123392
-0.0169493 0.331511 -0.969719
0.292922 -0.725694 -0.290023
0.542289 -0.0115769 -0.982195
-0.728266 0.475629 0.856667
0.746058 -0.170028 -0.0802299
-0.0782216 -0.21044 0.2103
-0.841858 -0.455827 -0.292395
-0.649905 -0.230634 -0.636528
-0.8213 -0.284593 -0.481108
-0.69025 -0.73285 0.128258
-0.211191 -0.541282 -0.557367
-0.935819 -0.280781 -0.11657
-0.491836 -0.531042 0.120342
0.693949 -0.419424 -0.147647
0.0568461 -0.714324 -0.525768
-0.584154 0.171269 0.527661
-0.629425 0.0763339 -0.545176
0.810144 -0.0896395 -0.438779
-0.606728 -0.0747722 -0.98236
0.677301 -0.301355 -0.932969
0.688327 -0.33443 -0.0191955
0.607774 0.263018 -0.499064
-0.667793 -0.210342 0.614804
-0.487363 0.0124647 -0.98439
-0.463126 -0.0212968 0.449949
-0.488185 0.0663815 -0.737111
-0.572532 0.301829 0.629462
-0.433604 -0.241545 0.478364
-0.289636 0.119626 0.167016
-0.0321271 0.352495 -0.905691
0.678733 -0.444344 -0.697855
-0.590647 -0.420031 -0.976222
-0.155791 0.197384 0.750374
-0.638804 0.273391 0.749807
-0.119611 -0.392181 -0.934699
-0.851037 -0.413942 0.559862
-0.424639 0.22655 -0.396685
0.413602 -0.672737 -0.596535
-0.176047 0.267274 -0.0454516
-0.920016 -0.0881081 -0.140281
0.740466 0.0941894 -0.559576
-0.673652 -0.084509 -0.611781
-0.0660633 0.075212 0.61075
-0.251315 0.110316 0.83403
-0.158715 -0.657656 -0.838573
-0.715148 -0.443967 0.584234
0.0676699 0.00882026 0.223441
0.788438 -0.0750603 -0.185128
-0.0644454 0.014044 0.190598
-0.573455 0.075184 0.222108
0.486361 0.108311 0.115068
0.338549 0.0395641 0.222801
-0.889515 -0.399072 -0.14719
-0.729191 0.112685 0.472767
0.460691 0.223117 -0.0516059
-0.92673 -0.443196 0.324053
0.569759 0.274732 -0.574377
-0.280726 -0.576669 -0.399066
0.914175 -0.306478 -0.573986
-0.455354 -0.399578 -0.978
-0.574304 -0.532732 0.331545
0.645012 0.225764 -0.548283
-0.71563 0.515176 0.709065
0.995186 -0.168342 -0.650909
-0.729189 0.47049 0.541932
0.0863465 -0.528737 0.0513572
0.766052 -0.319299 -0.198972
0.807875 0.0868935 -0.786453
-0.180907 -0.555481 -0.372367
-0.934652 -0.347008 0.422028
-0.939062 -0.137678 -0.258043
-0.628561 -0.597871 0.445167
-0.773057 0.1511 -0.270995
-0.272926 0.273575 -0.343245
-0.711879 -0.724705 0.239012
-0.183921 0.00210051 0.672509
-0.208649 0.0350293 0.554203
-0.515453 0.102961 -0.982699
-0.445077 -0.501581 -0.554659
-0.893664 -0.0657446 0.337498
-0.673676 0.681866 0.826473
-0.728359 -0.36937 0.605574
-0.400374 -0.124828 -0.965444
-0.315901 -0.14997 -0.965355
0.283736 -0.598223 -0.139088
-0.990658 -0.246263 0.19491
-0.691528 0.177034 -0.187029
0.17537 0.358747 -0.15836
0.112621 -0.509774 -0.956935
-0.85514 -0.694035 0.25758
0.630575 -0.262031 0.0886509
0.575991 0.262536 -0.659174
-0.175148 0.456422 -0.3728
-0.0336898 -0.68458 -0.551764
-0.557064 -0.585939 -0.389299
-0.207144 -0.501279 -0.763406
0.177823 -0.457704 0.162745
-0.585764 -0.255906 -0.651742
-0.664114 0.0760174 0.295045
-0.695688 -0.443008 -0.516832
-0.394794 -0.508019 -0.592623
0.32138 0.324696 -0.885002
0.692926 -0.485511 -0.269119
0.0167182 0.342343 -0.859983
-0.36141 -0.0538503 0.256045
-0.423265 -0.0272254 0.719206
-0.460894 -0.297077 -0.765157
0.17897 -0.256326 -0.942076
0.610403 -0.277496 -0.962017
0.412269 -0.206963 -0.984109
-0.7633 0.145693 0.534075
0.307779 -0.722186 -0.408477
-0.234226 -0.0391942 0.548783
-0.359431 -0.0527864 0.470708
0.372739 -0.512946 -0.0092007
0.23211 -0.736818 -0.527506
0.0807525 0.430203 -0.197756
-0.647209 -0.55707 0.514888
0.47862 0.15022 -0.892953
-0.0417096 0.403288 -0.19027
0.330932 0.270721 -0.0988445
0.438766 0.280489 -0.890815
-0.970541 -0.517595 0.155692
0.594908 -0.572916 -0.409723
-0.075686 0.106321 0.942819
0.30487 -0.0229061 -0.994595
-0.246532 0.247672 -0.0505924
0.276024 0.0393405 -0.985992
0.208911 -0.541165 0.0485859
0.220098 0.0311442 -0.937825
0.0847701 0.229658 0.779253
0.769226 0.0734589 -0.844303
0.978629 -0.241576 -0.676788
-0.480579 -0.35029 -0.652795
-0.168997 0.317661 -0.212544
0.552771 0.314372 -0.516332
0.150276 -0.526175 0.0653146
0.55395 -0.32815 -0.956861
0.501226 -0.423515 0.111709
0.260155 0.281434 -0.0854061
-0.522622 0.0524802 0.268196
-0.419513 -0.615505 -0.955985
-0.275215 0.019873 0.524192
0.354804 -0.267344 -0.993022
-0.525362 -0.223484 -0.676772
0.17858 0.325387 -0.95106
-0.348078 -0.528119 -0.71314
-0.307215 -0.367169 -0.983355
0.720289 -0.443571 -0.327687
-0.277124 -0.556283 -0.602063
-0.529826 -0.293353 -0.660709
-0.199094 -0.477412 -0.961065
-0.425891 -0.585142 -0.848746
-0.0995885 0.169476 0.935924
0.156699 0.228217 0.0496713
-0.15697 -0.0332087 -0.931302
-0.40459 0.262011 -0.264149
0.641192 -0.0728739 -0.975998
-0.0849044 -0.667515 -0.816816
0.333575 -0.229599 0.262952
0.588476 -0.527287 -0.148094
0.698351 -0.4695 -0.391988
-0.666363 -0.581197 0.0168851
0.733076 0.0112907 -0.911379
0.351954 -0.371252 0.214898
-0.408073 0.219851 -0.982016
-0.866069 -0.610149 0.388673
0.0856317 0.0350696 -0.929968
0.0964255 -0.449054 -0.9313
-0.742144 -0.677265 0.048116
-0.401311 -0.130477 0.448928
0.720311 0.165999 -0.388131
-0.98043 -0.20056 0.129681
0.0811349 0.355601 0.939423
0.920018 -0.0673081 -0.814414
-0.746915 -0.00504173 -0.5109
-0.213311 -0.50684 -0.69366
0.370685 0.205207 0.0768884
-0.129897 -0.615757 -0.790906
-0.687108 -0.0595441 -0.841584
-0.642478 -0.178855 -0.977927
-0.439218 -0.224824 0.548715
-0.731038 -0.116801 -0.893667
-0.402335 -0.54467 -0.978002
-0.502725 -0.497685 0.0535621
-0.139021 0.36619 -0.962105
0.5535 -0.487632 -0.79997
0.432021 -0.487573 -0.991316
-0.322107 0.282382 -0.829353
-0.566627 -0.050546 -0.790404
0.440749 0.132261 -0.960512
-0.7477 -0.7172 0.1077
-0.956101 -0.508969 0.230289
-0.332862 -0.109008 0.61097
0.842888 -0.37573 -0.668754
0.477536 -0.565144 -0.0946407
-0.8048 -0.712097 0.306105
0.705124 0.165089 -0.538155
-0.499002 -0.447137 0.406012
-0.913343 -0.582728 0.0524112
0.112196 0.307797 -0.978207
0.10023 0.487446 -0.326683
-0.555379 -0.557544 0.100687
-0.0827555 0.181183 0.0780032
-0.545992 -0.565003 -0.975985
0.706773 -0.448004 -0.578161
0.437001 -0.0833402 -0.982781
-0.575945 -0.626344 0.198814
-0.274192 -0.523285 -0.733355
0.439095 0.205705 0.0278278
-0.719059 -0.564418 -0.283862
-0.146367 -0.170457 0.204006
-0.509357 0.201555 0.0170678
0.484915 -0.0501924 -0.9974
-0.759987 0.0721598 0.637273
0.466656 0.349246 -0.326474
0.212829 -0.21518 -0.986781
0.20295 0.219611 -0.986527
-0.135727 -0.198758 -0.940991
-0.683727 0.1893 -0.370552
-0.742353 -0.725153 0.293518
-0.659991 0.698914 0.687304
0.389308 0.37729 -0.65975
-0.824379 -0.0471119 0.496077
0.378343 -0.383605 -0.991979
0.323783 -0.396947 -0.948911
0.227926 0.447953 -0.33751
-0.285597 0.173758 -0.789591
0.302905 0.206864 0.0956052
-0.233072 0.0452913 0.857957
-0.922287 -0.628306 0.101367
-0.096122 0.223101 0.766728
0.147196 0.180316 -0.929487
-0.109589 0.486762 -0.355464
-0.981768 -0.376414 0.225722
0.0509091 0.324651 0.823223
0.193422 0.258897 0.00613158
-0.591089 -0.321811 0.610411
-0.228792 -0.459874 0.0503267
-0.242641 0.326489 -0.987001
-0.83874 -0.409212 0.0120028
-0.0859036 -0.358109 0.155653
0.297444 0.309105 -0.956439
-0.814333 -0.484798 -0.222918
0.584683 0.27812 -0.377275
0.530761 -0.495195 -0.876364
0.0403 0.260316 0.932231
-0.0745695 -0.624113 -0.551805
-0.98132 -0.378084 0.155798
-0.0257898 -0.293165 -0.9377
-0.867327 -0.0166603 0.296753
-0.65607 0.477361 0.822953
-0.0141069 -0.668805 -0.835826
-0.365229 -0.336307 0.251261
0.683303 0.0969213 -0.722114
0.684143 -0.0201252 -0.951801
0.0331827 0.222584 0.708475
0.796267 0.00375611 -0.882796
-0.580553 -0.208802 0.610715
-0.153953 -0.26945 -0.944369
-0.750409 -0.687551 0.369913
-0.432598 0.137473 -0.908146
0.0673194 -0.557681 -0.00952268
-0.0808211 -0.501839 -0.929495
0.862652 -0.0221933 -0.541108
-0.856861 -0.0364253 -0.407772
0.991922 -0.154238 -0.580108
-0.754764 0.392698 0.702443
-0.394688 0.129047 -0.834829
-0.16863 0.100739 -0.927371
-0.312594 -0.53121 -0.789246
0.480142 -0.234295 -0.991855
0.612536 0.0119982 -0.958668
0.234841 0.309095 -0.975116
0.733778 -0.411846 -0.518623
0.000821541 -0.717845 -0.508226
0.271994 -0.523066 0.0670331
0.678559 -0.504644 -0.336625
-0.387737 -0.139921 0.64635
-0.944603 -0.407973 0.100016
0.295285 0.437355 -0.483833
-0.318142 -0.574279 -0.297336
0.4707 -0.600785 -0.15102
-0.278729 -0.00372941 0.816667
0.195061 -0.576471 -0.0568992
-0.817828 0.0937223 -0.253852
-0.905727 -0.381481 -0.212756
-0.694214 -0.578673 -0.209648
-0.510929 0.134511 -0.944443
-0.702408 -0.180633 -0.957026
-0.109367 -0.595725 -0.981856
0.475019 -0.159419 -0.979323
0.7542 -0.356379 -0.646024
-0.577953 0.115086 0.109213
-0.914902 -0.54967 0.35587
-0.560346 0.0887696 -0.559381
-0.148821 -0.58977 -0.26327
0.657736 0.0993283 -0.0360236
-0.441106 0.262703 -0.147592
-0.460973 -0.552434 -0.0489861
0.291769 -0.585101 -0.974786
-0.587729 -0.145583 -0.981711
0.00724902 -0.669586 -0.973847
0.234168 -0.489228 -0.976501
-0.885524 -0.0901801 0.403205
-0.600065 0.522772 0.767713
-0.206252 0.333072 -0.570805
-0.237095 0.314407 -0.322698
0.0561854 -0.0611677 0.238117
0.353014 0.307002 -0.168213
-0.60402 -0.286769 -0.965602
-0.341909 0.00862783 0.499539
0.0109502 0.0433827 0.190888
0.837807 0.0365416 -0.830581
-0.346188 -0.547607 -0.558939
-0.00899921 -0.753304 -0.333598
-0.547242 -0.351139 -0.627632
0.388057 0.321127 -0.85285
0.802787 -0.2664 -0.532771
0.137321 0.0362562 0.227772
-0.74579 0.572552 0.827337
-0.273492 0.130066 0.766222
0.0761159 0.419071 -0.757158
-0.347965 -0.113319 0.264337
-0.627093 -0.267186 0.614989
0.539855 -0.514361 -0.0896782
-0.288062 -0.0629117 0.648913
-0.100122 0.110821 0.76183
0.527057 -0.553741 -0.736843
0.342442 0.399218 -0.25846
-0.59091 0.305212 0.550492
0.649857 -0.531915 -0.387755
-0.048228 0.315295 -0.159324
-0.467885 -0.128462 -0.982837
-0.961948 -0.587163 0.149905
-0.32955 0.0152157 0.234097
0.695756 0.0289677 -0.043976
-0.16406 -0.440337 0.0802701
-0.00820093 0.202385 0.921247
0.36505 -0.052577 -0.986309
-0.734401 -0.470642 -0.46418
-0.481394 -0.32207 -0.98334
0.658554 0.199398 -0.483244
0.293569 -0.722908 -0.646635
-0.211814 -0.137403 0.225142
-0.352663 -0.589293 -0.957261
0.921522 -0.14507 -0.824819
-0.310355 -0.234291 -0.96526
0.203079 -0.00733515 0.248363
-0.652853 0.720878 0.941483
0.281601 -0.642649 -0.831572
0.194898 0.461716 -0.404571
-0.176847 0.360315 -0.633583
-0.351289 -0.297618 -0.971789
-0.529376 0.255779 -0.245615
-0.801879 -0.66953 0.0898803
-0.493847 -0.623 -0.958043
0.333391 -0.117159 -0.990207
-0.607285 0.0635307 0.357831
-0.903932 -0.633345 0.251281
-0.227074 -0.560519 -0.417895
-0.760135 -0.524056 -0.338296
-0.253362 -0.0918547 0.615987
-0.1586 0.100126 0.142218
-0.897727 -0.0912054 -0.0609024
-0.21982 0.220146 -0.635615
-0.775462 -0.486017 -0.0230557
-0.781996 -0.431978 0.577622
0.237826 0.18127 0.11765
-0.566942 -0.512721 0.0467966
0.72163 0.113049 -0.209674
0.673399 0.169741 -0.211936
-0.607681 -0.453632 -0.832078
-0.809614 -0.018978 -0.468919
0.399711 -0.48281 0.057804
0.0681414 -0.662959 -0.776545
-0.0863708 -0.129898 0.211841
-0.0608114 -0.154796 -0.936449
-0.790761 0.120548 -0.327242
-0.697683 0.574382 0.665601
0.946746 -0.042961 -0.748116
-0.474684 -0.596791 -0.18414
0.570129 -0.383501 0.0834623
-0.0539585 0.226182 0.952426
0.325935 0.258367 -0.0346045
-0.119761 0.15931 -0.925911
-0.88752 -0.156497 0.447855
-0.145352 -0.609772 -0.335179
-0.334686 0.266744 -0.984393
-0.427747 0.0221061 0.675147
-0.915068 -0.200614 -0.313947
-0.0549037 -0.562072 -0.963465
-0.323698 0.245574 -0.0695321
-0.986481 -0.307174 0.252924
0.460351 0.353126 -0.641002
0.189449 0.107873 -0.926454
-0.745285 0.123624 -0.0804368
-0.0620307 0.145323 0.884311
-0.513309 -0.469692 0.547375
0.0772314 0.313272 -0.135483
0.837928 -0.227054 -0.883685
-0.597128 0.22009 -0.273866
-0.576731 0.1497 -0.517603
-0.196649 -0.00663429 0.82731
0.401107 -0.599314 -0.796195
0.135829 -0.694027 -0.180556
0.0989291 0.37089 -0.16029
-0.892919 -0.014147 0.165896
-0.26965 -0.317919 0.197158
-0.266782 0.25511 -0.982602
0.740789 -0.328201 -0.892971
-0.360025 0.319617 -0.899834
-0.163605 -0.0929969 -0.935627
-0.420758 -0.265649 -0.974609
-0.342692 -0.0993543 -0.987065
-0.239168 0.0729063 -0.926069
-0.540747 0.0151171 -0.786641
0.656661 -0.389724 -0.809574
-0.472395 -0.141712 0.637453
0.903378 0.000277211 -0.794347
-0.56419 -0.614464 -0.953601
0.437804 -0.547969 -0.828105
0.465919 0.263973 -0.101324
-0.853395 0.0441617 -0.288503
-0.641892 0.607441 0.874905
0.203314 0.0584605 0.218062
-0.386022 0.059517 0.223611
-0.451418 -0.378137 0.415791
0.0910021 -0.690645 -0.709416
0.952988 -0.187432 -0.782662
-0.0718893 0.482082 -0.297339
-0.8697 0.042407 -0.218322
0.574886 0.285474 -0.309892
-0.895982 -0.431433 0.512895
-0.599956 0.61466 0.686126
-0.711445 0.509054 0.63213
-0.619408 -0.588009 -0.187661
0.341411 -0.619277 -0.833682
-0.258443 0.308332 -0.811327
-0.621511 -0.653579 0.0648853
0.702095 0.155672 -0.453816
0.624808 -0.519746 -0.519892
-0.378306 -0.592322 -0.896302
0.288835 0.297147 -0.148837
-0.487061 -0.611976 -0.366881
-0.423069 -0.434838 0.28763
-0.658126 -0.727114 0.186056
-0.773145 -0.299534 0.608464
-0.76106 0.078264 0.531806
-0.644473 0.621312 0.607406
-0.739736 -0.0618307 -0.961821
0.865736 -0.279512 -0.841195
-0.0190202 0.0478955 0.656964
-0.0288648 -0.719138 -0.447938
-0.376816 -0.389794 0.14745
-0.0922442 0.44341 -0.230545
-0.376473 -0.597714 -0.348062
-0.145032 0.115832 0.913918
-0.750179 0.458582 0.741039
0.6157 0.247923 -0.607858
-0.401092 -0.536331 -0.0259918
0.588675 -0.572302 -0.266527
0.600087 -0.538033 -0.608746
-0.611715 -0.228278 -0.885961
0.473039 -0.621014 -0.2751
-0.576612 -0.545756 -0.0332933
0.45973 0.297215 -0.152383
-0.273323 0.269213 -0.126314
-0.00653749 0.211383 0.996043
-0.247884 -0.250626 -0.984882
-0.861938 -0.434121 -0.219864
-0.0132731 0.474085 -0.60206
0.763275 -0.209604 -0.132583
0.639325 -0.521605 -0.21895
0.374298 -0.701878 -0.28497
-0.191792 0.28746 -0.154715
0.573898 -0.445666 -0.865192
-0.12865 0.452055 -0.541083
0.788608 -0.31169 -0.324761
0.109982 -0.243886 -0.938993
-0.571778 -0.281819 -0.902712
0.12725 0.229323 -0.983784
-0.241324 0.124705 -0.704493
-0.187491 0.427543 -0.319498
0.413262 -0.554137 -0.971415
-0.770643 0.0586091 0.217744
-0.350099 -0.579682 -0.154171
0.0156698 -0.587023 -0.146427
0.473385 -0.199389 0.212456
0.347976 -0.673412 -0.22073
0.978325 -0.086656 -0.576443
0.0573081 0.487906 -0.385985
0.33457 -0.507177 0.0615966
0.666093 -0.229116 -0.959672
-0.2004 0.2685 -0.7756
-0.730007 -0.0541656 -0.562755
-0.343858 -0.0142018 -0.986172
-0.787486 -0.433772 -0.428851
-0.713356 0.112561 -0.0192468
-0.0532998 -0.585157 -0.109304
-0.719918 0.0609143 0.0874837
-0.975636 -0.171278 0.204228
-0.279852 -0.54622 -0.853772
-0.785229 0.204712 0.63679
-0.350835 0.158337 0.126867
-0.626176 0.199275 -0.416199
-0.603179 -0.590192 0.0568733
-0.64827 -0.238237 -0.957968
0.155601 -0.186462 -0.943242
0.796592 -0.0153728 -0.46807
-0.85769 -0.227767 -0.429091
-0.0627517 0.414304 -0.715916
-0.404721 -0.00407289 0.256627
0.764776 -0.35066 -0.263184
-0.486255 0.247596 -0.100499
-0.669427 0.670591 0.761979
-0.550848 -0.076026 -0.664638
-0.149936 0.168583 0.67633
0.0281578 -0.701082 -0.595907
-0.0920286 -0.67603 -0.433653
-0.911248 -0.169788 0.387887
0.0842585 0.467033 -0.527543
-0.476718 -0.477855 -0.784717
-0.19973 -0.146115 -0.972154
0.744692 -0.412503 -0.391883
-0.362651 0.222751 -0.426358
0.296288 -0.586099 -0.876773
-0.698403 0.0618251 0.42245
0.578141 0.0217175 0.104252
0.403079 0.18049 -0.984989
-0.745165 -0.13145 -0.95001
-0.39785 -0.434203 0.107794
-0.648251 0.0886743 0.664206
-0.866099 0.00662017 0.233302
-0.26629 -0.115431 -0.988592
0.979707 -0.179191 -0.717057
0.328605 0.157812 -0.990439
-0.249817 -0.423692 -0.980949
0.0606114 0.238515 -0.983755
-0.00355643 0.10992 0.637123
-0.770382 0.0301026 0.568039
-0.200755 0.10349 0.879495
-0.10718 0.274002 -0.0380396
-0.403253 0.276003 -0.96901
0.953069 -0.116814 -0.526312
-0.456174 0.0699229 -0.984763
-0.26679 -0.492276 -0.983136
-0.753029 -0.495921 -0.400663
-0.724254 0.672156 0.935723
0.595176 0.0732627 -0.903366
-0.696589 -0.294272 0.61662
-0.930015 -0.417974 0.434768
-0.475927 -0.413699 -0.772738
0.268545 -0.728749 -0.585793
-0.36833 -0.290054 0.294663
0.771221 -0.126202 -0.133875
-0.105837 0.375452 -0.196404
0.115584 -0.354795 0.225055
0.841851 -0.37901 -0.743106
0.11298 -0.0360188 -0.93317
-0.454176 0.0351327 0.238222
-0.860208 -0.340973 -0.387166
0.269065 0.0593404 0.218048
-0.594119 0.395581 0.730987
0.138548 -0.67372 -0.780395
-0.575439 -0.222014 -0.981968
-0.28004 -0.560797 -0.531708
0.585379 0.175142 -0.787333
-0.435296 0.13774 -0.601648
-0.373403 0.118211 0.177517
-0.620826 -0.346475 -0.970655
-0.554261 -0.564905 -0.459328
-0.807417 -0.442755 -0.015807
-0.196024 -0.0636028 0.634892
0.651146 -0.397032 -0.0321634
0.0167364 -0.353748 -0.935845
-0.418436 0.209999 -0.924178
0.186012 -0.531374 -0.988613
0.356854 -0.681596 -0.652387
-0.786288 -0.0678172 -0.5048
-0.903336 -0.478274 0.459163
0.272116 -0.350075 -0.938524
0.481107 -0.53566 -0.87689
-0.323861 -0.526116 -0.0108007
0.476929 -0.632173 -0.573903
-0.944093 -0.249881 0.522369
-0.564219 -0.021739 0.541766
-0.345541 0.274893 -0.23601
-0.771394 0.62833 0.914252
0.892898 -0.151368 -0.501581
0.058265 -0.490464 0.107821
