4.63375 5.50064 -5.31784
4.06791 6.57312 -19
-4.66597 2.00637 -5.68487
-4.72469 -9.99963 4.19431
1.11852 9.93855 -5.96369
5.56016 5.9081 -13.6164
11.7994 5.69391 -5.73391
-2.32748 5.6658 17.2117
6.51725 -9.99947 9.91267
-8.19955 -1.16783 8.04529
-6.37655 6.12056 -9.9994
-5.51631 8.27451 9.99945
2.60099 5.02323 5.94315
-4.19699 7.97412 0.176095
7.72951 3.72064 -11.8612
11.7994 1.95794 -7.85026
-8.12131 -9.99942 -5.39181
-2.63675 6.41591 -4.0508
-5.06407 -1.37792 17.1605
2.5801 -4.88639 19
11.7995 -6.45535 -4.40058
-6.39612 0.942858 -5.93365
5.81682 6.35763 -4.4533
1.694 -9.86829 -9.99952
6.26658 9.94974 -4.02159
-8.19931 -6.58068 9.9368
4.78511 -9.93968 -5.20794
11.7996 6.069 -0.540023
-8.19943 -3.47345 5.00738
1.84394 -6.83788 -6.01557
-0.374128 6.6711 -17.1573
-8.1995 7.84497 1.98922
7.59557 4.12362 -10.0004
8.36077 -9.99934 -9.93629
7.1354 2.64346 5.385
11.7995 6.36861 4.89162
1.61613 1.09162 19
-4.6582 -8.25434 9.99949
9.94681 6.0935 9.99945
7.23983 4.40257 18.934
-2.37029 9.99926 4.48231
-4.02839 -8.01835 1.4489
4.28785 -6.54972 15.4624
8.40671 2.33064 15.3828
4.90995 -3.18792 5.14157
11.7995 -0.00291644 6.09654
5.6481 5.78167 -18.9998
3.86573 -6.77742 -10
3.11321 -6.20441 5.85952
-8.1995 3.25705 -9.9003
7.65283 -3.84277 -17.041
-8.19954 -7.87994 -2.29459
9.78031 -9.99957 -1.15571
2.14162 6.94958 18.999
7.78658 3.51661 -18.9999
-1.28634 8.24687 5.14872
6.46743 -5.21442 -17.1266
-6.43734 -7.61799 9.99937
0.629439 2.90729 19.0001
-8.19917 9.92322 -6.34475
11.7994 7.76695 -5.97913
2.66285 0.706573 -5.98504
1.27256 -7.88992 5.97346
-8.19955 -0.958783 -6.03178
11.6936 -9.88842 -9.99873
-3.58016 -7.98966 -9.9995
3.94375 -6.66095 -15.3541
11.7995 -1.29051 9.91763
-3.15494 8.05598 -3.37889
-8.19951 5.93005 -7.82643
-0.343743 -6.67894 -14.8521
9.84051 -2.15343 -5.61005
7.68141 5.79111 -1.63236
7.63054 5.73808 1.75713
11.7995 -7.84758 3.77826
11.6134 9.99957 9.90173
-4.22455 -9.99963 -0.932458
2.77154 6.92962 -11.8648
7.22764 -4.41755 13.5871
-6.48366 9.99954 -4.3561
4.55082 9.92961 -9.99943
-8.19954 -8.09913 5.65672
6.88421 5.02071 -3.30155
-4.30233 3.45964 11.9
-4.96128 -1.64835 18.9992
4.97501 6.23547 17.1373
-4.24848 -9.99945 0.711623
-8.19954 -9.94128 2.56656
-6.46804 4.32708 4.15852
-8.19951 -2.59748 -7.91819
11.7995 6.91996 2.9736
-8.19996 6.00046 1.07269
-8.19956 -8.49945 3.70617
-3.53474 2.54568 5.436
-2.3193 -5.6732 -15.5124
11.7994 -6.04155 -0.764939
0.542444 -9.99947 9.92602
-1.14883 -6.35439 -18.9222
8.58913 -1.42066 -18.9998
3.95817 -2.40297 -19.0001
-4.77586 -2.40907 15.4172
-2.16162 3.81097 4.63563
0.0444453 -9.99956 -7.85179
3.99515 6.60706 18.9999
4.08531 6.62274 11.8761
9.9518 -3.84961 -4.61708
-8.19949 -5.71121 8.31673
11.7998 0.880253 -9.9433
-4.64549 2.73884 17.0955
-4.42618 -3.20272 18.9352
-6.53977 6.68707 9.99946
-4.17989 3.64757 18.9301
-6.09101 -9.99963 -2.17349
11.7116 -4.58864 -3.89301
9.56342 -5.61465 2.1716
-6.021 4.28516 -9.99956
11.7995 0.0131105 -7.93458
-5.01293 1.65567 11.9366
-1.97223 9.92811 -4.66188
-3.3935 -4.68232 18.9322
4.20688 7.8807 -5.49456
-0.547922 9.99901 -5.63639
10.0095 9.99954 -4.65562
-4.40428 6.17139 -9.99954
-1.667 7.97822 -4.90047
-4.84053 0.950292 5.93327
10.1135 -2.35133 9.9996
0.785763 6.94467 -11.9074
6.31148 8.27821 3.98963
-3.81563 -9.99908 2.37892
0.563203 4.66629 5.90317
6.27079 -8.21095 4.02794
6.29547 -6.31229 3.99417
-8.09775 9.99968 -9.87098
1.76893 -7.00593 18.9392
1.77504 7.00663 -13.6464
8.22939 -9.99969 -4.46931
-4.15012 9.99948 -5.60551
11.7994 -8.05214 -7.9235
-6.33426 2.81717 -5.30579
6.89999 4.81628 -18.9292
8.47827 1.95549 -18.9995
-4.51422 4.24325 4.23985
-8.19948 -3.56902 -9.8983
11.7995 -2.72877 7.6978
8.80029 0.360761 15.4187
-1.07668 5.87575 -5.25575
-4.94232 1.89016 15.3396
8.58795 -9.99955 -6.4755
-8.19949 7.84167 5.96927
-8.19953 8.07783 -0.000698399
-8.19952 8.11253 3.81938
11.7477 2.63562 -9.99944
0.0482192 -0.770905 -19.0001
4.83982 -6.84735 5.17512
8.23788 -2.74396 13.7364
1.73841 9.9995 8.0057
-8.19943 8.33556 7.96038
-5.06542 -1.37732 13.6519
4.8057 8.20743 5.19635
1.79101 -7.01077 -15.3707
9.81375 -5.70647 -1.91315
1.72645 -7.00252 11.9198
8.06629 -3.12046 -18.9325
-4.00155 -5.88309 1.60062
5.86681 -5.6977 -15.3485
11.7998 5.99216 1.14723
-4.29972 -3.46638 17.1201
-3.43401 -5.29557 2.9859
9.34735 9.99963 2.82027
-1.22144 -6.32082 13.6467
9.96486 3.98538 -4.49639
-8.19971 5.50726 2.63186
-6.21615 9.9996 0.104104
3.9095 1.45626 5.82371
-2.70958 2.2935 -18.9998
11.7995 -0.7178 8.02644
-1.5151 -9.99943 9.92436
-0.569265 -8.25186 9.99956
-1.37633 -8.18106 -9.99951
-0.259395 9.99961 -7.85171
0.67916 -4.85044 19
11.7995 -1.80336 -8.16708
0.764357 -3.9175 5.93686
10.2937 -0.0766042 9.99965
-1.92269 -5.93519 18.9215
2.3213 6.93373 -18.9995
-8.12804 9.99929 -0.934739
2.55681 -1.20864 -5.96233
-0.803842 -4.92416 5.42802
-3.80398 -9.99939 -2.4835
-4.19909 3.62447 -15.3437
0.808385 -6.95366 13.6925
8.54342 4.81274 -3.59068
-2.9288 -5.17759 17.1125
9.8908 5.43002 -2.54603
1.70361 9.99965 -7.96814
-4.88604 1.87884 18.9999
8.55071 1.89339 -15.344
-2.73921 -5.24825 -18.9997
-8.12531 -4.72531 9.99955
4.51901 -0.752264 -5.98351
0.987782 9.93122 -9.99946
8.89598 0.894613 -10.0001
6.69618 -9.99965 3.61913
11.73 -9.99932 -8.38671
-8.19955 -8.11282 -0.299938
-5.92097 5.38007 2.66561
-0.479957 -6.63217 -16.7478
11.7998 -4.40777 4.20381
0.270874 6.77894 18.9995
-3.63632 4.42434 17.0873
8.34772 2.7148 -9.99986
-8.12969 1.4188 -9.9996
6.76189 -9.99966 -6.02508
9.79203 5.98548 -0.642609
-6.041 -2.56688 5.41611
-5.91029 -5.29902 2.84029
-1.42237 0.635903 -18.9999
-8.19948 -5.24869 -8.16429
7.37631 -4.2387 -15.2776
1.18554 -5.79557 5.96745
-1.7233 -6.04791 -13.7214
11.7994 -8.22823 9.93462
-3.6497 -9.99964 6.02926
6.35629 -5.31786 16.6928
8.03813 -3.21427 -13.6176
11.7367 8.26514 9.99926
-2.05964 -5.98849 -10.0001
11.6643 -0.880718 -9.99948
11.7301 -1.62277 5.77489
-5.19185 -0.11089 -18.9334
5.45342 -5.98322 -4.76394
2.15032 1.3819 6.01222
8.37829 -9.99964 4.18141
4.77424 9.91559 -5.20015
11.7995 4.44468 4.19017
8.69431 -1.21092 -13.6315
-6.02226 -9.9996 1.94248
1.85163 4.89835 -6.01704
7.62242 -9.99948 8.06275
3.87321 6.59969 5.62792
-6.03448 5.90416 -1.13209
-1.56699 6.13916 18.9354
-0.391641 -9.99862 -5.71455
7.69106 9.99917 1.53002
2.00588 -9.9994 -8.0301
11.7507 0.776013 9.99949
-1.59028 -9.99972 5.05272
11.7996 9.91191 -6.48816
5.28493 -3.82411 -18.9999
-2.41219 5.59675 15.3656
2.1831 -9.99995 6.08175
-6.70644 -0.756528 -9.99972
11.7995 8.00626 -0.106304
8.67575 -0.977597 18.9997
11.7996 6.45109 9.92589
-0.715245 -6.5311 -12.2634
-1.02225 9.93545 -9.99929
1.16161 9.99951 9.95715
-5.20355 -0.400347 11.876
5.76255 5.76403 18.9336
9.83609 2.13328 -5.62026
7.76895 -8.01834 0.673849
11.7278 0.564501 -5.97137
11.7995 -7.78683 1.94916
3.56704 9.9996 -8.19766
11.7197 -8.22514 -9.99966
11.7995 8.18571 -9.93347
4.86905 -6.28944 13.5473
5.80804 9.99958 -8.30815
3.89158 -4.49533 -5.63024
11.7997 -9.91892 2.73239
-4.90486 5.04826 -3.25009
-8.19955 9.87892 -4.58303
-2.0422 6.53371 4.60314
-4.75641 -2.45697 11.8855
1.64186 -9.99962 8.02462
8.92668 -0.754985 -10.0001
3.52846 4.82975 18.9999
0.594667 -1.91284 -5.90261
-8.19957 5.65009 -5.70741
-2.90958 5.19257 -11.846
10.0365 -9.91726 -9.9993
-5.67397 2.92946 5.25656
11.7998 2.17261 -5.69666
-8.19949 9.92136 4.84873
-8.14025 -0.192489 5.99887
-6.40071 4.24436 -4.23823
11.7994 -5.58087 -2.48496
-4.2178 3.59822 -11.8398
7.88751 -9.99939 0.456179
-6.2605 -2.88038 -5.27157
0.0500399 8.40911 -9.99957
-8.12901 -9.99944 -1.34356
11.7995 -6.67522 -6.4139
1.53953 -5.0137 -19
-2.02611 -5.86664 -17.3193
2.52393 -0.429952 5.99251
-3.60635 4.45837 -17.1355
-0.585565 -6.74305 5.52611
1.7892 -1.13313 -19
-1.54174 -3.26819 5.05175
-6.67464 0.0296828 9.99962
5.54019 -3.83726 -4.68593
-3.08055 9.99949 -3.64059
-5.97261 -7.83676 -9.99943
-3.00608 9.92616 -9.99925
7.73904 9.99954 -7.87846
7.11043 -4.55583 -18.9318
7.15307 9.9994 9.94162
6.04018 7.97632 9.99945
11.7994 5.92972 -7.81942
-4.82878 -6.1578 9.99966
-5.24255 -0.585443 -9.99966
-3.24504 -6.68297 -3.24693
-5.19715 -0.293269 15.3872
9.92289 9.99945 -6.65345
-2.16862 -5.77813 11.8711
7.86703 -3.41301 -4.92891
5.11789 -6.16643 -13.6656
9.34483 9.99935 9.93999
5.80455 6.40464 4.46912
-8.19952 0.265868 9.89927
3.80326 -6.646 18.9998
5.86044 -1.36126 5.83945
-3.83624 -4.1626 -11.9219
-8.19951 -6.62795 6.78179
6.13199 -5.51391 14.6977
-4.63751 2.76185 -17.119
-8.19954 -6.5882 -4.24201
-3.26171 4.83492 13.6057
-4.50657 -3.03371 -17.1614
-2.99284 4.99656 18.9998
6.00063 4.12457 -4.38418
8.79462 -0.406756 17.1387
9.63922 -9.99961 -3.15448
-6.35563 -5.4717 -2.45567
-0.867431 8.31896 9.99952
-1.52147 -1.47335 -19
3.93847 -9.99946 5.7354
-6.30096 -0.651712 5.98277
-6.26328 -5.12219 9.99948
10.102 2.81193 -9.9996
8.06494 -2.98489 19
-8.19932 6.72635 -9.91555
-6.40142 -3.30514 -9.99971
-5.17267 0.811528 10.0695
6.594 1.73699 -19
-4.97919 -2.06677 -10
-1.18747 6.34076 -11.8428
5.94902 -7.88975 9.99939
7.02196 6.93571 -2.96294
2.88638 8.2518 5.89913
-5.16627 0.746879 17.127
10.0921 9.99948 8.14585
-4.78865 -9.99951 -9.93107
5.94387 4.21679 4.33866
11.6936 5.31347 2.80104
-4.66653 2.70611 -13.5764
6.16072 -5.49106 -11.8587
11.7997 -9.88788 9.89274
8.13063 6.21838 -9.99958
-8.19933 -8.41913 -9.9212
4.1688 -2.51821 -5.51396
-4.05795 -9.99949 -7.86451
2.40929 9.99977 6.07658
8.03004 3.22719 13.6438
7.03404 -4.64953 18.9245
6.01292 5.59971 11.8355
11.7996 9.93466 4.63486
9.84969 -0.0890074 -5.99714
0.0311659 8.1001 -5.73529
-8.14046 -3.77663 -4.69007
6.7333 -4.83957 -3.59129
3.45251 -0.485188 -19.0001
-8.19945 1.57285 5.90565
-8.19946 -8.00328 7.95026
-5.15833 0.845362 -17.1265
6.43201 -2.2347 -19
-1.4021 6.24176 13.7426
7.2611 -7.66607 2.49132
-8.19952 1.8303 -7.96532
7.5487 -5.66668 -2.00768
0.798076 -6.92559 10.0767
4.67131 6.39108 -11.8301
6.09007 9.99952 8.28887
-2.3694 5.62636 -10.0577
-5.19531 -0.379408 -11.8311
5.14607 3.85396 18.9998
7.43513 -9.92785 2.07908
9.5462 -7.77015 -9.99946
-8.19966 -6.06652 0.603615
8.56813 1.86646 -11.8304
11.7995 9.90489 8.14533
-8.19943 0.619821 -6.07679
10.0303 0.792654 5.96889
-4.11582 9.93261 1.03821
6.56451 2.35553 18.9999
-3.8264 9.99951 8.17972
8.18196 1.03984 -5.91408
6.5877 -5.10393 12.0913
7.51469 -9.99948 -8.12539
-4.05516 -4.04861 10.0002
6.43026 5.24762 -10.0582
-3.77045 4.37546 -9.99997
-8.19963 -2.38532 -5.60793
8.42431 -2.29513 -17.2281
8.00469 8.19805 9.99952
-1.90479 3.86999 -4.72678
7.49467 9.94683 -1.88662
11.7995 -6.23245 4.97772
4.76156 -5.06371 5.25263
11.7995 -4.73223 8.27938
11.7994 8.35939 -3.98682
4.77851 -9.99946 9.90219
2.0834 -7.02001 15.45
8.10482 4.07185 4.42357
8.2026 2.83484 -13.6096
-3.72889 -4.31071 11.8911
-2.8518 -5.23348 10.0743
3.14313 -6.88132 -13.6684
3.45335 4.15662 -5.80434
1.64153 4.85877 19
7.27869 -9.99951 -2.70295
4.09034 9.99923 5.63484
6.80333 -6.68154 -3.29878
6.17349 -9.93574 -4.14191
7.72436 8.01892 0.974905
-6.24402 -4.34725 -4.13974
-5.90454 9.99953 2.15475
6.78885 -4.92422 -13.5903
-4.71639 2.5896 10.0649
9.78035 -9.99933 -7.95201
-1.98307 -3.37783 -18.9999
-8.19952 -0.417399 -8.01315
-3.43227 -4.64862 -17.205
-4.56153 6.31094 9.99949
5.21535 -0.786239 -19.0001
7.89225 9.9993 -0.187643
2.02727 -5.10561 -6.02588
-8.12442 9.9993 1.04223
-3.97 7.87354 -1.72721
-2.1892 7.95293 -9.99945
-3.74731 5.43961 2.55633
-8.19952 0.868948 7.85821
-1.85336 -9.92723 -4.77911
-3.60728 4.45936 -13.5983
4.86309 3.12542 -5.15988
11.7995 -8.15695 -3.65614
6.52093 9.99968 -6.15353
1.88802 2.95775 -6.0196
8.23377 2.67553 18.9997
11.7995 7.85941 -2.06336
11.7304 -9.99923 -0.796893
-8.19949 5.88537 9.92651
9.01555 -4.89078 -3.48207
2.40622 -7.14511 -10.0001
11.7994 -4.88427 -6.11815
1.94235 7.01875 11.904
-8.12696 -9.99946 0.712464
-8.19952 -6.81887 3.58113
-4.19677 -7.94006 -0.458927
4.47658 -6.47983 -11.9039
8.45055 -2.23344 17.3235
5.06371 6.19337 13.5645
9.9133 8.06483 9.9994
-2.63518 -8.19609 -4.0373
-2.10917 -5.81596 15.3683
-4.94157 1.90399 -18.9361
11.7997 4.4962 9.93341
9.99693 -4.73407 3.68986
11.7995 3.06087 5.2659
-8.19951 3.35492 6.80413
8.01388 3.32364 -4.99895
-3.62051 9.99914 2.77023
3.09849 6.88321 17.1149
-6.25027 -9.99964 -0.139348
-8.12409 -9.99957 6.5346
-2.17162 9.99955 -8.38745
7.6793 -7.81217 -1.21858
2.65756 -6.94451 -11.8894
9.7739 -5.22809 -9.99942
2.9921 9.9996 -5.97347
-8.13326 -4.72352 -3.71855
-8.19956 6.41667 4.49167
-0.165424 -6.66357 18.9997
3.7271 6.73103 -13.6391
9.46724 2.57745 5.41768
8.39339 9.90675 -9.99966
-5.17483 0.706219 -13.5591
0.362484 0.592231 5.99522
-3.86614 -4.1151 -15.4368
-4.62027 -1.89898 -5.71617
11.7994 7.82322 8.16213
-2.98895 2.80032 -5.3042
11.7248 -9.99913 -6.64004
8.41087 -2.32039 -15.3767
-4.32679 -3.40109 13.6725
-2.76288 2.22228 18.9998
3.25531 -9.88132 -9.99945
-2.65139 -9.9995 8.26902
11.7995 -9.94065 8.21975
-3.27526 -1.28191 18.9998
3.73443 -2.05749 5.69703
8.1267 -6.25841 -9.9995
11.7997 -2.75898 -9.92705
-4.08151 8.02754 -9.99937
2.76243 9.85448 -9.9995
11.7995 -5.95498 -8.17085
0.706602 9.99963 6.02115
4.60903 6.41881 -15.4159
-4.19018 6.05704 -0.612108
-4.26464 9.9995 -0.620165
-0.492467 -8.49269 5.56564
11.7996 6.41087 -9.92887
11.7995 -8.00212 0.0288986
0.649012 -8.29021 -5.91984
-8.19928 -9.92272 8.25844
11.7994 6.6184 -3.98296
-0.709644 1.2335 19
5.00082 2.91187 5.24135
3.56483 6.78481 -17.1807
-0.20139 -2.5952 19.0001
-8.19958 7.3793 -3.94968
11.7995 -2.94402 -6.84318
-6.1057 8.01608 -9.99932
5.28872 -6.08022 11.7741
6.37044 0.469472 19
-4.5997 9.99956 4.34117
-6.07963 9.99957 5.96514
6.63195 5.06523 17.1248
1.72676 3.27512 6.00762
0.665818 -0.685076 19.0001
-2.5907 -9.99964 -6.35551
6.57832 9.92322 -9.99941
11.7995 1.3191 8.01367
-2.89829 4.78762 3.75792
7.24194 -5.35986 2.73877
-2.69734 5.50168 10.0002
-3.22934 -4.87047 -13.7235
9.5799 -4.35585 9.99953
11.7991 -5.47994 2.71248
6.14079 5.61356 9.99992
-4.40751 -3.23936 -13.6662
2.91502 9.99951 9.92628
4.83947 -6.3035 17.2543
-2.08988 5.82814 -13.5909
10.157 -9.99939 9.91121
6.8184 -1.38075 18.9999
-2.52947 -8.49954 9.99942
-8.19952 -4.08495 -6.65633
2.15955 -3.11617 -19.0001
4.00529 4.66642 -18.9998
-2.14831 5.79383 -17.1738
8.55333 -1.87712 15.5111
8.46104 -9.99941 9.91938
7.74987 -8.24048 9.9995
2.29915 -3.14278 -5.99703
11.7995 -8.31529 -5.67539
-5.164 0.791942 13.6561
-3.34047 0.411069 -18.9998
5.45927 5.97857 -17.1677
1.60367 7.00209 -17.1688
8.69259 1.21925 13.6312
-8.11966 9.99971 6.61933
11.7995 8.29946 3.99257
0.272242 2.19324 5.80639
11.7995 8.22314 6.0673
9.64333 -9.99945 7.69018
-8.08502 9.84535 9.99981
0.596786 -3.98226 -5.90262
-8.01811 -9.99959 9.90482
5.66925 -5.77251 -18.9994
2.52514 1.12422 -19
4.08157 -6.6161 -18.9292
11.7065 9.99916 2.68507
8.78599 -1.04823 10.0002
10.1159 2.15561 9.99959
-8.19962 2.21056 -5.69683
0.0863767 4.19047 -5.74935
-4.82512 -2.25699 -15.3804
5.89832 5.67599 15.3521
-8.19955 -5.8981 5.15287
-8.19946 -8.35985 9.92959
7.88558 -6.00462 -0.394978
7.13004 -7.96741 -9.99937
-2.89969 5.19735 -15.3544
7.76609 -5.87274 1.22761
-3.32948 -7.64451 3.10583
-4.6979 2.78385 -10.0001
-1.65956 -9.99962 6.75881
-8.12574 -4.74596 3.68716
6.07141 -5.66859 9.9998
-8.10654 -1.42007 9.9994
10.1177 9.99951 4.51212
11.7295 9.9992 0.72661
-1.91694 -6.26074 -4.7052
3.14161 6.89547 10.0778
8.47343 2.17587 11.8756
8.14389 9.9995 8.13471
4.8142 -1.04309 19.0001
5.90879 -8.00652 -4.37251
-4.98487 1.75967 -15.3243
2.71076 -9.99948 9.91464
-5.96093 -9.99938 9.93398
-0.982464 -2.70723 -5.34666
3.10054 -6.88937 -17.077
4.79913 -8.47821 5.19999
-3.24074 4.85822 11.7288
1.01406 -6.96503 -13.5128
-8.19865 -9.9229 -7.67467
-8.12569 9.99963 -8.09307
-5.0723 -1.33126 -13.5902
2.66766 6.9421 -15.4052
8.77937 -0.786405 13.6985
2.92231 -6.90869 13.7316
-6.54256 5.34533 -2.71448
7.41282 4.1947 15.3587
9.77694 -9.99954 5.5696
9.83646 -5.99335 0.179523
8.11137 -1.30587 -5.85212
-5.14551 0.0684074 18.9997
-8.19902 8.38707 -9.9274
-8.19952 1.91689 9.93755
6.24281 -2.15273 -5.6308
8.72569 1.10219 -17.0712
-3.90898 9.99901 -2.14661
-8.10072 -9.99799 -9.80883
11.7051 9.99935 6.42091
-4.53891 2.96621 13.6632
-8.12996 9.9994 2.84076
-4.79824 -5.05282 -3.24699
0.462319 6.88232 -18.9382
-8.19948 4.52452 4.08937
1.06486 6.97069 17.0967
11.7995 -7.79627 -1.90512
6.40721 5.27184 -11.8844
9.78308 5.10147 -9.99949
-8.19961 7.98495 -2.05185
-8.19946 4.92515 -9.90772
-8.19963 6.07181 -0.588618
-0.34691 9.99954 7.99289
7.69597 3.77432 -15.3614
3.42597 3.2878 5.80635
-1.34016 6.18949 -19
8.10428 9.99964 4.56594
-4.46152 -1.09528 5.90539
11.7996 9.93213 -4.78494
-6.26844 5.9654 0.760853
-0.268019 6.70328 -13.6235
0.356769 -9.99981 5.93602
-6.5927 1.44291 5.82134
11.7995 3.95165 -6.67042
-8.19955 -3.58785 8.41627
-3.13091 7.93234 9.99935
5.47099 9.99962 6.62384
7.05007 8.64135 -2.92226
-8.10178 9.99963 8.35225
0.723944 1.6264 -5.92776
2.59558 -1.01023 19.0001
-8.1995 6.59419 7.81944
11.7994 -8.10711 5.84104
10.1293 9.89937 -9.99967
-0.137435 -6.73088 15.3936
11.7997 -9.92199 0.995261
-6.54611 2.21955 -9.99962
11.7452 2.73316 9.99943
-8.11759 -1.785 5.74925
-1.67289 3.98861 -18.9999
-8.1995 -8.3831 -4.25183
-4.05249 -3.74945 -18.9995
-3.96171 -2.99353 5.21834
0.746214 6.37037 -5.93855
-1.51326 3.44958 18.9999
8.02847 -6.32938 9.99953
-5.20758 -1.10702 10.0006
11.7995 3.87381 -8.38581
7.89045 6.00782 0.146609
-4.14438 3.68841 -18.9342
-6.35289 -9.99958 -6.14115
-4.6042 -9.99945 7.90334
-3.04851 -9.9999 -3.75609
-3.76622 -8.12725 -2.22767
3.66512 -6.35784 -5.72306
11.7995 3.25072 7.76714
-2.92957 5.11177 -18.9987
-1.09221 -8.00188 -5.25188
11.7989 -3.0461 5.29649
7.10816 4.56452 -13.6289
6.5454 -9.99939 -9.92445
-3.25228 -1.57306 -18.9999
7.14417 7.46119 2.7391
11.7991 -3.15439 -5.19026
11.7998 1.69736 5.86913
8.14673 0.94856 5.93545
-1.08766 5.05002 5.26333
-8.19946 -8.09958 -6.21328
5.15921 8.18803 -9.99953
11.7221 -4.64233 -9.99933
8.67803 0.853967 18.9998
-5.95199 -9.99957 5.94903
4.91132 -6.26827 -17.093
10.0815 -3.21945 5.06978
-0.775708 6.50889 17.092
3.64888 2.09667 -5.72726
1.48749 -9.99973 -6.09019
-0.41116 -4.67956 -18.9999
-8.19963 -5.62091 -2.3865
4.04155 6.62913 15.3232
-8.12526 -9.99943 4.75637
-5.00416 1.71122 -11.8081
9.78439 -1.08248 5.9006
11.7994 -8.06559 7.97111
2.73175 -8.32685 -5.92541
7.0371 4.65023 -17.1011
-0.863014 2.51933 -5.45531
-8.12052 -5.62466 2.14027
-4.29557 -3.65867 -10.0002
0.883514 -6.96426 -11.6557
-8.19967 4.90283 -3.65937
9.60355 9.99948 -8.34889
-8.14158 -2.96673 9.99953
6.22149 -4.33515 4.1486
-1.25085 6.30957 -15.3777
-0.210502 6.63458 5.65783
5.54613 -9.99956 -7.57313
3.71465 -9.99963 7.93702
4.49387 -7.99487 -5.38569
7.50576 -9.99966 6.03421
8.00805 6.24222 9.99961
-0.523534 9.94497 9.99943
5.69884 -5.81133 18.9202
8.21776 2.80905 10.0671
7.62769 -3.88754 15.3819
0.201188 -9.88867 -9.99948
11.7995 6.50268 6.84212
3.0114 6.37556 -5.8793
11.7298 -1.21513 -5.8747
8.79879 -0.268937 -15.3444
-3.88073 9.99961 6.18787
0.0488381 -6.25923 -5.73453
4.58338 4.92854 5.33407
5.83105 9.99957 4.58962
1.6857 -2.91045 19.0001
11.7997 -3.13764 9.91272
-4.20065 5.89344 1.08719
8.80555 0.947221 10
8.26852 -4.27773 4.2109
8.12756 9.99964 -3.80858
-3.98724 -5.83095 -1.68094
0.792801 -1.02257 5.94172
-2.09692 9.99958 7.28395
11.7062 9.88576 -9.99768
-2.28131 -6.19674 4.39746
5.03548 9.99946 9.93285
-0.340312 -2.26901 5.62614
2.12482 8.12666 -6.02647
-8.19954 7.80421 -5.90571
0.498903 -6.82724 -18.9992
2.81799 2.87119 18.9999
-4.48737 3.78486 -4.6652
-6.07342 -9.99942 -8.02712
-4.32434 -3.68827 -4.73032
9.79964 -9.99953 1.0119
6.32938 5.34305 -15.3773
3.90476 -8.4097 9.9995
-8.10429 3.16247 5.09876
11.7997 -9.93509 -2.59949
0.177671 4.70801 -19
-1.15654 -6.3487 17.1182
-3.04382 -9.9318 -9.99946
-8.19951 4.76304 8.18752
-6.52027 2.4741 9.99974
-3.08827 -6.93847 9.99966
3.66363 -2.7912 19.0001
-2.2801 -2.81072 19
0.204874 -2.83303 -19
-2.23264 -3.96485 -4.51933
7.34256 4.282 10.0595
11.7995 -4.60276 6.33673
-2.11637 -8.10063 4.5503
1.66671 -8.51564 9.99964
-1.01129 0.752253 -5.98568
3.01721 6.89787 13.5938
-8.1995 -5.96283 -6.09725
6.74058 -5.07244 -9.99982
-6.52608 -9.9996 3.84227
6.88955 5.18725 3.17456
-8.19961 5.72485 -2.1686
11.7995 8.21509 1.7553
11.7997 9.92403 -1.10296
8.61042 1.62547 17.2046
4.42253 -0.331978 5.99323
-2.84572 8.40554 3.7978
-8.19946 -7.50178 -8.02041
-8.1995 -1.86758 -9.9194
-2.56122 -4.26312 4.21918
-6.44057 -4.10603 4.38071
5.81448 8.17752 -4.46137
9.31519 5.19384 3.02642
3.33512 -9.99912 -5.93019
-3.82785 -9.9994 9.9267
5.30427 6.18696 -9.99989
-6.46712 9.99955 3.9908
9.44908 9.99958 6.31704
5.51976 -9.99931 4.88514
-8.19953 5.35046 6.13814
9.72679 -8.06871 9.99934
3.58827 -6.77258 11.8823
6.76242 4.94803 13.6194
6.05782 0.877501 5.95167
5.52336 3.35739 -18.9998
-3.94364 4.17071 10.0007
7.54825 -4.00372 -11.8424
-4.65372 -4.34137 4.13916
8.79913 -0.685645 -17.1277
11.72 4.78512 -3.60794
-3.05463 -4.94637 -3.52139
4.7037 1.98394 18.9999
11.7997 -9.94356 -4.47978
7.70785 7.91079 -1.04307
-4.77878 -2.39718 -11.8489
2.11477 4.98748 -19
-1.02682 2.98496 5.29832
0.680989 0.979028 -19
4.89231 -8.22786 -9.9995
-8.10757 -6.7412 -9.99958
8.79314 -0.161483 -11.8607
7.31847 9.99964 6.32215
-1.37506 -9.99948 -9.91741
-2.80807 -2.396 -5.50212
0.854659 -0.181523 -5.99177
9.70715 9.99954 -2.6779
-0.892276 -4.75858 -5.3768
3.138 -8.12069 5.85245
-8.19954 2.7233 8.38021
-1.88977 -9.99953 -8.01553
8.79285 0.190314 11.8403
-6.0625 4.60914 9.99959
-8.13176 9.99929 -2.84002
-0.500233 2.54816 -19
11.7103 -4.84421 9.99935
3.66653 0.619363 19
4.93921 -9.99942 -9.90197
-8.19951 3.6386 -4.92282
1.7775 6.59972 6.00991
-5.90508 9.99945 7.90588
-4.29129 -5.99693 0.0172255
2.73404 -6.93732 10.0674
9.64637 4.21883 9.99955
-4.35118 9.99943 9.93902
-4.9032 -2.01241 -18.9245
-8.107 -9.9994 -3.31697
9.81196 -9.9995 3.07307
-8.19957 -4.63522 6.62106
11.7243 9.9991 -8.2468
11.7994 7.95814 -7.95366
-2.80833 -9.9176 3.82759
7.62295 -3.88989 17.2005
8.77024 0.828836 -13.6299
-0.345186 -9.99955 8.09198
3.78053 8.43748 9.99956
11.7994 -6.40677 7.29597
0.307882 6.93879 9.99999
-4.14701 9.99951 -7.81058
4.72901 6.4566 9.99969
-8.19963 -2.77062 7.00271
7.66993 -0.808121 5.97449
-4.39467 -9.99961 -5.60378
11.7204 -9.99923 6.47619
1.95494 7.01424 15.3209
8.25665 9.99963 -5.75891
6.55934 2.17055 -5.61939
-1.23223 -0.528803 5.99561
11.7229 -5.9113 1.01997
8.1394 2.97693 -17.1401
9.97216 -6.19492 9.9994
7.30847 7.91256 -9.9995
-6.08524 9.99951 -6.30848
-3.0047 -5.11171 13.6391
-6.11813 -5.97851 -0.796047
8.5422 -2.51403 5.44007
-1.15771 -4.34897 18.9999
-1.8943 5.94319 11.971
0.826387 -6.95144 17.1482
11.7241 9.99916 -2.88453
-2.89376 4.75638 -3.74794
-2.57594 -1.77165 5.74272
4.75439 9.99968 -6.89948
-0.881134 9.99899 5.49823
11.721 -9.9992 4.55571
-1.00649 6.50265 -10.0001
-8.19948 7.93736 9.93411
-4.92914 9.99952 -3.72964
-3.08674 0.406471 5.9948
2.93453 -6.90431 17.1929
-6.37673 -0.960602 -5.93211
-8.19955 3.88988 -7.44758
-3.71312 -4.33626 15.3953
11.7996 -6.55965 9.88914
7.34156 -4.42545 10.0003
11.7996 5.71561 -2.11463
-8.19968 -6.04159 -0.921513
-2.31884 9.99967 -6.58705
-0.293505 6.69129 15.3316
-1.07325 -0.971337 -5.93568
-8.11577 -5.1127 -9.99948
-3.76303 5.68147 -2.25683
5.77856 -3.0552 19
10.129 -9.9995 -5.44291
1.69461 7.18956 9.99983
-3.99239 3.92773 15.3196
10.041 -2.9387 -9.99956
-6.08222 9.99943 -8.16304
11.7996 -4.0322 -8.20943
11.7996 5.33795 8.25325
7.06626 -8.34591 -2.86515
7.75979 -9.9997 -1.14476
-2.90288 -0.666632 -5.99671
-4.64062 0.101708 -5.99648
11.7997 4.59098 -9.94312
9.82687 5.86718 1.3192
1.96462 -2.47282 6.02161
-2.34198 9.99949 9.90348
3.55145 -4.72578 -19
11.7993 3.68816 -4.83595
0.664572 6.92519 -15.3918
-6.09607 -5.43972 -9.99961
-1.3171 -0.779598 19
-3.2528 6.79159 3.23349
-6.48879 -9.99947 -9.93765
3.84431 -9.99954 -7.96445
0.474942 6.87397 -10.0746
7.88621 3.46141 17.1485
4.72679 1.20209 -19
-4.41359 -6.29381 -9.99971
-8.19951 -0.0696374 -9.91801
-4.73456 -2.70318 10
8.19533 -2.84334 10.0654
-8.19958 -7.91351 1.71225
9.82054 9.99953 1.04118
7.51491 4.05847 11.903
1.18196 -6.97403 -17.2129
-0.159752 6.7216 11.9197
8.80084 0.302904 -18.9291
-1.3678 6.34969 10.0007
7.8136 -3.57725 11.8603
3.49177 2.86846 -18.9999
3.84975 9.9995 7.95304
7.81602 -3.81962 -10.0001
2.37674 -6.98903 -18.9375
-2.81381 1.10283 -5.90162
8.4002 -2.3119 -10.0721
-8.19943 7.96439 -7.89404
-6.45063 -9.99943 7.95707
3.56974 6.90533 -9.99989
8.48154 -2.15534 -11.8992
-0.250578 4.79393 18.9999
-0.28357 -6.69444 11.8802
-1.66561 1.47884 5.81113
-3.23785 -4.86732 -10.0712
-5.19921 -0.253387 -15.3288
4.98446 0.969534 -5.93602
5.66562 -9.99961 7.42293
-4.77715 9.93294 -9.99936
0.733754 8.29191 5.92618
-6.41612 -2.96542 9.99963
5.46529 -6.10208 -10.0005
0.773939 6.9507 13.6527
-5.23693 0.934434 -9.99949
-1.1659 -6.33481 10.068
6.54479 -0.119273 -5.99485
-3.87013 8.00264 1.96813
-8.11991 3.94425 9.9996
-2.9783 0.523779 18.9998
8.58007 -1.80372 11.8851
9.67915 7.6437 -9.99945
4.44911 -4.55316 19
-6.16079 9.99959 -2.02759
11.7995 4.67357 6.27602
4.51467 -6.54395 10.0005
3.01394 -4.18522 5.8757
-5.78363 -9.9996 -4.07133
-6.50412 9.99945 -9.93934
-5.1056 -1.12944 -17.1136
-6.17363 -5.90399 1.06068
6.93416 -0.135431 -18.9999
9.78289 9.99953 -0.896152
-6.33542 9.99949 9.92558
-0.588871 -6.59202 -10.0892
6.98923 9.91763 3.00628
10.0949 4.09962 4.38759
1.49696 3.0041 -19
0.855915 -7.14325 -9.99994
-2.42048 -5.58975 -11.8697
11.7035 -6.52374 -9.99931
2.01885 7.15938 -9.99996
6.88064 -2.91802 5.24286
