4.66697 5.38382 -5.30079
4.0504 6.53767 -19
-4.60134 2.04115 -5.66887
-4.63651 -9.99964 4.33834
1.21875 9.91147 -5.97092
5.5831 5.89214 -13.5666
11.7995 5.62566 -5.70677
-2.40669 5.60104 17.2551
6.75341 -9.99947 9.87105
-8.19954 -1.10691 8.05566
-6.33698 6.19073 -9.9994
-5.70685 8.2063 9.99945
2.65306 5.08893 5.93494
-4.19723 7.96865 0.222495
7.81167 3.58025 -11.8093
11.7994 1.95763 -7.85388
-8.08386 -9.99942 -5.32165
-2.47074 6.29627 -4.24263
-5.02462 -1.59857 17.1658
2.46377 -4.95452 19
11.7995 -6.37225 -4.36499
-6.41018 1.00767 -5.9189
5.69804 6.4208 -4.56743
1.54533 -9.81696 -9.99952
6.41658 9.9174 -3.83291
-8.19929 -6.64948 9.90274
5.03293 -9.90734 -5.04985
11.7996 6.10449 -0.617451
-8.19946 -3.46249 5.06032
1.88262 -6.84748 -6.01857
-0.481444 6.63225 -17.1274
-8.1995 7.91375 1.93308
7.64409 4.14555 -10.0003
8.34396 -9.99934 -9.90253
7.15287 2.58673 5.41177
11.7995 6.32789 4.84724
1.7179 1.12756 19
-4.4951 -8.4001 9.99951
10.0966 6.04484 9.99943
7.23148 4.41264 18.9021
-2.37489 9.99928 4.54827
-4.01886 -8.02312 1.49597
4.54947 -6.44864 15.4226
8.43612 2.25895 15.4141
4.83792 -3.12996 5.18845
11.7995 -0.0319791 6.1341
5.73508 5.67394 -18.9998
3.73143 -6.7276 -10.1175
3.32183 -6.27252 5.82534
-8.1995 3.23551 -9.84352
7.71079 -3.74786 -17.0362
-8.19954 -7.88164 -2.26094
9.72033 -9.99958 -1.09657
2.19032 6.8981 18.9992
7.85467 3.30542 -19
-1.26069 8.25683 5.16241
6.51491 -5.17116 -17.0734
-6.35617 -7.71657 9.99938
0.645541 2.91572 19.0001
-8.19919 9.87887 -6.32741
11.7994 7.63778 -6.07211
2.7292 0.7143 -5.98477
1.27971 -8.01119 5.97536
-8.19959 -1.03829 -6.06282
11.6524 -9.83708 -9.99884
-3.68641 -7.98649 -9.9995
4.16052 -6.59211 -15.4257
11.7996 -1.35306 9.86624
-3.20265 7.91255 -3.30302
-8.19951 5.9226 -7.80531
-0.512396 -6.61948 -14.6445
9.83727 -2.14784 -5.6126
7.7229 5.79706 -1.61178
7.66192 5.73123 1.78181
11.7995 -7.85229 3.73709
11.5267 9.99956 9.85111
-4.25274 -9.99963 -0.989378
2.92955 6.90826 -11.8065
7.41628 -4.18505 13.5572
-6.50252 9.99953 -4.64146
4.42661 9.83726 -9.99944
-8.19954 -8.07839 5.65731
6.9512 5.01187 -3.31396
-4.19088 3.6278 12.161
-4.93125 -1.59291 18.9992
4.95802 6.24397 17.0597
-4.28531 -9.99948 0.704471
-8.19954 -9.90973 2.56801
-6.47117 4.36013 4.12581
-8.19951 -2.68086 -7.86547
11.7995 6.90108 2.90296
-8.19994 6.04209 1.06065
-8.19956 -8.5062 3.73968
-3.60319 2.49505 5.46008
-2.39477 -5.61094 -15.4738
11.7994 -6.06787 -0.849829
0.941088 -9.99948 9.87845
-1.05309 -6.39347 -18.8667
8.56984 -1.34309 -18.9998
4.10391 -2.73306 -19.0001
-4.72983 -2.5521 15.4029
-2.24792 3.73102 4.69721
0.160818 -9.99955 -7.93235
4.04485 6.55193 18.9999
4.16317 6.60055 11.918
9.93246 -3.79454 -4.6566
-8.19949 -5.7341 8.33668
11.7998 0.828756 -9.89598
-4.68852 2.64871 17.0744
-4.42226 -3.21094 18.8946
-6.48259 6.46303 9.99946
-4.18592 3.63854 18.8787
-6.07286 -9.99963 -2.23531
11.6602 -4.55584 -3.92616
9.52174 -5.61819 2.16134
-6.00595 4.38446 -9.99956
11.7995 0.0368524 -7.90476
-4.98335 1.76819 11.9189
-1.90268 9.8881 -4.71873
-3.31679 -4.76733 18.8961
4.29517 7.96651 -5.45919
-0.506696 9.99923 -5.72383
10.0186 9.99954 -4.80156
-4.35296 6.16168 -9.99955
-1.78185 7.98531 -4.80909
-4.81551 0.925315 5.93865
10.112 -2.82216 9.99958
0.940082 6.96848 -11.9025
6.33432 8.31455 3.95891
-3.8582 -9.9992 2.4127
0.522063 4.74704 5.88994
6.36734 -8.21805 3.91354
6.33858 -6.3421 3.95284
-8.04525 9.99967 -9.81546
1.9222 -7.01886 18.8857
1.85705 7.01138 -13.6308
8.24579 -9.99969 -4.71966
-4.32673 9.99949 -5.49209
11.7994 -7.9279 -8.09841
-6.30869 2.79196 -5.31718
7.06644 4.60985 -18.8954
8.45315 1.85197 -18.9995
-4.53858 4.25926 4.22302
-8.19948 -3.5595 -9.84187
11.7995 -2.79994 7.63023
8.79417 -0.0671654 15.5127
-0.825857 5.95367 -5.40432
-4.99197 1.73453 15.3912
8.90327 -9.99953 -6.56247
-8.19949 8.03103 5.96421
-8.19954 8.09503 -0.0417892
-8.19952 7.96621 3.75955
11.6919 2.4954 -9.99945
0.0622394 -0.6799 -19.0001
4.96813 -6.75066 5.09097
8.30583 -2.57347 13.4976
1.77405 9.99951 8.0078
-8.19943 8.28114 8.03067
-5.05396 -1.44776 13.6462
4.81758 8.23423 5.18892
1.49742 -6.99143 -15.4289
9.82232 -5.70296 -1.92114
1.59783 -6.9957 12.0171
8.06734 -3.11863 -18.8998
-3.98968 -5.91445 1.63418
5.9446 -5.64487 -15.2906
11.7998 5.98791 1.11695
-4.19448 -3.63203 17.0998
-3.44004 -5.30315 2.97445
9.36018 9.99963 2.78577
-1.29602 -6.28962 13.6791
9.95481 3.85186 -4.62425
-8.1997 5.56448 2.66138
-6.19992 9.9996 0.225796
3.99255 1.45832 5.82023
-2.69452 2.37272 -18.9998
11.7995 -0.83022 7.98633
-1.23309 -9.99944 9.87893
-0.12921 -8.43613 9.99956
-1.52312 -8.14486 -9.99951
-0.136553 9.99961 -7.88124
0.719523 -4.61123 19
11.7995 -1.74877 -8.1415
0.745228 -4.21093 5.93522
10.2849 -0.662871 9.99965
-1.79214 -6.00826 18.8881
2.23667 6.89548 -18.9996
-8.09163 9.9993 -0.923495
2.57701 -1.17555 -5.95941
-0.898882 -4.887 5.37349
-3.80698 -9.99939 -2.59329
-4.17148 3.66488 -15.3173
0.70344 -6.93336 13.7108
8.92977 4.89379 -3.47547
-2.85044 -5.24095 17.1095
9.90818 5.60648 -2.13802
1.82044 9.99965 -7.95292
-4.86221 1.83047 18.9999
8.52637 2.01143 -15.3352
-2.67116 -5.2515 -18.9997
-8.08375 -4.76518 9.99955
4.56325 -0.698504 -5.99194
0.897805 9.89278 -9.99945
9.00628 0.826303 -10.0001
6.76557 -9.99964 3.5772
11.7013 -9.99938 -8.24056
-8.19955 -8.08342 -0.28963
-5.98534 5.42395 2.56493
-0.541497 -6.60647 -16.5754
11.7998 -4.4522 4.20618
0.299164 6.73906 18.9996
-3.69302 4.36189 16.9172
8.43695 2.55289 -9.99986
-8.06288 1.36479 -9.9996
6.82531 -9.99966 -6.02782
9.82879 6.00628 -0.328383
-6.03155 -2.54654 5.42567
-5.84562 -5.29741 2.84388
-1.49424 0.515464 -18.9999
-8.19948 -5.27594 -8.1532
7.43551 -4.16752 -15.3024
1.47714 -5.99561 5.98707
-1.89716 -5.94193 -13.6298
11.7994 -8.09119 9.89974
-3.58175 -9.99964 6.11073
6.31824 -5.35305 16.6145
8.04663 -3.20027 -13.6752
11.7023 8.28905 9.99926
-2.1836 -5.97364 -10.0001
11.5894 -0.905978 -9.99948
11.6851 -1.64227 5.77153
-5.19209 -0.138677 -18.8987
5.35211 -6.00045 -4.83079
2.15376 1.57049 6.01444
8.37452 -9.99964 4.14139
4.9885 9.88176 -5.07158
11.7997 4.38436 4.30193
8.69908 -1.18741 -13.6651
-6.05539 -9.9996 1.85286
1.50081 5.13752 -5.98936
7.70058 -9.99947 8.01522
3.90425 6.62397 5.61574
-6.01954 5.87215 -1.25859
-1.55602 6.14563 18.8997
-0.318031 -9.99872 -5.79519
7.76102 9.99939 1.43098
2.09652 -9.99941 -8.00838
11.6709 0.62176 9.9995
-1.58397 -9.99972 5.08804
11.7996 9.85814 -6.24778
5.64035 -3.57733 -18.9999
-2.35454 5.64433 15.3961
2.23781 -9.99993 6.11233
-6.71811 -1.06669 -9.99974
11.7995 8.01297 -0.118594
8.61493 -1.0139 18.9997
11.7996 6.40894 9.88463
-0.753465 -6.51527 -12.2443
-1.08555 9.90213 -9.99929
1.19328 9.9995 9.90325
-5.20302 -0.347298 11.8621
5.75105 5.77194 18.8939
9.80954 2.08375 -5.64297
7.79857 -8.0225 0.495855
11.685 0.607053 -5.96796
11.7995 -7.7789 1.82119
3.67265 9.9996 -8.22727
11.6613 -8.19453 -9.99964
11.7995 8.20582 -9.89677
4.60754 -6.41869 13.4826
5.90284 9.99958 -8.27166
3.86122 -4.47607 -5.6437
11.7997 -9.87697 2.80949
-4.96968 5.07041 -3.21895
-8.19954 9.80521 -4.54602
-2.04492 6.58728 4.60085
-4.77168 -2.40997 11.8535
1.82336 -9.99962 7.99981
8.963 -0.933092 -10
3.45891 4.83545 18.9999
0.608367 -1.90169 -5.9063
-8.19957 5.62994 -5.74004
-2.81107 5.27192 -11.8773
10.03 -9.87036 -9.99944
-5.67026 2.93386 5.25459
11.7998 2.22352 -5.71551
-8.19949 9.87809 4.79278
-8.10946 -0.168248 5.99885
-6.39649 4.20488 -4.27865
11.7994 -5.57552 -2.55042
-4.14884 3.69913 -11.8726
7.93914 -9.99942 0.15333
-6.26963 -2.79102 -5.31319
-0.0711103 8.38999 -9.99957
-8.10012 -9.99945 -1.32116
11.7995 -6.72706 -6.28431
1.61036 -4.96038 -19
-2.04444 -5.85564 -17.2959
2.52665 -0.285364 5.99676
-3.61867 4.44493 -17.1056
-0.441295 -6.64361 5.58889
1.71231 -1.10771 -19
-1.64496 -3.29822 5.02835
-6.67413 0.262133 9.99963
5.50051 -3.82302 -4.7172
-3.10076 9.99949 -3.68498
-5.99801 -7.84762 -9.99943
-2.99176 9.89204 -9.99925
7.85759 9.99953 -7.81535
7.10738 -4.55974 -18.8816
7.13933 9.99941 9.90614
6.08393 7.99996 9.99945
11.7994 5.9039 -7.81356
-4.75144 -6.22358 9.99965
-5.3112 -0.299003 -9.99961
-3.2468 -6.66458 -3.24422
-5.19717 -0.458252 15.429
9.82941 9.99946 -6.73966
-2.25946 -5.71777 11.92
7.86391 -3.39389 -4.94295
4.99848 -6.22506 -13.6192
9.37519 9.99935 9.90513
5.79263 6.42525 4.48119
-8.19952 0.284992 9.84458
3.8445 -6.60618 18.9998
5.79646 -1.39574 5.83079
-3.91233 -4.04765 -11.9059
-8.19952 -6.57051 6.76335
6.11757 -5.52406 14.2344
-4.63213 2.77318 -17.0852
-8.19955 -6.59396 -4.23127
-3.15617 4.95088 13.7241
-4.51761 -3.00998 -17.1335
-2.98424 4.94235 18.9997
6.04234 4.13001 -4.37781
8.79873 -0.228288 17.3007
10.1166 -9.99956 -3.20987
-6.39507 -5.43757 -2.52675
-1.2732 8.32267 9.99948
-1.39044 -1.57423 -19
4.03386 -9.9995 5.74682
-6.2809 -0.631382 5.98315
-6.25874 -5.30443 9.99947
10.052 3.16735 -9.99959
8.05162 -2.91854 19
-8.19937 6.71676 -9.87083
-6.39407 -3.40238 -9.9997
-5.14132 0.972357 10.11
6.44741 1.97425 -18.9999
-5.03888 -1.94738 -9.99997
-1.07166 6.38826 -11.841
6.05198 -7.91772 9.99939
6.95628 6.76302 -3.09742
2.88361 8.25403 5.89957
-5.19221 0.582817 17.1499
10.0685 9.99948 8.0688
-4.8398 -9.99951 -9.89311
5.95137 4.2432 4.33129
11.6656 5.29878 2.83286
-4.62792 2.78525 -13.5656
6.16755 -5.48491 -11.8583
11.7996 -9.8022 9.83819
7.88687 6.29955 -9.99959
-8.19936 -8.42398 -9.87868
4.14957 -2.50043 -5.52241
-3.94943 -9.9995 -7.93996
2.48331 9.99976 6.10912
8.00891 3.26143 13.7075
7.0868 -4.58467 18.8722
6.0106 5.60126 11.8404
11.7996 9.89498 4.66966
9.79597 -0.110071 -5.99728
-0.0925146 8.17242 -5.70118
-8.10989 -3.78531 -4.68372
6.71915 -4.78318 -3.65976
3.4501 -0.943239 -19.0001
-8.19947 1.58396 5.93414
-8.19946 -7.9826 7.88871
-5.15479 0.86559 -17.1361
6.71365 -1.89506 -18.9999
-1.25423 6.30459 13.7302
7.32865 -7.6919 2.35796
-8.19952 1.76862 -7.98958
7.5469 -5.61692 -2.12569
0.642912 -6.89626 10.1215
4.83203 6.30872 -11.8118
6.13089 9.99952 8.26146
-2.37719 5.6203 -10.0899
-5.19691 -0.227502 -11.8237
5.14867 3.96738 18.9998
7.47964 -9.90071 1.93621
9.42224 -7.82199 -9.99946
-8.19965 -6.10618 0.742867
8.58895 1.75454 -11.8518
11.7995 9.84786 8.12075
-8.19943 0.551848 -6.12743
10.0795 0.836083 5.95917
-4.10264 9.89583 1.09491
6.50195 2.39243 18.9999
-3.8044 9.99952 8.15758
8.17277 1.08232 -5.90426
6.68304 -5.0154 11.9759
7.55028 -9.99948 -8.03919
-4.15221 -4.00701 10.0001
6.28161 5.38326 -10.0941
-3.68036 4.36113 -10.1028
-8.19963 -2.44246 -5.62716
8.46937 -2.1865 -17.2707
8.03262 8.35018 9.9995
-1.88318 3.97618 -4.74406
7.49704 9.91106 -1.87946
11.7995 -6.25845 4.96199
4.78968 -4.98839 5.23939
11.7995 -4.73073 8.28266
11.7994 8.34615 -4.15824
5.03885 -9.99946 9.84995
1.78865 -7.0046 15.4506
8.05654 3.98803 4.51017
8.19059 2.86569 -13.5766
-3.77 -4.25093 11.8741
-2.89033 -5.20221 10.107
3.01881 -6.89786 -14.0387
3.30914 4.3291 -5.82851
1.55449 4.85531 19
8.31001 -9.99972 -2.90354
4.16003 9.99926 5.64088
6.72842 -6.70411 -3.41011
6.45957 -9.92437 -3.77529
7.69428 8.04954 1.13222
-6.21786 -4.28697 -4.19965
-5.88911 9.99953 2.22458
6.78132 -4.93101 -13.5947
-4.6129 2.80955 10.1174
9.78266 -9.99933 -8.0752
-1.96886 -3.35342 -18.9999
-8.19952 -0.503044 -8.01595
-3.45539 -4.62323 -17.1967
-4.51065 6.25266 9.99951
5.2035 -1.00586 -19.0001
7.92397 9.9993 -0.228417
1.97774 -5.05839 -6.02217
-8.08501 9.9993 1.05107
-3.98687 7.92637 -1.64623
-2.30331 7.92163 -9.99945
-3.8086 5.44242 2.55205
-8.19952 0.962185 7.86496
-1.72477 -9.87713 -4.85995
-3.5335 4.53918 -13.615
4.85323 3.15438 -5.16681
11.7995 -8.14174 -4.1311
6.58902 9.99968 -6.18475
1.87843 3.15831 -6.01937
8.21069 2.63377 18.9998
11.7995 7.88876 -2.12765
11.6817 -9.99924 -0.698637
-8.19949 5.95542 9.8674
9.0465 -4.87387 -3.50754
2.2779 -7.2118 -10.0001
11.7994 -4.87568 -6.12603
2.04131 7.01944 11.8861
-8.09157 -9.99946 0.696369
-8.19952 -6.83666 3.58196
-4.19655 -7.96537 -0.383956
4.51013 -6.46343 -11.8907
8.52316 -2.00952 17.1533
5.10664 6.17279 13.6295
9.89635 7.97698 9.9994
-2.69462 -8.18841 -3.96998
-2.11896 -5.81015 15.4144
-4.94452 1.89459 -18.899
11.7997 4.30833 9.90324
10.0371 -4.75071 3.66501
11.7995 3.01993 5.32935
-8.19951 3.23508 6.85664
8.0327 3.43426 -4.91781
-3.63132 9.99913 2.81982
3.09313 6.88398 17.1547
-6.23619 -9.99964 -0.217468
-8.08234 -9.99957 6.50722
-2.04811 9.99956 -8.22058
7.6505 -7.67478 -1.37539
2.75991 -6.93109 -12.1318
9.60546 -5.44094 -9.99943
3.13506 9.99952 -5.98245
-8.09823 -4.71833 -3.72807
-8.19954 6.4406 4.81268
0.0574555 -6.66892 18.9996
3.78133 6.71343 -13.5811
9.5166 2.60106 5.40636
8.12655 9.90356 -9.99961
-5.15227 0.844307 -13.5603
0.422419 0.620303 5.99524
-3.91396 -4.04414 -15.4135
-4.65347 -1.84604 -5.72842
11.7994 7.77135 8.15498
-2.96422 2.88561 -5.26238
11.6477 -9.99916 -6.49347
8.46031 -2.19983 -15.4124
-4.32277 -3.40923 13.6201
-2.83551 2.21889 18.9998
3.14737 -9.85089 -9.99947
-2.52276 -9.99951 8.21444
11.7995 -9.90478 8.16705
-3.145 -1.37476 18.9998
3.57987 -1.99232 5.74834
7.85815 -6.58883 -9.99949
11.7997 -2.74043 -9.8926
-4.1959 8.00275 -9.99937
2.63807 9.79498 -9.99951
11.7995 -5.87073 -8.08217
0.77331 9.99965 6.07847
4.60369 6.42149 -15.3601
-4.18508 6.07373 -0.647035
-4.30411 9.99951 -0.587339
-0.514998 -8.45643 5.55426
11.7996 6.41785 -9.88666
11.7995 -8.02699 -0.199636
0.588196 -8.24736 -5.90263
-8.19933 -9.87962 8.2297
11.7994 6.61777 -3.99352
-0.71545 1.3043 19
5.08968 2.90809 5.24315
3.44562 6.823 -17.1881
-0.326521 -2.49865 19.0001
-8.19957 7.35798 -3.98675
11.7995 -2.92227 -6.84314
-6.17339 8.05339 -9.99932
5.28123 -6.08396 11.8344
6.29829 0.469849 19
-4.59702 9.99956 4.35675
-6.06331 9.99957 5.97043
6.59891 5.0952 17.1512
1.69545 3.44017 6.00529
0.61363 -0.52826 19.0001
-2.6228 -9.99965 -6.33906
6.36598 9.8861 -9.9994
11.7995 1.19904 8.03587
-2.878 4.81593 3.78161
7.17531 -5.45418 2.68726
-2.51484 5.52049 10.0991
-3.33224 -4.75741 -13.7
9.41625 -4.59879 9.99953
11.7991 -5.55463 2.6782
6.10061 5.71489 9.9999
-4.47026 -3.10879 -13.6256
2.93973 9.99951 9.88459
4.80346 -6.32143 17.3162
-1.99547 5.8846 -13.5953
10.2266 -9.99939 9.84987
6.68977 -1.40066 18.9999
-2.00254 -8.37359 9.99948
-8.19952 -4.19222 -6.58663
2.25663 -3.07328 -19.0001
3.97804 4.63587 -18.9998
-2.20684 5.7561 -17.1972
8.4024 -2.33884 15.3453
8.58601 -9.99941 9.87328
7.91016 -8.16599 9.99949
2.30732 -3.09383 -5.99567
11.7995 -8.42462 -6.12348
-5.18858 0.647717 13.6557
-3.40157 0.493232 -18.9998
5.27552 6.08628 -17.1542
1.47782 6.99386 -17.1584
8.68826 1.23668 13.7859
-8.07289 9.9997 6.60283
11.7995 8.24312 3.98449
0.274899 2.27773 5.80799
11.7995 8.204 6.05529
9.6698 -9.99945 7.63896
-8.03061 9.74528 9.99979
0.576983 -3.91095 -5.8963
-7.87202 -9.99957 9.86783
5.68519 -5.70529 -18.9996
2.71354 0.878443 -19
4.08855 -6.61392 -18.8775
11.6574 9.99918 2.75617
8.84671 -0.727 10.0002
10.1269 2.53038 9.99956
-8.19963 2.1801 -5.76196
0.0138907 4.06053 -5.72503
-4.84922 -2.18167 -15.3473
5.96217 5.63266 15.3246
-8.19955 -5.84966 5.15223
-8.19948 -8.3723 9.88692
7.9206 -5.99244 -0.491614
6.75912 -8.13905 -9.99936
-2.83964 5.24621 -15.3529
7.80923 -5.88832 1.15469
-3.30577 -7.68477 3.14264
-4.68247 2.9015 -10
-1.53082 -9.99962 6.78873
-8.08607 -4.73312 3.70676
6.08716 -5.68868 9.99979
-8.02624 -1.39635 9.99941
10.114 9.99951 4.48484
11.6901 9.99921 0.843354
-1.91649 -6.24319 -4.70557
3.17037 6.88708 10.123
8.4422 2.25016 11.9557
8.16446 9.9995 8.134
4.70571 -1.22397 19.0001
5.89836 -8.08439 -4.38035
-4.96305 1.82745 -15.3397
3.04001 -9.99948 9.86849
-5.75129 -9.99939 9.89856
-1.01338 -2.72677 -5.33703
3.00148 -6.90217 -16.8774
4.876 -8.37136 5.15086
-3.11162 5.00137 11.8808
1.00061 -6.96441 -13.4909
-8.19866 -9.87276 -7.61798
-8.07981 9.99962 -8.07687
-5.0966 -1.18917 -13.5619
2.69413 6.93862 -15.3985
8.78624 -0.753728 13.7299
2.85153 -6.91819 13.9932
-6.65106 5.30386 -2.7996
7.42728 4.17741 15.4632
9.72659 -9.99954 5.54396
9.83623 -5.99349 0.14093
8.07987 -1.30555 -5.85241
-5.09345 0.0542731 18.9997
-8.19905 8.38432 -9.88655
-8.19952 1.99088 9.90869
6.23005 -2.15021 -5.63219
8.67559 1.32722 -17.0728
-3.92669 9.99904 -2.1807
-8.05468 -9.99821 -9.70211
11.657 9.99936 6.42029
-4.65275 2.72923 13.6949
-8.09266 9.9994 2.85745
-4.81738 -5.06703 -3.22678
0.375927 6.8602 -18.9029
-8.19947 4.59171 4.07314
1.07745 6.97111 17.1587
11.7995 -7.73385 -2.22825
6.5597 5.13001 -11.8558
9.7354 5.29337 -9.99948
-8.1996 8.0146 -2.09382
-8.19946 4.92553 -9.86226
-8.19963 6.10495 -0.639134
-0.333624 9.99953 8.01551
7.64754 3.85442 -15.3408
3.45372 3.29741 5.80178
-1.39044 6.11825 -19
8.10869 9.99964 4.48838
-4.42072 -1.12976 5.89671
11.7996 9.91746 -4.47187
-6.28388 5.98265 0.641167
-0.165727 6.72666 -13.5914
0.394965 -9.99981 5.98343
-6.57498 1.44099 5.82171
11.7995 3.95195 -6.71636
-8.19955 -3.63055 8.43766
-3.34805 7.91152 9.99934
5.54789 9.99962 6.60917
7.19677 8.34882 -2.62651
-8.05021 9.99965 8.32076
0.873106 1.72574 -5.93947
2.62187 -0.899431 19.0001
-8.1995 6.58699 7.53852
11.7994 -8.11389 5.83575
9.8682 9.81705 -9.99966
-0.262346 -6.70108 15.4419
11.7997 -9.87903 1.07591
-6.5531 2.4084 -9.99961
11.729 2.43282 9.99945
-8.07 -1.79706 5.7451
-1.45255 3.96814 -18.9999
-8.1995 -8.38927 -4.2077
-3.99968 -3.74606 -18.9995
-3.94713 -2.9702 5.22931
0.949355 6.74803 -5.95172
-1.523 3.38523 18.9999
7.94017 -6.29447 9.99954
-5.2926 -1.01764 10.0005
11.7995 3.81433 -8.43751
7.92532 6.012 0.21017
-4.18399 3.62749 -18.8949
-6.43297 -9.99959 -6.13654
-4.53522 -9.99945 7.9734
-3.01563 -9.9999 -3.92194
-3.79009 -8.13082 -2.16764
3.60797 -6.36313 -5.74598
11.7995 3.17365 7.80364
-2.97861 4.99684 -18.9989
-1.1484 -7.96125 -5.22134
11.799 -3.09211 5.31651
7.09964 4.57502 -13.6024
6.59548 -9.99939 -9.86385
-3.18355 -1.49647 -18.9999
7.10834 7.35687 2.81361
11.7991 -3.13569 -5.22678
11.7998 1.6625 5.93073
8.20911 0.968766 5.93076
-1.19103 5.03963 5.19995
-8.19946 -8.12363 -6.18145
5.58495 8.03131 -9.99948
11.6701 -4.66836 -9.99933
8.61569 0.855091 18.9998
-5.92634 -9.99957 5.94874
4.94995 -6.24905 -17.1307
10.0736 -3.22903 5.06316
-0.794005 6.5012 17.1253
3.57818 2.21345 -5.75607
1.53866 -9.9997 -6.12837
-0.412259 -4.65988 -18.9999
-8.19963 -5.69222 -2.35531
4.01927 6.63633 15.3258
-8.0718 -9.99943 4.71805
-4.9613 1.84103 -11.7667
9.73603 -1.05709 5.90656
11.7994 -8.02136 7.96965
2.61318 -8.42161 -5.94189
6.85659 4.85654 -17.0865
-0.906816 2.49455 -5.46749
-8.07239 -5.58882 2.21892
-4.37987 -3.60232 -10.0002
0.956022 -6.96711 -11.6302
-8.19967 4.90927 -3.74085
9.70368 9.99948 -8.48955
-8.10861 -2.93957 9.99953
6.24124 -4.33074 4.1533
-1.2213 6.32187 -15.352
-0.223728 6.62184 5.65359
5.55843 -9.99957 -7.49874
3.852 -9.99963 7.89545
4.41082 -8.00864 -5.42985
7.51744 -9.99966 6.0177
8.05881 6.40233 9.99959
-0.459652 9.88674 9.99943
5.77531 -5.76164 18.8801
8.18709 2.8948 10.106
7.39589 -4.21118 15.3328
0.00505008 -9.82907 -9.99947
11.7995 6.484 6.77548
3.129 6.44507 -5.8598
11.6957 -1.18181 -5.88389
8.79613 -0.0778759 -15.3435
-3.8983 9.9996 6.1966
0.0977892 -6.25685 -5.74931
4.5887 4.9253 5.33178
5.90149 9.99955 4.57707
1.5552 -2.66248 19.0001
11.7997 -3.05616 9.84425
-4.23684 5.89537 1.08234
8.86691 1.07041 9.99998
8.26291 -4.33242 4.15272
8.29425 9.99964 -3.64019
-3.98677 -5.88881 -1.68298
0.86998 -1.08344 5.96507
-2.08116 9.99958 7.27277
11.6194 9.85225 -9.99786
-2.23557 -6.20333 4.43549
5.05197 9.99946 9.89291
-0.346005 -2.38769 5.62594
2.22602 8.2475 -6.01078
-8.19954 7.75576 -5.93268
0.597856 -6.78792 -18.9992
2.78185 2.93296 18.9999
-4.48847 3.81063 -4.64644
-6.01427 -9.99942 -7.97179
-4.35603 -3.6855 -4.73251
9.75814 -9.99953 1.09691
6.28964 5.37971 -15.345
4.03531 -8.37681 9.99949
-8.05328 3.16919 5.09495
11.7997 -9.86668 -2.47046
0.277677 4.74862 -19
-1.0763 -6.38184 17.1811
-3.13593 -9.89255 -9.99946
-8.19951 4.84201 8.15635
-6.46837 2.55956 9.99973
-3.11515 -7.11144 9.99964
3.4511 -2.90531 19.0001
-2.29834 -3.00741 19
0.292238 -2.83593 -19
-2.26082 -3.96502 -4.51933
7.21027 4.43773 10.0957
11.7995 -4.65274 6.32787
-2.07009 -8.0298 4.58573
1.90318 -8.50574 9.99963
-0.931132 0.781977 -5.9783
3.06297 6.89208 13.591
-8.1995 -6.03266 -6.08801
6.70363 -5.15574 -9.99982
-6.38328 -9.9996 3.7476
6.87582 5.20499 3.19818
-8.19963 5.76207 -2.22904
11.7995 8.26722 1.77144
11.7997 9.88715 -0.947879
8.61242 1.61245 17.142
4.45383 -0.304275 5.99339
-2.84669 8.422 3.79666
-8.19946 -7.50041 -8.01021
-8.1995 -1.89681 -9.8653
-2.63625 -4.29982 4.18083
-6.46451 -4.08632 4.4009
5.97589 8.20232 -4.30975
9.14353 5.11621 3.13737
3.5007 -9.99928 -5.93596
-3.45261 -9.9994 9.90392
5.09751 6.32339 -9.99981
-6.45274 9.99955 4.05348
9.4572 9.99958 6.24444
5.59615 -9.99932 4.88689
-8.19953 5.10536 6.13317
9.82241 -8.20444 9.99933
3.43406 -6.81963 11.9102
6.78419 4.92843 13.569
6.10655 0.857002 5.95622
5.35566 3.37333 -18.9998
-3.83513 4.34598 10.0004
7.55174 -3.99814 -11.8574
-4.6993 -4.32352 4.15773
8.80466 -0.544481 -17.0699
11.6414 4.82101 -3.56144
-3.05785 -4.97016 -3.51722
4.61948 2.17428 18.9999
11.7997 -9.90211 -4.46034
7.74202 7.83104 -0.835505
-4.82169 -2.26548 -11.8166
2.16137 4.91757 -19
-0.993635 3.07415 5.31774
0.839056 0.992607 -19
4.48228 -8.26711 -9.99953
-8.06125 -6.73977 -9.99957
8.79231 -0.236222 -11.8487
7.39623 9.99965 6.30544
-1.55957 -9.99949 -9.87124
-2.87666 -2.40826 -5.49546
0.827418 -0.144578 -5.99216
9.87591 9.99955 -2.79397
-0.870443 -4.78843 -5.38849
3.14924 -8.1604 5.85062
-8.19954 2.8693 8.46099
-1.76566 -9.99954 -7.93875
8.79132 0.342276 11.9098
-5.96057 4.56169 9.99961
-8.07311 9.9993 -2.85268
-0.551872 2.34056 -19
11.6361 -4.74384 9.99936
3.85914 0.646225 19
4.98828 -9.99942 -9.86199
-8.19953 3.62247 -4.99548
1.75819 6.62115 6.00856
-5.87165 9.99945 7.88363
-4.32101 -5.99688 0.0745994
2.60711 -6.95188 10.1088
9.43241 4.44153 9.99957
-4.40495 9.99943 9.90901
-4.89463 -2.04264 -18.8884
-8.05868 -9.99941 -3.27152
9.81849 -9.9995 3.0969
-8.19957 -4.59938 6.6599
11.6935 9.99904 -8.09035
11.7994 7.9912 -7.97649
-2.78749 -9.87382 3.85593
7.68839 -3.78288 17.1302
8.76484 0.855066 -13.6309
-0.167227 -9.99955 8.12379
3.8639 8.44944 9.99955
11.7994 -6.39683 7.25212
0.35498 7.04903 9.99993
-4.07956 9.99952 -7.80844
4.7211 6.49961 9.99968
-8.19963 -2.70303 7.09596
7.63815 -0.821212 5.97158
-4.46183 -9.99959 -5.75844
11.6772 -9.99924 6.46998
1.97067 7.01484 15.3973
8.18485 9.99964 -5.56084
6.62025 2.23885 -5.5855
-1.11541 -0.502823 5.99541
11.6868 -5.925 0.938433
8.04346 3.20226 -17.139
9.92853 -6.40178 9.9994
7.69789 8.08968 -9.99953
-6.09795 9.99951 -6.55433
-3.03484 -5.07908 13.6537
-6.03745 -5.95869 -0.873131
8.52355 -2.57965 5.41012
-1.04493 -4.42859 18.9999
-1.70682 6.05751 11.9531
0.907228 -6.95745 17.1887
11.7037 9.99917 -2.69002
-2.93016 4.79788 -3.69627
-2.48766 -1.74178 5.74942
4.81775 9.99968 -6.83177
-0.839492 9.99908 5.56783
11.6785 -9.99921 4.60319
-1.08317 6.5171 -10
-8.19948 7.83172 9.89958
-5.24079 9.99953 -3.52812
-3.03055 0.328502 5.99488
3.01622 -6.89316 16.8809
-6.38669 -0.898241 -5.94672
-8.19955 3.86818 -7.46353
-3.67375 -4.38711 15.3603
11.7996 -6.42936 9.83036
7.45517 -4.31837 10.0004
11.7996 5.75008 -2.15249
-8.08375 -5.95297 -0.77113
-2.48962 9.99969 -6.43315
-0.257859 6.69989 15.3915
-1.14159 -0.981841 -5.9328
-8.06969 -5.09773 -9.99948
-3.75115 5.73532 -2.28731
5.69473 -3.14361 19
10.1211 -9.99952 -5.22747
1.7686 7.28254 9.99983
-4.05497 3.83491 15.1494
10.0058 -3.13483 -9.99955
-5.9795 9.99943 -8.30016
11.7996 -3.96272 -8.2214
11.7996 5.32877 8.24346
7.07025 -8.51364 -2.8595
7.60661 -9.87488 -1.54308
-2.94028 -0.632502 -5.99664
-4.64474 0.167598 -5.99682
11.7997 4.59284 -9.91412
9.89204 5.79863 1.56486
1.85485 -2.6294 6.0139
-2.38807 9.9995 9.8476
3.69784 -4.75178 -19
11.7113 3.68477 -4.75317
0.670677 6.92666 -15.3768
-6.06675 -5.47965 -9.99962
-1.32187 -0.72989 19
-3.25456 6.78666 3.23064
-6.48731 -9.99947 -9.9024
3.8949 -9.99953 -8.04086
0.404324 6.85892 -10.1203
7.90315 3.43408 17.2331
4.71461 1.04516 -19
-4.42216 -6.28507 -9.99971
-8.19951 -0.0837694 -9.88557
-4.82025 -2.561 10.0001
8.3252 -2.53 10.0933
-8.19958 -7.94584 1.7314
9.81043 9.99953 0.984699
7.52501 4.04197 11.8836
1.06557 -6.96627 -17.3123
0.0272097 6.76802 11.931
8.80071 0.275888 -18.8845
-1.25887 6.43709 10.0005
7.86904 -3.48202 11.7465
3.35982 2.76056 -18.9999
3.9068 9.9995 7.93916
7.78 -3.99983 -10
2.44882 -6.97779 -18.8955
-2.75665 1.16232 -5.88714
8.32721 -2.51649 -10.1183
-8.19944 7.96464 -7.88328
-6.41407 -9.99943 7.93234
3.53985 7.02916 -9.9999
8.47469 -2.17184 -11.9602
-0.363855 4.77962 18.9999
-0.408986 -6.66276 11.9207
-1.67924 1.52762 5.79912
-3.3165 -4.77743 -10.1074
-5.19877 -0.165156 -15.3299
4.99417 1.10111 -5.90363
5.75962 -9.99961 7.42106
-4.74208 9.89562 -9.99936
0.757108 8.29508 5.92868
-6.37464 -3.15903 9.99962
5.38767 -6.20838 -10.0004
0.88907 6.9571 13.7207
-5.27451 1.10464 -9.99949
-1.22868 -6.30743 10.0985
6.54393 -0.0598123 -5.99509
-3.85961 7.98963 1.99458
-8.06796 4.05706 9.99959
-2.92303 0.510194 18.9998
8.61564 -1.61272 11.8243
9.76684 7.55854 -9.99946
4.359 -4.59587 19
-6.18728 9.9996 -1.8483
11.7995 4.63854 6.33273
4.48216 -6.58393 10.0004
3.01483 -4.24488 5.87563
-5.73061 -9.9996 -4.12697
-6.4715 9.99944 -9.91574
-5.10855 -1.11121 -17.0897
-6.21208 -5.90408 1.06073
6.82666 0.146599 -18.9999
9.74417 9.99952 -0.995795
-6.31245 9.99948 9.87752
-0.708421 -6.53877 -10.144
7.04169 9.86903 2.91462
10.0919 4.12574 4.36056
1.39518 2.95612 -19
0.688332 -7.20597 -9.99988
-2.50421 -5.52093 -11.839
11.6505 -6.50287 -9.99931
1.94466 7.22664 -9.99994
6.84187 -2.89206 5.25521
