-4.31678 -3.99044 4.48198
-8.08897 -6.14592 -0.489503
10.1449 2.86654 -10.0078
-6.51007 -5.12722 -3.10337
-4.20527 -10.012 7.98507
5.01171 -6.2209 15.3458
-6.10628 -10.0129 2.91766
7.09756 -4.60417 -17.172
11.6501 9.85226 1.76693
-3.26411 -0.506978 -19.0044
-6.21441 10.0067 0.563081
9.3033 3.17066 5.08858
-6.2775 -10.008 -0.917807
8.25293 -9.90608 -9.76869
8.29284 1.94307 18.9325
9.89286 -10.0108 -6.1825
-8.21104 -1.79235 7.9487
-1.78091 -6.00825 -11.9467
-4.77834 -10.0144 -4.38511
-8.07313 1.40932 -9.88337
11.7443 3.00743 -9.78754
0.955998 6.95327 -14.8077
11.6877 9.83759 -4.82554
7.58584 3.53446 18.885
6.3813 8.31718 -3.86169
4.09648 6.39773 5.54291
11.6693 4.15069 -4.59743
5.31887 5.82738 -4.87225
8.16168 10.0058 7.82368
-8.20814 -7.99646 0.990767
3.83903 -6.709 17.1761
-4.15219 9.83603 -9.89779
-6.71795 -0.444887 10.011
-4.47411 -3.13712 17.0444
-2.90023 -9.80411 -3.94958
5.1318 -3.84384 19.0052
7.74758 -8.0782 0.607874
7.65777 10.0034 -5.91631
-8.0577 1.20569 6.01544
-6.17304 0.501527 5.98629
-1.36268 -3.18978 5.17394
-6.69073 -9.87609 -9.90736
-1.51892 1.76415 -5.73433
7.6937 5.92281 1.68076
-6.06539 -5.58486 2.17234
-5.69838 -10.0079 6.43608
-8.20664 -5.8741 -8.0582
5.90227 -6.17655 -4.36745
11.7212 0.979654 6.10929
11.6616 -9.8911 2.11317
-8.1563 -5.55163 2.81258
11.7012 5.19957 -3.3393
10.0819 2.99549 10.0074
-8.21371 7.88749 3.4621
8.64852 0.465088 -18.8616
7.6316 -3.87948 -15.4422
-8.13027 3.64467 -5.07725
-1.65925 -9.85466 5.02635
-6.32882 4.31249 -4.17535
5.57174 -5.89478 11.9188
5.02464 -6.20632 -11.9733
7.20994 4.44729 -15.4369
-8.2152 7.91664 1.58166
11.7322 -5.91451 1.78685
-8.20661 -8.28233 -5.65296
-8.08453 4.81051 -3.91973
7.00988 8.00567 -10.0135
-8.20741 -7.82616 6.37643
-4.77593 -2.40625 -13.4935
-4.77183 -10.0104 4.35007
-8.21342 8.20193 5.62404
-5.14523 0.950239 -17.069
-2.13093 2.73782 19.0062
7.69448 -5.94918 -1.77523
11.708 -7.75628 9.82038
-4.56224 3.97126 -4.49442
-1.08697 -6.50872 -10.1142
-4.73161 -5.0241 -3.25656
-3.17357 -4.92886 -15.376
11.8084 7.91842 -1.56805
4.03389 -10.0096 7.63049
-1.75213 -6.04711 17.1213
9.76326 -10.01 1.11122
-2.4251 9.90851 4.48245
2.572 -6.81177 18.9003
11.4143 9.79689 9.86452
8.06697 3.11906 -15.1332
-3.62636 -5.40015 2.93908
3.24377 6.86408 15.3641
4.64312 -6.39598 13.5786
7.55868 9.87092 9.80818
-2.39247 -7.67382 -4.29331
0.912512 3.59533 5.94218
-8.09048 9.85302 -1.30626
-1.38402 9.85881 9.86088
1.95659 -10.0133 8.05053
-8.20955 -6.62149 -4.20785
-8.09571 -4.36977 9.84166
-8.13408 2.32892 -5.76748
11.8093 2.09177 7.87278
-5.5778 -9.88223 9.87153
1.92962 6.99991 11.8203
-1.32407 0.587358 19.0029
0.01735 7.62133 5.72286
11.6768 9.83619 -6.66515
-4.98342 -1.76144 -15.2381
11.6791 9.832 6.75027
0.504403 9.92835 -6.10616
2.3027 6.98647 -13.5701
-1.8226 -10.017 -8.594
9.88555 4.16772 -4.30236
4.55573 6.4372 -15.4486
7.18208 4.63888 -10.1235
11.5943 -5.1063 3.28472
-2.56423 -4.35722 4.21914
11.6131 4.7333 -9.90602
-8.20852 -7.57061 8.13474
9.54006 -5.48056 2.42476
-8.21154 -7.7819 2.79071
7.75595 3.66758 -11.8042
11.7263 9.80934 -3.0162
11.7302 9.81575 0.173338
-4.76694 -2.7488 -10.1153
-2.76809 4.52439 -4.04676
10.0057 10.0123 8.0384
3.57738 6.39707 -5.73365
5.77553 -9.85993 4.80448
0.132014 -6.70102 -18.9246
-8.20873 8.22026 -8.15083
11.7109 -3.89527 -4.8441
-2.51764 5.51157 15.0073
-3.17645 8.11869 -10.0121
11.623 -9.87041 -1.95485
4.47319 -6.73688 -5.38213
-6.33016 2.87498 -5.27754
7.70771 9.84826 -9.85836
-4.44473 2.73668 18.9407
8.23975 -2.72639 12.1037
-4.64034 2.77999 -17.3605
5.37744 1.21526 -5.90258
-3.54184 -10.011 -5.97564
5.33546 9.91242 5.13098
-3.64528 4.2242 -18.7716
-1.864 -10.0081 -6.89046
11.8069 7.7968 6.11535
-6.5678 -10.0115 -4.99056
-8.20533 5.50742 -6.00986
-0.48563 -4.0785 19.0048
-8.20925 -5.66194 5.70034
1.68621 4.80535 -19.0032
-4.85716 -2.17198 15.3124
-8.20662 4.5635 6.39253
0.926745 6.96077 -12.2531
2.52881 0.812222 5.97614
9.48129 9.90122 -9.85429
-8.0685 9.83424 0.400239
-6.32344 9.85076 -9.89435
-6.49499 -1.55052 5.78768
-3.61077 -10.0059 5.97801
-8.05306 4.86405 9.89762
9.84001 -10.0074 -1.08046
10.0958 10.0192 -7.93473
-0.191906 -6.71111 11.724
5.92858 9.90896 9.80041
-2.60947 -5.70241 -10.092
11.6251 6.4561 9.90755
7.15138 -4.26933 -18.9295
-8.20687 7.77079 -2.31616
11.8119 -7.97214 -8.20522
4.69183 -6.21298 -18.8984
-8.2036 6.61094 -4.36387
-6.18934 -5.99104 0.403087
7.68684 -3.77542 -11.9602
-5.14105 0.932544 13.708
-0.628101 4.22413 19.0054
7.28565 7.98841 10.0121
11.8041 -6.86593 3.83948
8.0666 -6.18405 10.0035
-8.07244 -3.35855 -9.85454
3.94277 9.84005 9.89153
-8.07769 3.24806 -9.79693
-1.63914 -1.15706 5.88785
7.10566 2.84464 5.2825
-8.06729 -8.08564 9.83288
11.7119 -2.32399 -5.77324
5.88157 -8.10158 -4.37947
-3.92029 -10.0106 -7.97477
6.00343 -10.0118 8.24305
-2.88386 4.56396 4.02935
-8.2151 8.02027 7.85628
-3.44249 9.86058 -3.21513
10.2131 1.92456 5.68026
9.95388 -9.76292 -9.93081
8.22926 -10.0075 -7.53137
4.31349 1.02627 5.92331
3.42069 4.50759 19.0053
-8.06276 -9.8744 6.0247
0.953858 7.03258 10.149
-8.211 -8.41271 -3.60019
6.13443 5.84915 10.0674
11.8062 -7.82395 -6.37174
5.89579 5.67663 -13.7683
4.61747 10.0087 -7.91758
11.5852 1.12142 9.9412
9.49941 -4.60591 3.83408
10.0646 6.49309 -10.0102
-4.35041 3.34489 -13.9881
-3.08992 5.04061 -16.8795
11.8084 7.97978 -5.78011
-1.79599 -10.0103 6.8122
5.30293 3.61361 19.0064
11.7582 -9.76047 -3.69759
-2.44315 9.79689 -4.37274
-2.92733 7.58896 -3.70019
-8.08526 9.87238 2.13596
8.70866 -1.13293 -13.6541
-6.20811 -10.0077 1.07383
11.7434 2.89072 9.78153
-4.67579 2.65215 -11.9659
-8.20656 -3.70108 7.52793
-0.111606 -4.44047 -5.67978
8.41936 -10.0037 -4.8851
-8.2192 0.302074 8.00782
-7.97657 8.23957 -9.97633
-8.11281 5.80465 2.26268
11.8079 4.45323 -8.26144
-0.196948 0.629937 -5.98605
-6.19301 3.97657 10.007
-4.54468 2.95186 13.6591
-8.20835 7.97304 -0.332071
-1.79873 6.01644 16.8046
9.13291 0.163828 -10.0703
-1.68822 -9.84235 -5.04458
1.72697 -6.79413 -18.8725
-8.15084 -2.32193 -5.81007
11.8044 -3.9736 -7.40013
3.45861 -6.24467 5.78268
-6.15953 7.75286 10.0139
7.12053 -4.29214 18.9407
-0.934533 -9.8569 9.88683
11.8078 -8.18933 2.9525
8.00037 -10.0067 7.70734
10.236 -10.0099 -4.06814
11.81 0.1415 8.07051
-8.2137 -8.29333 -0.80411
-5.17692 4.76956 3.64434
0.15321 2.26776 19.0031
-3.01228 0.811979 -5.95814
7.78355 -3.6408 15.5723
9.96673 -10.0117 -8.2029
-3.08823 2.87394 -5.27093
2.62533 -8.05709 -5.94202
11.6881 5.84205 -1.92767
7.24928 -5.34751 2.97717
-6.35137 10.0114 -5.65747
11.6493 5.26699 3.11913
-4.82327 -2.23136 11.9155
6.29759 -5.36633 -15.5361
7.41556 9.86781 -2.55364
3.89173 9.83508 -9.79683
0.810206 10.0073 -8.0676
-8.21479 3.989 8.1352
9.37905 4.74908 -10.0015
10.0529 4.43237 4.03017
1.83252 5.39592 -6.01672
11.8023 -5.97044 -7.80244
-3.65638 -4.01032 -4.44586
11.7231 -9.8325 -5.53301
-2.48086 5.26441 18.8238
-4.0796 3.80828 -16.0884
7.37956 4.21948 11.855
4.29746 -8.48161 -5.44023
-0.108624 -9.87483 -5.83035
4.74581 -6.53329 10.1266
-4.82401 -9.85014 -9.88273
-3.79524 -9.88124 -2.53947
-8.20712 -7.48116 4.52595
-6.76066 10.0167 -7.82109
3.77752 4.44364 -5.67252
-4.79937 9.87598 9.84637
8.20205 -2.8671 -17.2098
8.13978 -8.24133 -10.0086
1.84975 6.85781 18.8995
11.6521 9.90471 -1.40492
-7.8599 -9.89388 9.79693
9.37024 9.79689 9.86946
-6.21076 -3.93457 10.0055
0.146433 -10.0165 -7.89601
-8.08014 9.86657 -9.60752
2.00438 -4.58404 -6.02357
-6.42185 -2.55376 -5.42174
2.87416 10.0122 7.97964
3.97822 6.6712 11.8716
9.93488 -6.52021 10.0068
7.0859 -4.59353 -13.7312
-1.46404 3.58998 -5.03707
-0.887981 6.47845 -11.9607
5.87633 5.70546 16.9967
0.594435 2.95886 -19.0038
11.7016 -0.723485 6.1222
7.41661 0.940183 -5.93314
5.13202 8.14322 10.0093
3.20838 -6.67191 -18.9555
-1.0086 9.89668 5.48139
8.4911 -2.09092 -15.4793
-4.76528 -1.94007 -18.8648
11.5896 -0.619889 9.89521
5.85823 -2.76136 5.31975
-8.04782 -9.89075 -8.34038
-4.58843 -6.19374 -10.0052
3.71249 4.68308 -19.0079
6.76812 4.93309 15.2989
-5.0341 -0.263684 -18.8235
-3.82713 -3.97098 18.8114
3.11817 7.06108 10.094
-4.9127 1.33557 -18.9032
1.54561 -6.18322 5.99991
-3.36232 4.72543 13.4515
-8.21352 -7.45075 -2.22332
2.52058 -6.96508 -15.2983
10.1377 10.0073 -3.92083
-5.93577 -4.02498 -4.45423
-8.14458 -6.22336 9.81992
4.68138 10.0137 7.87149
9.89175 0.200509 5.99918
8.48579 -2.09593 -11.8975
-4.08801 6.67565 -10.0018
-3.29968 4.79401 -14.6421
2.75913 10.0164 -7.93296
8.91671 -1.40271 -10.0841
4.41246 -6.25274 18.873
-5.19599 -0.108265 15.3812
-8.21249 2.18764 -7.9184
9.05445 -10.0046 -2.8428
-4.25199 6.09429 -1.14115
5.76345 6.11271 4.50059
-8.21143 5.95001 8.2063
-3.84075 7.83507 -2.02838
6.01917 -2.28691 -19.0074
-7.93739 -1.79862 -9.9382
9.73184 -3.23189 5.04348
-3.33413 -4.78119 17.0898
-1.52532 7.93246 -4.99822
6.49975 -5.17916 -11.9434
-5.10042 10.0197 -8.51388
2.60573 -6.27998 -5.94807
-0.341969 8.29339 10.005
-8.17041 4.93053 -9.73626
8.47013 -2.1529 14.5919
4.51503 -0.125811 19.0035
6.58319 -2.43303 -5.48117
-6.06858 -5.8134 -1.46201
3.89013 9.93167 5.86621
-2.06699 -5.83572 11.9866
-8.20712 -5.60844 7.7172
-2.187 -10.0141 8.48845
7.81107 -3.94049 4.53563
-1.53411 -8.23054 -10.0097
6.98691 -10.0044 -6.01875
0.609337 -6.76644 18.8693
-5.79052 10.0047 4.35283
-3.05104 -9.85292 3.7688
11.5526 -0.36464 -9.88283
0.00974627 4.54418 -5.71873
-0.167079 -6.72799 -11.919
8.08548 3.10867 -17.0068
-8.09008 -0.479742 6.18442
11.702 -0.658573 -6.11737
0.35598 -6.85181 13.3576
-1.3425 5.99762 5.11144
-6.51184 3.92976 4.54858
-4.40531 -3.24366 13.5561
-0.543411 6.60275 -13.9647
7.73015 -9.88638 9.85032
-1.1378 10.0117 7.92261
11.6322 -6.54177 -9.86776
-4.10686 3.7516 11.8815
-3.50655 5.55155 -2.85007
4.55909 6.24729 -18.9153
11.808 0.209541 -8.03082
4.16484 6.59267 -13.6323
6.12553 -7.83503 10.0121
5.93836 -0.611353 -5.98859
3.20048 -4.36678 19.0062
3.90769 9.93225 -5.83668
5.86892 5.68257 11.7914
-0.310124 9.8949 -9.83153
7.95084 -2.89895 18.8961
-6.3259 -7.99246 10.0167
9.60522 10.0078 -2.05077
6.58536 9.83846 3.88135
1.00285 6.74541 -18.8628
8.83075 1.48985 10.0906
-1.83237 5.90145 -4.77906
9.80261 -1.60106 5.78539
4.61319 -0.806299 -19.0041
-6.46226 9.78967 9.91326
1.80773 9.88392 -9.85238
6.10251 1.63033 19.0031
2.96544 8.43582 -9.99893
-5.19781 0.192141 -15.2579
8.27238 -2.68826 17.0722
10.1494 -2.88985 -5.25108
-5.49394 -10.0033 -6.44563
0.448787 5.54604 5.85389
-8.05459 6.59442 -9.85302
-8.06608 -4.6984 4.01533
-8.11829 0.848076 -6.11956
11.8111 7.80035 2.43296
-4.18256 8.0261 -0.000653671
5.16114 -10.0052 -6.75356
6.6975 2.67574 -5.37662
-6.10589 -10.0201 -8.07301
6.59276 -5.10057 15.3929
11.803 -4.41883 6.50113
-3.90793 -4.05525 15.2653
11.8082 -1.80306 7.80161
-5.09559 -1.19925 13.6906
-8.20429 6.5064 6.48636
-3.1445 -2.45501 5.47718
8.81316 1.61745 -10.1126
11.6952 9.79689 -8.43104
11.8087 6.36848 4.41997
-6.56327 -5.91451 10.0108
-8.20795 4.06129 -7.5287
8.46528 10.005 -4.13475
3.0255 6.90728 -11.8714
7.39243 7.90505 -2.14932
11.8056 7.70302 7.92488
-3.32849 4.78355 16.9367
-8.12241 6.16718 0.653128
6.70742 -0.393509 -19.0039
7.14508 -4.49887 11.8438
-8.20542 7.76208 -6.16722
7.93723 -6.18841 -0.143594
6.12938 5.27271 -18.9407
-0.100705 6.42224 -5.69135
11.8091 -5.84388 8.12134
-8.12175 -3.52003 5.18193
1.96104 3.38719 -6.01034
11.6322 -9.88645 4.10217
8.38609 2.37802 11.9891
0.241937 8.29531 -5.7986
6.37976 -10.0104 -8.16539
4.2101 -9.8385 5.68712
0.772979 8.49479 -10.0031
-3.83703 -4.1519 -13.4604
8.14131 -2.96739 -13.7099
11.703 -4.15077 9.79693
-6.35057 -10.0144 8.15228
6.04893 5.56639 -15.6663
-3.05655 -5.40838 -3.5477
8.08382 4.31032 4.16656
-8.0728 -9.86797 2.09809
4.03015 -10.0103 -8.17685
11.8088 -8.03821 -0.881949
-8.20419 -4.66127 -6.25823
-4.2262 1.49188 5.81215
9.77041 10.0105 0.0449129
-4.75362 2.7986 10.1235
0.352001 6.64624 18.8502
-2.41825 -8.17013 4.26885
-5.07316 -1.34436 -11.7543
-0.549964 -9.78335 -9.86665
-4.1787 -5.98868 1.45554
7.57337 7.93695 1.58927
-8.06283 -5.06015 -9.8387
11.6602 4.05904 4.70151
-2.31182 -6.38801 4.36624
4.22694 -9.91903 9.72411
-7.99699 9.95083 5.60999
4.47715 -4.28822 5.37446
2.91449 2.80145 5.89146
-2.75249 1.362 -19.0049
-8.06751 -9.89009 -2.08728
7.54412 -4.38951 10.1156
-6.06405 5.7503 10.0076
-5.14826 -0.877121 -16.9976
-2.68587 -1.14674 19.0034
5.9921 4.15995 4.4069
-8.20449 -6.4393 -6.13575
7.78135 8.00549 -0.311314
-5.20084 -0.144774 12.0154
8.79771 0.5787 17.315
-0.411284 4.62031 -19.0044
5.08671 8.08431 -10.0013
-4.46981 3.4366 4.91491
11.8075 -8.23995 5.30555
4.79325 -0.803866 5.95231
-6.57395 1.94994 10.0025
0.0515097 -6.79875 17.0178
-8.20763 6.31161 4.62823
11.6238 -9.87502 -9.62354
3.6212 8.19136 5.71074
3.37403 1.03107 -19.0018
6.74446 -9.8853 -3.71459
-0.055241 6.76627 16.9134
-4.86376 -6.1376 10.0029
6.16935 -4.38698 4.22737
2.84851 6.74967 -18.8967
8.68857 1.25452 15.6329
-8.20413 6.16062 -7.85733
11.8063 -5.69466 5.11857
-0.925593 6.57266 10.1858
-8.04115 -3.57829 -4.96222
-8.06052 9.83283 9.58605
9.64244 10.0051 2.15033
11.8054 -7.95358 1.05487
-8.2073 8.33875 -4.16621
5.11999 6.16777 15.3042
9.80651 5.94371 0.849002
-5.94456 10.0075 -3.52736
-4.07821 -3.50955 -18.8313
-3.66238 -4.41224 -17.1906
9.73027 10.0042 -5.95157
7.98221 6.38007 -10.0016
-1.0335 9.88241 -5.47488
1.33047 4.82076 19.0059
7.91791 -6.37746 -10.0014
6.97524 4.7454 -17.2828
5.32861 -9.8612 -5.03012
5.74004 9.88031 -9.88618
-0.418306 -6.66661 -17.1385
3.76115 -2.25363 19.0029
-1.36503 -0.549543 -19.0036
-8.05523 -5.70672 -2.29741
8.24954 -3.05407 10.1409
-3.22643 0.803786 19.0042
-2.26388 5.70449 -13.4588
8.03462 -10.0033 5.30493
-8.13516 4.1983 4.58713
3.96556 2.14135 19.0029
4.99764 7.78328 -5.06454
6.26027 -5.5904 10.1235
11.8054 6.21953 -7.34961
-0.406875 -1.70102 19.005
11.6127 1.28485 -9.90995
6.55342 4.96564 18.7389
-3.96382 3.97548 15.2966
0.739732 -4.73423 -19.0036
2.01491 2.9548 19.0021
-8.12259 1.0821 9.8357
-2.43828 5.29062 -18.8313
9.85444 -4.27841 -4.19388
0.727279 -9.74914 9.93916
5.732 5.98831 -10.1227
-4.31285 -6.1503 -0.298744
7.70276 -3.76476 13.6808
-8.11403 5.75425 -2.49542
1.42078 -2.93757 19.0028
4.31495 -1.48368 -5.8131
3.73539 0.256385 -5.99925
-8.02334 9.89715 3.8908
6.79235 7.58577 3.31103
6.59692 9.90069 -3.92685
8.00466 -9.90552 -0.179981
11.8078 7.97524 -7.89657
11.768 -3.46624 -9.78855
4.34774 4.53694 5.43822
2.7764 6.93258 -15.4001
2.57452 -6.95633 13.6264
-3.3729 -9.8417 9.88697
-2.46319 -5.55278 -13.7154
0.510816 0.145952 19.0025
-8.06619 9.88562 7.46428
-7.99254 4.98438 3.41343
-2.6719 5.37955 11.6927
-4.25913 -3.51812 -15.2736
3.04329 -8.08268 5.85931
11.6885 -2.4234 5.71003
-8.06064 6.66767 9.91499
-6.43103 1.01371 -5.91242
11.7 -9.83495 -7.53137
-8.21407 -1.77223 -7.9552
8.73673 1.1497 -17.113
-2.51021 5.50862 -11.6952
5.89299 -5.48567 18.8628
11.6454 -5.84693 9.85469
9.36377 5.25296 -2.90313
8.37471 10.0093 -7.81341
11.803 3.93591 7.4774
4.10656 6.62303 17.1028
8.16919 3.18054 10.1574
-4.00357 -5.84837 -1.92234
-4.98412 1.25215 18.8731
-1.41254 -6.01732 -18.8754
-8.07445 6.03683 -0.938598
8.46099 2.18089 14.0645
-2.40377 7.89429 10.0097
0.435685 -0.972761 -5.94097
-1.82754 5.99284 -15.4011
-6.29528 -5.6609 -10.0083
3.56605 6.80065 -17.1965
-4.34076 6.12068 0.77866
5.97054 -9.82842 9.93119
2.87027 2.88433 -19.003
7.72559 -5.99069 1.48746
1.86537 -2.62459 6.00658
-4.35402 -9.8554 0.49236
-3.74684 -4.2651 11.8936
4.57171 -6.43083 -15.5214
7.709 -9.86816 1.70095
-5.04301 5.24387 -2.91853
9.7803 5.88555 -1.1264
2.54838 -0.762472 -19.0025
-2.76302 -5.52481 10.1719
-5.41383 -1.28853 -10.0114
5.94989 -4.23003 -4.44919
-4.38201 -3.27135 -11.8054
11.6664 -9.86493 0.0840026
2.86387 6.91873 13.5878
-1.6233 6.10835 13.0793
11.5969 -8.30685 -9.90101
-4.51456 3.0434 17.1048
-1.73253 -8.36988 10.0056
1.63373 -7.2899 10.0358
-8.04378 -9.89717 0.10453
1.67399 8.31346 6.01335
-5.18565 -0.498179 -13.5084
3.39688 -9.91384 -6.00002
-1.62211 8.03718 4.93126
7.3067 -7.76072 2.36307
9.23084 10.005 4.0801
7.55271 -9.85324 -2.05802
11.6666 5.92578 1.71727
-4.74987 0.455036 -5.99879
-2.2486 -5.73465 -17.0812
5.1107 5.91934 18.8646
-8.07437 -8.92607 -9.85113
8.57552 0.350198 18.9528
-0.789553 -6.5064 -13.7677
7.88414 -2.3299 5.5403
7.38109 4.60363 10.1235
-1.48426 -6.18651 13.6848
6.23691 -10.0051 6.50019
-6.04521 2.3207 5.53043
0.395256 -6.86288 -15.4778
-4.3978 10.0079 -4.87663
-2.98982 8.30559 3.59312
5.47588 -5.97388 -17.1651
-8.03968 8.27262 9.93256
-2.20331 9.81985 -9.8545
4.08785 -6.62185 -13.7607
2.1785 -1.03771 19.0032
-0.675128 -6.55392 15.2888
-2.77773 6.5139 3.87451
-8.20703 2.22427 7.73868
-1.8362 6.19955 -10.0813
-8.20675 0.204226 -8.05725
5.3779 6.0346 -17.2739
7.34157 4.30192 17.0914
1.16816 -6.97523 15.1071
3.9165 -2.54736 5.64153
3.59098 -2.55323 -19.0028
-3.50787 -7.65671 2.79347
4.70953 6.49793 10.1444
7.20349 -4.48625 17.2055
0.555686 -6.2225 -5.88457
5.65068 -5.86028 17.0815
2.15454 9.92945 9.78907
9.4081 5.40159 2.63087
9.60797 -9.96905 9.76742
7.95336 6.14044 -0.0189259
-0.612239 1.28825 -19.0046
4.93531 -9.85839 -9.87407
4.91568 2.73336 5.3696
-0.868426 -8.15476 5.39161
7.56525 10.0025 5.64062
-8.08652 -4.74369 -3.97059
0.868897 10.0105 7.96439
-8.06688 -7.01346 -9.87138
10.1796 2.59892 -5.41003
6.40134 -5.27617 13.5985
1.11053 -2.81369 -5.96455
7.88468 9.88598 -0.938445
8.33752 2.55527 17.1889
-3.21396 -7.23739 10.002
11.6614 1.0018 -6.06024
11.7411 2.5891 -5.62045
-0.166095 6.73618 -16.4434
6.73187 -0.268134 19.0079
8.57588 1.78038 -11.7788
-2.57005 -5.25851 18.9055
-3.85594 4.40617 10.102
11.6565 4.60507 9.85107
2.55117 -6.96052 -13.3523
8.73824 -1.05744 16.5597
-4.31063 2.84711 -18.9413
11.7726 -5.23216 -3.45952
8.793 -0.374406 14.727
-4.87959 2.11314 -15.4603
9.58167 0.768527 -5.96247
9.39891 -10.0032 3.23868
-5.80445 -4.79648 3.61131
-4.98015 -2.54864 5.4348
-1.47338 -5.97554 -5.03774
-4.12046 9.84023 -1.78148
1.80467 -6.99991 11.9091
-1.27663 8.12685 -10.0076
7.38486 3.87059 -18.9237
0.0479087 6.84361 -10.1605
5.96363 -2.04618 19.0076
11.81 -8.05107 7.79646
2.18067 8.41029 9.99995
-4.1248 10.0046 5.47446
11.804 -3.64972 8.03484
-0.38815 -2.52037 -19.0035
5.07001 1.15799 -19.0045
1.08527 -8.12459 5.9758
3.20523 -6.86622 15.3673
2.13221 -10.0138 -7.98811
3.50536 6.58233 18.9407
-5.18302 0.665902 -11.8284
0.114863 -7.04192 10.0741
-1.16257 10.0086 -7.74442
9.8102 -10.0101 7.41716
6.60742 10.01 -8.23834
4.80258 6.32203 13.5256
11.8039 -5.67796 -5.73859
6.64888 -9.81989 -9.87483
6.31552 10.0051 7.35748
-8.05193 9.90262 -5.01318
11.667 8.15512 9.87637
8.62501 1.57463 -15.3165
1.73449 1.00952 -6.00333
11.5478 -9.76828 9.83864
-4.6649 2.20888 -5.58214
-0.0313809 -2.1589 5.73695
-3.898 -1.1115 -5.89735
11.7773 9.79689 8.35846
11.4423 9.75911 -9.94289
2.22838 9.92147 6.133
7.8608 -3.94832 -4.52155
-3.71393 4.31493 -12.333
4.85919 -3.08505 -5.27185
11.8055 -7.46336 -4.51197
7.66712 -8.00247 -1.24693
5.19766 3.24231 -19.004
-1.03453 -6.20929 18.9068
-3.28133 4.94051 -10.1453
0.947042 -6.95273 -13.6939
0.587362 -0.772151 -19.0033
8.76169 0.816656 -13.4835
6.37458 -6.56846 3.89808
0.85778 -8.07327 -5.92359
-5.02299 -0.520466 18.8988
-5.04139 1.50854 -13.6007
-2.76639 10.0057 -6.29634
-1.83049 3.12659 -19.0038
6.37381 -8.3417 3.84807
11.7845 6.40805 -9.70015
2.89316 -9.83975 -9.88924
-8.21049 -7.94985 -7.78817
-8.20926 -3.71653 -7.89078
0.411617 9.89228 9.86871
-4.23257 6.37817 9.99957
-3.82574 5.62976 2.58919
-5.95817 -7.88774 -10.0163
-4.6246 -2.3418 18.8918
8.70628 -5.16028 -3.04808
-3.69149 4.1325 18.8677
9.68718 5.16858 10.0051
-2.62985 2.88469 5.25346
-6.62508 4.64949 -10.0141
-3.61434 -7.83556 -10.0096
6.10185 -7.86175 -10.0069
-8.07973 -2.15082 5.81053
8.51587 2.48957 -5.46098
11.803 5.62585 6.22229
-6.41633 -3.49348 4.87581
3.87977 6.76004 -10.1408
11.8068 6.10357 -5.19742
11.7007 2.74832 5.61501
-8.09707 -9.7817 7.91191
-5.46833 0.298469 -10.007
-2.94784 -9.81825 -9.86219
6.07992 -5.32551 -18.8095
-1.41623 -6.4234 10.1624
11.6786 -6.18007 -0.013901
7.88685 9.855 0.886369
-2.15794 1.11307 5.90119
1.57392 -2.7595 -19.0031
-4.07951 -7.99905 -1.06414
9.65802 -4.54395 10.005
-1.10822 4.10324 5.25107
6.49699 5.18551 -11.9174
9.85956 -8.3331 10.0147
-4.90436 2.02322 15.4001
2.83468 -4.62748 -19.0032
-5.2196 -0.582347 10.1943
-6.05095 5.54601 2.28828
3.57754 -6.79347 -17.1194
-3.13596 -4.96846 13.5677
9.84669 -5.9604 0.738796
5.3414 9.79689 -4.96891
-1.74375 -0.684534 -5.97838
11.8079 8.02157 0.496042
-0.63232 2.349 5.58683
7.29603 4.33458 -13.5597
1.88824 -7.01607 16.9783
7.31446 -4.58245 -10.0925
2.60155 -4.40006 5.94802
11.7096 -4.93337 -9.82077
8.5294 -1.30182 18.834
11.6855 -9.84174 6.27231
-6.56658 -10.0092 4.8402
-3.80487 7.71535 2.0365
-4.26729 8.22686 10.0139
6.29671 1.01937 5.91844
-8.06834 -9.89805 -4.23604
9.86856 -1.10178 -5.8993
4.15043 -4.86618 -5.51931
-8.0335 9.89045 -3.08173
11.8066 2.34834 -7.78532
-1.23043 -4.09531 -19.0068
-5.40206 8.30237 -10.0135
7.6867 5.88317 -1.8078
8.47667 -2.49033 -5.46082
6.43468 5.24763 13.525
3.93129 -8.36232 -10.0046
-3.87735 -4.46365 10.1012
11.6344 8.09918 -9.88656
8.70391 -1.16259 12.727
11.8065 7.6011 -3.62737
8.01418 4.05542 -4.42199
-6.21452 10.0224 8.19118
-7.9844 -2.56278 9.96125
-0.45981 0.316241 6.00004
11.5969 9.90799 5.09397
-0.220874 6.7058 11.9586
2.94239 -0.935208 5.95872
-2.15231 -3.0369 19.0077
2.30798 -1.06248 -5.99912
2.05959 7.02413 17.152
9.93994 -10.0109 5.29199
-2.50467 -2.40211 -19.0038
0.466148 9.8649 6.03195
-8.01241 -0.244891 -9.94367
-8.12986 -9.79697 4.02123
7.08912 5.31004 3.10699
-3.67277 9.90623 3.05895
9.6352 10.0052 6.03666
0.536417 -4.25752 5.87475
11.6175 9.87546 3.3904
11.5969 -3.91299 4.61676
-4.29644 -9.88113 -1.14383
8.5131 -1.36155 -18.9444
11.8068 -1.96562 -7.92881
11.8085 8.19092 4.2893
-1.9052 -3.98776 -4.76461
7.96916 3.32409 15.5134
9.2495 8.14218 -10.0223
9.80941 -7.35808 -10.0079
9.69489 7.71224 10.0135
8.10674 -0.407092 5.99728
-4.00061 -4.30527 -10.1104
-0.339515 -6.48174 5.61051
8.22554 -3.22236 -10.123
2.45194 -9.80169 9.90715
-4.36893 9.90866 -0.192431
1.17196 -9.77713 -9.91347
5.88946 4.12344 -4.46527
7.69602 3.77488 13.6474
-3.22464 -4.872 -11.7984
6.95592 5.07712 -3.31352
-6.00483 10.007 6.34132
2.38313 0.944584 19.0017
1.56272 -7.00258 -11.7435
8.78306 -0.226903 -11.8171
5.45342 8.05734 4.7561
5.68941 -5.82136 -13.762
-6.1619 10.0135 -1.52879
1.41998 1.14553 -19.003
11.6523 -9.89496 8.15659
-6.10233 -10.0083 -2.8831
-5.1368 0.962487 17.1049
-6.41334 2.66222 -10.0063
1.79819 7.42038 -6.01518
1.05251 1.59782 5.96153
-2.9908 9.90308 9.78102
3.0764 -6.98005 10.1505
-4.61636 -2.77701 -5.32463
-8.1001 -0.887488 9.75317
4.90252 -7.94436 5.12949
-1.63661 6.12516 -17.3455
4.36823 -6.67304 -10.1207
-6.67011 5.39079 -2.61866
11.8029 -6.75751 6.46356
1.60197 -9.87205 -6.1384
-6.35882 5.96822 0.643668
-8.05201 -6.03265 1.28254
0.836657 6.94213 13.5664
9.69392 -5.9025 -1.06883
-1.12398 -5.0199 5.25081
2.46946 4.79625 5.96962
11.7454 -2.37881 9.78723
-0.741963 6.52779 14.8692
-2.48506 -5.54103 15.3589
7.03936 -9.93553 3.29949
-4.50194 -8.29054 10.0134
8.79993 -0.201663 -15.2778
-3.21 -0.338212 6.00436
4.80916 -3.99613 -19.0071
8.28508 2.32525 -18.8013
11.6988 6.14021 -0.172807
4.0298 -8.36896 10.0072
-3.47219 -7.72991 -2.85676
-5.19885 1.02951 10.1769
8.29932 1.48153 5.81077
-8.11598 9.84592 -6.95172
-3.98212 -9.87472 2.19536
8.76054 -1.45593 10.2424
-3.15254 10.0136 -8.13877
0.21912 -9.89451 5.93539
8.17968 6.37607 10.0024
7.01887 -7.67279 -2.95376
-2.39704 5.80069 10.1046
-2.67958 -2.43824 -5.47982
6.60276 6.69107 -3.61125
3.37158 2.09108 -5.77005
5.96566 -5.82894 -10.1006
-8.08213 2.76364 5.53858
-6.01272 10.0063 2.56582
-6.24463 -3.57581 -10.0103
7.01493 -5.2916 -3.21504
10.1474 -2.41657 10.0057
-0.0310654 -10.0097 7.94326
11.5969 -1.82176 -9.88946
-2.89079 -4.93977 -18.8267
2.19741 -9.85796 6.15921
10.2936 -5.35573 -2.66468
-4.14178 10.0069 7.82099
8.18741 3.27016 -10.102
9.19225 -0.0480297 10.0218
11.8071 5.75837 8.13508
-6.27943 6.73844 -10.0133
9.61124 -5.16825 -10.0027
1.24164 6.97804 15.4057
8.77209 0.73062 13.2684
0.568417 -7.18445 -10.029
-5.09012 1.82612 -10.1485
-0.843189 -7.89808 -5.38675
1.6118 -7.0151 -17.0707
-5.10477 5.16025 -9.99903
3.06628 -2.99409 -5.86788
8.77832 0.289147 11.566
7.91679 -0.759255 -5.96386
3.32308 8.31653 -5.79199
-4.1159 -7.97233 0.940001
10.059 -3.10392 -10.0065
-4.17792 9.83875 1.48362
-2.56162 10.0044 6.84304
1.5546 7.00824 -17.0152
7.44731 9.88065 2.54124
-8.0867 3.00212 9.81672
-8.07181 -0.720743 -6.09707
-5.10455 -1.18311 17.0832
-5.99434 5.91294 -1.03166
4.92819 6.25412 -11.9005
0.282388 2.52671 -5.80353
4.802 2.96505 -5.24815
8.27795 2.64624 -13.4239
1.0639 -0.657363 5.98529
5.93244 10.0045 -6.57953
11.8047 4.33691 -6.50651
3.7448 -6.73372 11.9368
-4.563 -3.24611 10.1794
1.9017 7.07762 -10.1697
-4.66171 -2.71655 -16.9791
-4.74021 10.0064 -6.77423
-6.0461 -0.932902 -5.9294
-4.94329 1.90644 11.9653
-0.75282 -2.51573 -5.51936
1.35473 -5.03967 19.0042
6.74669 1.68869 -19.0108
2.32556 -7.18557 -10.0483
-0.555881 6.47444 -18.7903
-1.17481 6.20468 18.8465
2.10596 9.90302 -6.09621
11.8055 -7.73462 -2.78655
-5.21942 -1.94197 10.0711
-1.54967 -6.15166 -15.4504
7.9429 -2.96039 -18.8951
-7.99014 -9.91584 -6.48723
2.09625 6.61794 6.01489
11.705 -5.94452 -1.74805
3.38662 -6.83232 -11.7204
6.46016 -0.982204 5.93346
-4.76487 -0.740233 5.97265
5.08709 -6.00888 5.02183
-4.4201 3.47023 -10.1033
8.77474 -0.825877 -17.0994
7.97959 -7.99749 10.0079
