1.49637 5.64239 0.420223
-3.13471 5.87805 -0.946121
-2.77616 5.37776 -1.38305
0.671242 5.70352 -5.29163
0.66466 7.0432 -4.59843
2.36296 5.05266 -0.850643
-1.27501 6.78895 -2.91211
-2.15625 7.00678 -3.13418
-2.90324 6.22509 -0.928934
-2.56978 4.94793 -2.66467
0.686622 6.76918 -5.15349
-0.0367082 6.08167 -3.42407
-2.96208 5.47318 -2.16018
0.620722 5.01772 -0.287969
-0.582452 6.49848 -5.29748
-2.26203 6.57629 -0.380981
0.725741 6.39686 -2.82623
3.11974 6.42438 -1.73896
-2.88476 6.63469 -2.88916
-1.94864 4.84158 -4.15978
1.45595 5.27245 -1.89029
-2.28708 5.27063 -0.590324
1.22431 6.40168 -2.12986
-0.0454634 5.46706 -5.33884
0.0781077 5.89479 -1.0367
1.28201 5.27558 -5.16068
-2.81004 6.71181 -2.49511
0.510954 7.02046 -0.568402
-2.94824 5.48607 -1.72865
-1.29179 7.13888 -0.293401
0.911231 5.97306 -2.77173
0.711624 5.84976 0.775152
1.40243 6.41558 -4.91217
2.09535 5.77061 0.0196047
0.180495 6.91822 -5.24612
1.60263 5.10054 -1.55556
1.78932 7.17574 -4.21027
-1.13715 5.14395 -3.33501
-1.5093 6.02919 -4.96033
1.16169 4.7934 -3.41999
-0.806962 5.31638 -2.99145
-1.30421 6.51743 -2.53382
-1.44036 6.52777 0.371454
-3.28245 6.27393 -2.09044
-2.74126 6.12103 -0.554834
-1.8438 4.69432 -1.40196
0.228396 6.48159 0.83953
2.33083 6.55428 0.0902688
-2.53777 5.09134 -3.34176
-1.1048 6.80606 0.460856
-0.744043 6.87811 -5.21575
0.04566 6.3026 -1.05329
1.0633 6.53373 -2.78176
-1.4842 6.72077 -2.24449
0.543626 5.04308 0.705935
-0.241622 5.01654 -3.97957
2.14922 4.71238 -2.09497
1.55186 6.98615 -0.533101
0.894715 5.92364 -2.27332
-1.90826 5.08431 -0.585168
2.48248 5.16072 -3.17178
1.4888 7.05518 -3.72038
0.117393 5.69468 -3.4373
-0.393371 6.48515 -3.39457
-2.14646 6.1294 -4.55131
1.40007 5.02227 -4.1
-1.06049 5.47273 -1.40966
-1.21986 7.03243 -3.85981
-2.25244 6.87441 -3.52925
-2.19494 5.07337 -0.969296
-0.115688 6.99079 -4.01953
-2.65308 6.57723 -1.01257
2.34137 5.50115 -4.58064
1.08372 5.05217 -4.39868
1.871 7.28194 -1.70946
1.32116 6.94764 -0.198903
-0.130302 6.12428 0.854433
2.23016 6.93344 -1.12961
1.49682 5.27538 -2.32858
-1.39413 5.12486 -1.48255
2.71938 6.4933 -0.351567
-1.56441 5.04134 -3.30591
0.707487 5.09492 -0.778494
-1.30929 5.23048 0.398897
-2.05405 4.6832 -1.71513
2.35472 5.17671 -3.50452
0.236143 5.0232 0.367265
1.22657 7.09961 -0.77231
-1.52795 4.73115 -1.21499
-0.819417 5.54635 -2.7549
1.03839 6.59173 -5.0485
0.634531 6.98174 -4.1609
2.59581 5.35315 -0.971644
2.66031 5.60061 -4.27227
-0.473194 6.58568 -1.33181
1.72498 5.77805 -4.929
-0.74415 5.13204 -3.42637
-2.52421 5.27465 -1.02091
1.01737 6.83314 0.71957
2.91766 6.55437 -1.33212
-1.97649 7.29911 -2.39103
-0.194536 5.20016 0.885074
-1.28325 5.22009 -2.99094
-0.308021 5.79996 -1.05705
-1.6307 5.88008 0.51415
-0.577305 5.2531 0.879149
-2.72826 5.76025 -0.26416
1.00392 6.7047 -3.14925
-0.273952 5.81517 -5.32208
2.09861 7.27965 -2.01813
2.67324 6.73938 -3.06054
3.12013 6.41114 -2.17596
-1.08507 6.13969 -2.48978
2.82874 5.44788 -3.34319
1.39952 7.11309 -4.12803
-3.12982 6.4598 -2.52285
-0.525722 5.28154 -3.2115
1.79552 7.12871 -3.40546
-0.293397 6.26877 -1.15092
-0.94971 5.11569 0.236472
-0.647126 6.88574 -0.685984
-0.846508 5.89124 -1.50831
1.15481 5.31903 -1.54067
-2.47014 6.62247 -4.32209
2.10042 4.69805 -2.50356
-2.74279 6.52871 -4.03932
-2.44666 6.17392 -0.249984
-1.32908 5.12014 0.00342419
0.677003 6.90481 -3.77843
2.16936 5.18959 -3.86078
0.245203 6.98598 -4.2798
1.79975 5.09951 -4.02736
3.145 6.31236 -1.02028
0.16639 4.99306 -4.09559
-1.40774 7.1152 -3.46958
-2.9621 6.57513 -2.11286
1.89524 7.23118 -3.86528
-0.166689 5.07387 0.521556
-1.43848 4.93065 -4.20866
2.12778 6.94258 -3.98153
2.44348 6.16151 -4.19522
1.79882 4.92802 -0.0911634
-0.137841 6.96508 -3.50457
2.96323 6.3534 -0.649504
1.79229 5.0114 -1.99585
1.67806 7.08725 -0.951424
2.82252 6.67928 -1.81366
2.96845 5.53979 -1.73746
1.39829 6.77511 -2.91145
0.564886 5.15133 -5.28537
0.516688 7.03393 -5.0559
0.52127 5.4506 -3.41053
-1.73944 7.26998 -2.74347
2.45177 7.05663 -2.89265
2.88192 5.63819 -3.95316
0.895076 5.11884 -4.91929
-2.0417 7.30911 -1.9655
-3.03702 6.43104 -1.70878
-1.85191 7.02087 -3.48781
1.40942 5.64651 -5.10454
-2.62776 5.0483 -2.24037
0.661968 6.12449 -3.11174
-0.88742 5.73124 -2.45528
0.929447 5.20471 -1.15267
1.62955 6.84298 0.0502387
1.31281 6.05991 -5.04851
1.82499 4.90988 -1.19289
-0.131711 6.76246 -1.11451
1.00183 5.01312 -0.452811
-2.49007 6.943 -2.54175
2.48127 6.9827 -1.9734
1.58679 5.00199 -2.78168
-1.44608 5.01162 -0.386618
0.617527 5.35634 -1.40358
-0.219817 6.59815 0.796221
-1.16715 6.34868 -2.10631
1.29405 5.16121 -4.76053
-0.56041 4.98406 -4.75532
1.1354 6.40836 -1.644
2.92858 6.44117 -3.00665
-1.65278 6.86231 -4.55232
2.38301 5.80284 -0.254413
0.258004 6.93471 -3.7997
-1.99435 6.89021 -3.88117
0.742788 6.54241 0.801155
2.75246 5.9973 -3.95204
-1.9744 6.92296 -0.324243
-1.87402 4.87344 -1.02727
-1.76713 6.28666 0.266632
0.547343 6.89297 0.787553
0.66313 6.79746 -3.42792
-0.22241 6.2135 -5.32693
-3.18699 5.75105 -1.80444
1.1783 5.6288 -2.43194
2.14948 5.05958 -0.452103
2.38137 5.41086 -0.522015
0.249289 7.01339 -4.7259
1.03346 7.06725 -4.3601
1.11432 5.77813 0.63582
2.00658 6.7533 -0.026834
0.749001 6.30182 -1.24425
-2.20732 4.90971 -1.37533
-2.8535 5.54516 -0.978285
2.95461 6.53047 -2.58018
1.59098 5.16873 -4.49118
-1.52329 6.93528 -2.64134
-1.59802 6.99424 -3.82349
0.18323 5.11688 0.823549
-2.65617 6.6759 -3.64078
3.04025 5.55542 -2.89349
-2.7058 6.12877 -3.9725
1.82024 5.42063 0.119815
0.282411 5.01147 -0.0679723
1.53655 5.20538 0.27484
1.96951 4.86746 -1.62632
2.90206 6.14583 -3.57392
0.911948 6.18375 -5.17211
-2.53481 6.47627 -0.656194
2.83781 5.64766 -1.09784
-0.283602 5.08839 -3.44028
1.39782 5.10277 -1.1825
0.250486 5.94751 0.855427
3.21022 5.77235 -3.30016
1.64353 6.73102 0.501559
-1.23873 7.18279 0.154469
0.852345 5.18624 -3.35873
-2.98062 6.4249 -3.70494
-1.73056 7.05065 -2.27066
1.58465 6.82763 -2.54788
-0.878066 7.00735 -4.12385
-0.588309 5.03019 0.0223834
0.6638 4.99233 -4.22882
0.391808 5.61995 -1.15508
1.06159 5.38218 -3.11485
2.90169 5.97972 -0.821644
0.980218 7.10973 -1.08541
2.09458 5.35983 -0.180954
-1.00318 5.06284 -3.71574
1.68195 5.32526 -4.97819
-0.490466 7.02563 -3.87874
0.416874 5.90821 -3.3535
2.56398 6.8346 -1.52921
-2.71356 6.67237 -1.38013
-2.14293 7.12688 -2.72165
0.360021 5.49852 -5.34013
-0.0243239 6.5345 -3.41791
2.11429 6.1845 0.167861
1.78981 4.95145 -2.41024
-1.81532 4.99523 -2.90095
2.31784 4.73519 -1.61218
-1.42311 6.41282 -5.05183
0.674065 5.04964 -4.61337
-1.5621 4.88189 -0.763296
0.237098 5.01588 -4.50252
1.73507 6.18591 -4.7872
-3.36859 6.15092 -2.52221
2.77362 6.57733 -0.860223
0.0680049 4.99522 -3.62209
2.023 5.42918 -4.82105
-1.45633 6.89342 0.202599
0.39513 5.16738 -1.13633
1.79664 7.07007 -2.16243
2.30719 4.93821 -2.84808
0.793469 5.71196 -3.18172
-0.223347 7.03614 0.680436
-0.140423 6.62023 -5.32049
-2.04163 6.48638 -0.0675063
-0.555969 6.96651 -4.82519
-1.35274 6.17194 0.546158
1.16353 5.52611 -2.00664
-2.36503 6.75552 -3.9386
0.546907 6.21486 0.820847
0.90606 5.27652 -5.2812
-1.37291 5.00673 -3.74902
-0.69364 5.63678 -1.17826
-2.56176 6.78277 -3.25918
0.112679 6.96551 -0.557387
0.345669 6.53164 -1.04915
0.0653988 5.05268 -0.971042
3.0953 5.59309 -2.43999
-1.38468 6.91123 -1.15041
2.43742 4.85954 -1.98102
-0.664503 6.76434 0.661464
1.03387 6.12522 -1.97543
2.33445 6.6888 -0.303814
-1.86662 5.41021 -4.57986
0.656367 4.98352 0.203449
-0.651671 6.10211 -5.27409
0.786517 5.52062 -1.67119
-2.30848 4.79231 -3.50083
1.47554 4.89394 -3.68017
-2.07242 5.20602 -4.28899
-3.11581 5.71813 -2.49771
2.17831 7.29386 -2.77082
1.03036 4.95297 -0.0405698
-2.41963 7.01405 -1.43562
-0.558158 5.10683 0.445954
-1.28401 6.95802 -4.28136
0.0354097 5.59241 0.885088
2.47295 6.24585 -0.108344
-2.35498 4.70979 -2.40843
1.19436 5.33879 0.527324
1.73711 6.30718 0.442678
-3.2953 5.90902 -2.16026
-1.02169 4.96812 -4.98833
0.147392 5.09402 -5.28941
-2.96175 5.78445 -0.613441
-2.903 6.03212 -3.60922
-1.71733 5.16304 -0.186816
-2.75817 5.66102 -3.52768
-2.25019 6.87756 -0.69025
-2.83231 5.3207 -2.54874
-1.09141 6.1467 -5.15713
-1.02364 7.10872 -3.29068
1.58854 4.73658 -3.21112
0.930372 6.08656 -1.57361
-0.976117 6.67414 -1.29455
-2.71198 5.2081 -1.86428
-0.878657 7.07534 -3.66724
1.86192 7.08095 -2.57982
-2.92949 6.57043 -3.28112
2.70212 5.25814 -2.87677
-1.85332 5.87712 -4.71434
-0.238502 6.8918 -0.73192
1.59253 6.99052 -1.78401
3.19756 6.23694 -2.67364
-2.52506 5.32729 -3.66646
-0.341162 6.91355 -5.25477
1.09144 6.87818 -3.5338
2.08997 4.76518 -0.800068
0.502915 6.06615 -5.28458
-1.57942 5.60152 -4.8478
-0.515997 6.99515 -4.33796
2.56377 6.75323 -1.13505
-0.381545 4.96273 -0.33365
0.435377 5.49192 0.825079
0.889342 4.99192 0.564289
-1.24741 4.74312 -0.986339
-1.00704 6.44865 0.611866
-1.74269 4.91152 -3.73656
3.4021 6.0754 -2.25316
-3.07497 5.67109 -1.3526
-3.16604 6.28282 -3.32182
2.78642 6.73275 -2.22156
0.844578 5.74962 -1.91467
2.46388 4.96312 -2.46638
-0.897672 4.80541 -0.892829
-0.208157 5.00506 -4.43708
2.25525 6.546 -4.13551
-1.76163 6.72678 0.0401611
-1.61058 5.20288 -4.74204
2.57546 6.39022 -3.8311
1.32661 6.6042 0.666412
1.42326 4.91697 -0.367591
-0.432404 6.03014 -3.34323
-2.06015 6.79628 -4.31689
-2.43678 5.47804 -0.226707
-0.654602 5.00959 -5.15147
-1.70902 6.98419 -1.84659
-0.906252 7.13397 0.396857
3.08302 6.15599 -3.19799
-0.713432 4.89717 -0.515582
0.943476 7.04307 -4.95237
0.777191 6.9401 0.407822
0.65828 7.08565 -0.921963
-2.29844 7.13042 -2.25469
-0.619137 5.66646 -5.26191
1.0261 4.92498 -3.91432
-2.40135 5.88725 -4.21523
-1.28489 5.28716 -4.97452
0.701185 5.82994 -1.37963
1.87656 4.70847 -2.85903
2.16068 7.29901 -2.38092
-1.05059 6.87341 -0.898251
0.969908 6.95396 0.016237
-1.41719 7.07294 -0.704565
-0.194246 6.9775 -0.23679
1.99646 6.6242 0.337862
-1.99726 5.88429 0.304103
-1.03873 5.74568 -1.80548
1.9488 7.1162 -1.2871
0.326258 6.34105 -3.31768
-0.983175 6.99504 -0.492117
2.63053 5.68699 -0.667344
0.822559 5.41478 0.706051
-1.52683 6.77058 -4.99612
0.231459 6.95116 -0.968671
-0.994271 4.96187 -4.5345
-1.16248 5.41962 -2.60839
-1.27272 6.90882 -4.69975
0.4406 4.99602 -3.52438
1.0397 5.72168 -5.20953
-2.10585 7.31506 -1.58615
1.44073 6.91854 -3.28959
-2.59838 5.73214 -3.86896
1.93648 6.77473 -4.34876
0.54968 6.61274 -3.09208
1.47616 4.87345 0.0904273
-1.8246 6.321 -4.8276
1.5654 7.1083 -4.5149
3.36729 5.89417 -2.57371
-1.10863 6.8692 -5.08423
1.88689 4.80152 -0.435239
1.28368 6.89818 -1.42851
1.28237 6.54392 -2.48076
1.51276 6.7476 -2.15112
-0.359309 5.64035 0.890646
-0.284435 5.59608 -3.36822
-0.15126 5.02561 0.0920401
-0.703139 6.72271 -3.32447
-0.557085 6.97551 -0.326549
-1.09055 6.35841 -2.86905
2.23809 7.07343 -1.61706
-1.6855 4.9204 -1.64051
2.60873 5.39952 -3.78761
-3.34057 6.07638 -1.69746
-0.784629 5.24578 -1.06218
-2.00618 4.88167 -2.49386
1.63665 4.92353 -0.789229
-1.19327 5.37503 0.774694
3.06946 5.72769 -3.65111
-1.14674 5.5982 -2.16549
1.41226 6.09752 0.558303
-3.17825 5.95032 -2.87712
-2.99968 6.33223 -1.31842
2.80079 5.2939 -2.50429
2.21718 4.73672 -1.20451
-0.448833 5.35527 -5.28398
1.89903 6.85963 -0.372578
-1.76127 7.08593 -1.43918
-0.609463 6.75828 -1.03431
-2.64661 5.4891 -0.615344
-1.58182 5.16454 -1.94409
-1.38789 6.65362 -1.88507
-0.00326231 4.9921 -0.373421
-1.42223 5.33816 -2.26823
-2.07628 5.31215 -0.164719
2.65991 5.1428 -1.71299
-1.88967 6.71922 -4.80063
-2.16733 6.126 0.0498635
-1.405 6.78973 -1.51883
-0.085843 7.02202 0.227386
-3.26045 5.99025 -1.31146
0.386239 5.05594 -4.9147
-2.63233 6.86475 -2.14193
2.14634 7.21902 -3.56832
1.19721 4.93627 0.3669
2.52069 5.05596 -1.29754
0.08912 5.31866 -3.4569
2.90765 5.4048 -2.08516
-1.96803 4.8762 -3.2862
-1.01944 6.52513 -5.20647
-1.68798 6.91103 -4.17396
0.438457 6.07898 -1.11811
-1.88431 5.51633 0.47645
-1.74489 4.90748 -4.48868
1.29374 5.04462 -3.11943
2.65671 5.11782 -2.14862
1.97831 5.26502 -4.40547
-1.06867 6.4984 -1.67213
1.35775 6.66731 -1.77904
2.70949 6.51907 -3.42327
1.02603 6.23465 0.719815
-2.33958 5.46956 -4.07737
-0.669394 5.73786 -3.14113
2.07099 6.30006 -4.48216
2.02077 6.91596 -0.75151
3.38267 6.11257 -1.84448
1.34536 5.32838 -2.7489
0.966204 7.03279 -0.482033
-0.666166 6.38746 -1.5719
0.130814 6.91396 0.79406
0.14188 5.89854 -5.33282
1.60312 7.24859 -1.43249
2.39204 6.76576 -3.72239
-0.881138 5.95829 -2.13727
-2.42072 4.91243 -1.83481
-2.38419 4.75711 -3.11327
1.87784 4.97065 -3.57219
2.80274 5.42393 -1.4111
0.261359 6.99858 0.474732
3.14887 5.8345 -1.58124
3.28686 6.22929 -1.41371
2.35911 5.89104 -4.4458
-1.30365 5.41339 -1.78295
-0.825819 5.63411 0.841505
-2.9955 5.85522 -3.23049
2.34507 5.35872 -4.18218
-0.119109 6.98988 -4.93436
2.05342 4.91161 -3.21417
-1.60049 7.17721 -0.104266
0.0266229 5.46255 -1.01201
0.256145 6.82307 -3.36168
-2.50342 6.87635 -2.89974
1.0825 5.64813 -2.84136
-1.37919 4.9199 -4.73665
1.19655 5.05624 -0.802412
-1.76756 7.16059 -3.12214
-1.75475 7.25869 -0.454884
-0.963932 4.99823 -0.205043
2.05176 5.87578 -4.69523
-0.808774 6.1718 -1.85082
-0.896069 7.08548 -0.0684199
2.16229 7.28165 -3.16081
-0.600342 5.04868 -3.81078
-0.258135 5.03975 -5.23543
-2.11956 4.79462 -3.79747
-0.581835 6.36863 0.76129
-1.72848 5.08742 -2.39266
2.68831 6.06174 -0.44922
-0.371968 5.3364 -0.975076
-0.539339 4.89495 -0.86799
0.468089 6.98032 0.157932
1.35875 6.81179 -4.81711
3.07528 5.93035 -1.21186
0.313519 5.03399 -0.624449
1.71459 6.61811 -4.63222
-1.51332 5.20121 -2.68913
1.78307 7.04793 -2.97988
1.2599 6.87555 0.325465
-2.37936 6.92951 -1.0485
-2.2203 4.68473 -2.07563
-1.73416 5.29644 0.19977
-2.6772 5.16457 -2.9497
-0.56104 7.09383 0.547873
-2.43278 5.74049 0.0472682
-1.88077 4.90922 -2.04491
1.79074 5.89128 0.300022
1.00217 6.63055 -1.31372
3.33236 5.89974 -2.94327
-1.99125 7.25489 -0.761658
-0.89704 6.95981 -4.59566
0.553746 6.47527 -5.23257
0.807279 4.85046 -3.56412
-2.46306 6.27001 -4.31335
-2.20025 6.58824 -4.61213
-1.13623 5.08425 -1.1891
-1.14053 4.88032 -0.585116
0.890396 6.22046 -2.47761
-0.93648 6.05994 0.731546
2.46354 7.056 -2.39268
0.203537 6.98749 -0.137777
-1.24992 5.70876 -5.04852
0.514075 4.93997 -3.88022
-1.55591 5.43593 0.640377
-2.50812 5.11774 -1.45762
-2.29372 5.09104 -3.90024
3.20666 5.76127 -2.06026
-0.614888 5.00384 -4.27193
-2.76254 5.43883 -3.23002
-0.530782 5.98239 0.832842
2.40892 6.73936 -0.696678
-0.58102 6.0671 -1.28778
0.683317 6.73185 -1.09569
-0.0748988 5.01518 -4.86154
1.33373 7.21536 -1.18352
0.639471 6.99305 -0.20199
-0.500263 7.05416 0.119974
-3.26574 6.33162 -2.93893
-1.01811 5.00039 -4.10594
-1.7058 7.14098 -1.00913
-2.1227 5.67169 -4.42224
1.21606 7.12536 -4.69859
-0.203997 4.92908 -0.81839
1.05216 6.98477 -3.93342
-0.997766 6.66588 -3.13655
-0.152761 6.99261 -4.51164
-2.40096 7.07624 -1.8438
-2.27001 4.73099 -2.8099
2.68911 6.81302 -2.64636
-0.529258 7.02775 -3.46287
-0.921516 5.96634 -2.87158
-0.933108 5.79531 -5.18318
-0.766687 6.24991 -3.19063
-1.24753 5.77286 0.704801
2.4349 6.94007 -3.35205
-1.39433 7.18826 -3.05762
-0.911299 5.36478 -5.15514
0.182213 6.39249 -5.30661
-2.18551 5.5123 0.223107
-2.08813 7.29556 -1.16756
-2.9433 5.57306 -2.88174
-2.71755 6.75966 -1.75549
-0.907247 5.22426 0.711637
