1.47893 5.68736 0.441013
-3.17063 5.90642 -1.0379
-2.75964 5.36962 -1.3555
0.709551 5.53154 -5.30241
0.675511 7.04424 -4.59551
2.38112 5.03296 -0.920368
-1.2963 6.85196 -2.92712
-2.21987 6.97965 -3.12633
-2.84445 6.29707 -0.93025
-2.57048 4.94736 -2.57441
0.518161 6.66416 -5.21961
-0.0190492 6.16357 -3.42264
-2.9032 5.39984 -2.13691
0.675788 5.01354 -0.269476
-0.490455 6.54225 -5.30883
-2.21551 6.56864 -0.3168
0.689438 6.46719 -2.89688
3.12026 6.42453 -1.77023
-2.97019 6.57461 -2.91318
-1.91079 4.86024 -4.25675
1.50216 5.23626 -1.88156
-2.2708 5.26322 -0.58538
1.15478 6.35458 -2.28132
-0.103822 5.49667 -5.335
0.0508966 5.93328 -1.03642
1.31803 5.28374 -5.15101
-2.84265 6.68668 -2.49743
0.441631 7.01567 -0.617804
-2.92718 5.46307 -1.72779
-1.28202 7.14149 -0.269971
0.87328 5.9661 -2.89425
0.718525 5.81735 0.771478
1.38032 6.42157 -4.92247
2.08693 5.75538 0.0205976
0.245888 6.97472 -5.19525
1.60618 5.09451 -1.53609
1.77713 7.18901 -4.19752
-1.10394 5.1419 -3.35721
-1.54432 6.03983 -4.94314
1.3128 4.76804 -3.35778
-0.703748 5.30283 -3.05503
-1.27896 6.51669 -2.6224
-1.43224 6.53885 0.37188
-3.37564 6.16742 -2.16686
-2.74644 6.1204 -0.561039
-1.78532 4.69361 -1.39011
0.237773 6.45558 0.840356
2.39566 6.54353 0.0319296
-2.50847 5.07582 -3.40682
-1.11027 6.81348 0.455356
-0.781679 6.88012 -5.20157
0.0911791 6.42253 -1.05215
1.06295 6.53089 -2.77674
-1.44048 6.66728 -2.2957
0.555224 5.0487 0.713701
-0.170229 5.01435 -3.92165
2.18588 4.6984 -2.10627
1.64762 6.99096 -0.624742
0.87172 6.01371 -2.32242
-1.89976 5.08148 -0.58341
2.4659 5.17362 -3.25882
1.50423 7.06517 -3.73858
0.00392218 5.77609 -3.43106
-0.393215 6.47038 -3.39342
-2.18259 6.18808 -4.53908
1.37402 5.06629 -4.27495
-1.05883 5.45571 -1.39256
-1.24083 7.01759 -3.92868
-2.25322 6.86662 -3.56649
-2.1985 5.07679 -0.966345
-0.131059 6.992 -4.03494
-2.54285 6.69889 -0.992011
2.37183 5.51458 -4.56032
0.996813 5.05514 -4.4616
1.80903 7.27748 -1.64235
1.34647 6.96466 -0.300727
-0.121581 6.11492 0.855591
2.31138 6.89917 -1.15522
1.51154 5.26295 -2.29955
-1.43625 5.07573 -1.48224
2.67799 6.47667 -0.265329
-1.5263 5.05809 -3.28849
0.753215 5.11016 -0.837337
-1.34197 5.23644 0.390215
-2.0482 4.68219 -1.72927
2.23437 5.13529 -3.58224
0.287116 5.01808 0.348112
1.25491 7.0886 -0.743181
-1.50094 4.71995 -1.16
-0.828446 5.48638 -2.76762
0.977582 6.63596 -5.06548
0.649653 6.98329 -4.16375
2.60544 5.35541 -0.990308
2.63534 5.5867 -4.29887
-0.501078 6.54487 -1.36872
1.81012 5.77945 -4.88255
-0.717962 5.11467 -3.48653
-2.54289 5.30257 -0.97799
1.02497 6.82407 0.72448
2.95013 6.53929 -1.40853
-1.9367 7.29984 -2.4016
-0.185727 5.17452 0.871986
-1.17534 5.25941 -2.97634
-0.327778 5.77312 -1.05721
-1.63003 5.86401 0.520128
-0.549525 5.23845 0.876713
-2.77983 5.74679 -0.333818
1.01884 6.7109 -3.15415
-0.234764 5.90798 -5.32623
2.00794 7.29394 -1.95537
2.62886 6.74667 -3.19336
3.12889 6.4017 -2.18653
-1.07598 6.12473 -2.50795
2.85904 5.46722 -3.3268
1.39028 7.10896 -4.12032
-3.14812 6.44467 -2.51794
-0.470899 5.18726 -3.28293
1.78076 7.12182 -3.41237
-0.2545 6.2563 -1.1288
-0.940415 5.13898 0.339396
-0.66686 6.88413 -0.695145
-0.834209 5.89972 -1.49446
1.16872 5.31133 -1.53605
-2.44382 6.60519 -4.37487
2.11022 4.69878 -2.48883
-2.72995 6.52813 -4.06128
-2.46115 6.16193 -0.255935
-1.35266 5.13073 0.0205674
0.618752 6.9019 -3.76749
2.0434 5.14633 -3.89541
0.268815 6.98606 -4.28077
1.71053 5.08191 -4.057
3.16588 6.28464 -1.04554
0.206034 4.98739 -4.04262
-1.4017 7.11441 -3.47399
-3.03368 6.50829 -2.09171
1.92861 7.23203 -3.88042
-0.121637 5.06087 0.447055
-1.3888 4.9354 -4.25078
2.18255 6.95213 -3.88447
2.39142 6.25907 -4.18446
1.75453 4.88306 -0.086127
-0.184636 6.96877 -3.49747
2.91707 6.39285 -0.581065
1.83286 4.97699 -1.99191
1.66655 7.10205 -0.984501
2.81758 6.6884 -1.87392
2.92043 5.45945 -1.81536
1.40986 6.78668 -2.92449
0.560451 5.15529 -5.2915
0.601228 7.02127 -5.08377
0.524568 5.38542 -3.42412
-1.74014 7.27144 -2.75023
2.45733 7.04352 -2.93058
2.85184 5.63369 -4.0064
0.903967 5.11856 -4.90852
-2.06113 7.31395 -1.98648
-3.07875 6.38277 -1.68782
-1.87333 7.02061 -3.46648
1.44049 5.6462 -5.09284
-2.5946 5.01958 -2.1626
0.622257 6.12256 -3.15648
-0.885554 5.69413 -2.47308
0.96024 5.21097 -1.17787
1.62418 6.84777 0.030606
1.45959 6.02059 -4.99239
1.82928 4.90494 -1.17469
-0.219229 6.74562 -1.14669
1.01239 5.01711 -0.482043
-2.50628 6.93364 -2.52749
2.42861 7.02973 -1.99159
1.57622 5.02557 -2.76557
-1.4136 5.01303 -0.363092
0.650537 5.38126 -1.44438
-0.19257 6.59855 0.800207
-1.17556 6.34499 -2.1412
1.3421 5.1657 -4.73348
-0.545609 4.98519 -4.74813
1.07382 6.45484 -1.4957
2.89991 6.4925 -2.96332
-1.6047 6.8723 -4.55011
2.34608 5.67864 -0.286888
0.208257 6.94212 -3.80674
-1.97765 6.89209 -3.89636
0.675001 6.5645 0.811136
2.7065 5.99427 -4.01319
-1.94967 6.91984 -0.29055
-1.85537 4.8798 -0.996403
-1.74027 6.28203 0.287133
0.586596 6.91265 0.760947
0.6992 6.79379 -3.42214
-0.153924 6.3098 -5.32744
-3.16658 5.72573 -1.84548
1.18643 5.6037 -2.31186
2.18892 5.05768 -0.515874
2.39389 5.37028 -0.575319
0.288833 7.01727 -4.74435
1.04506 7.07138 -4.37243
1.11151 5.85853 0.647807
2.03543 6.7488 -0.0518925
0.757212 6.26805 -1.26124
-2.13974 4.87079 -1.35563
-2.89308 5.57352 -0.999283
2.95158 6.54464 -2.51457
1.73713 5.21856 -4.53187
-1.54809 6.9471 -2.60398
-1.61365 7.00344 -3.77009
0.183786 5.10956 0.817849
-2.62854 6.68316 -3.68138
3.0239 5.54726 -2.95925
-2.74428 6.14656 -3.93206
1.81385 5.44669 0.135073
0.311747 5.01127 -0.0980778
1.54667 5.23608 0.276633
1.96149 4.87216 -1.60833
2.91788 6.09219 -3.6124
1.07147 6.15619 -5.12294
-2.51079 6.48304 -0.627993
2.82329 5.67818 -1.02381
-0.191237 5.0815 -3.45784
1.41141 5.09493 -1.17329
0.287735 5.96435 0.851749
3.20681 5.80078 -3.35079
1.70924 6.71682 0.472199
-1.22521 7.17467 0.187387
0.908488 5.20531 -3.3225
-2.97525 6.44188 -3.70587
-1.71389 7.00863 -2.18917
1.61928 6.86166 -2.5724
-0.847692 7.00434 -4.15868
-0.553543 5.02992 0.0299434
0.594561 4.99674 -4.26012
0.365668 5.62809 -1.13932
1.08664 5.4825 -3.01097
2.9201 6.03319 -0.798543
0.880022 7.12605 -1.00518
2.04977 5.27572 -0.176242
-0.984845 5.0546 -3.76436
1.71656 5.35647 -4.98708
-0.499045 7.02701 -3.87007
0.396176 5.83541 -3.37467
2.56962 6.83947 -1.57504
-2.78129 6.57701 -1.32399
-2.17183 7.10764 -2.73066
0.313999 5.53456 -5.34061
-0.0250502 6.57976 -3.41763
2.09885 6.20083 0.184926
1.79827 4.94411 -2.40603
-1.95181 4.90388 -3.07319
2.29954 4.72219 -1.67235
-1.40221 6.4308 -5.06286
0.61041 5.0498 -4.65413
-1.52901 4.88837 -0.729291
0.201382 5.01507 -4.50428
1.76805 6.23429 -4.7476
-3.36877 6.16367 -2.5304
2.88637 6.52193 -0.946538
0.191136 4.99402 -3.55634
2.07481 5.44077 -4.78747
-1.48809 6.8939 0.178188
0.434336 5.20243 -1.18374
1.77486 7.03638 -2.20104
2.29323 4.93831 -2.87892
0.783711 5.67333 -3.20818
-0.157248 7.01647 0.710266
-0.0171963 6.7743 -5.3032
-2.06764 6.3461 -0.000149547
-0.479868 6.97162 -4.81984
-1.34665 6.17067 0.549432
1.18215 5.48036 -1.9306
-2.34651 6.75188 -4.00335
0.655253 6.18867 0.803111
0.968369 5.23943 -5.25214
-1.37076 5.00988 -3.7344
-0.706587 5.62216 -1.18048
-2.5456 6.78822 -3.27753
0.0812889 6.96472 -0.498954
0.448175 6.58369 -1.05841
0.166971 5.06644 -0.9931
3.15724 5.65503 -2.55254
-1.36521 6.90611 -1.13658
2.47817 4.91117 -2.04667
-0.662838 6.73926 0.667272
1.06816 6.17824 -1.91418
2.29697 6.72216 -0.389647
-1.91415 5.39875 -4.53247
0.704357 4.9786 0.194965
-0.635405 6.14499 -5.27885
0.790535 5.57162 -1.71921
-2.24988 4.77861 -3.57783
1.3521 4.91731 -3.80114
-2.11514 5.20971 -4.23767
-3.01078 5.56996 -2.51065
2.19924 7.29618 -2.73605
1.08357 4.94596 -0.0555835
-2.4621 6.96028 -1.40908
-0.53231 5.10745 0.467036
-1.20315 6.95688 -4.35951
0.0393743 5.60461 0.88437
2.3939 6.10664 -0.101439
-2.30634 4.6962 -2.42264
1.20391 5.37131 0.528419
1.75392 6.32735 0.438342
-3.21083 5.80674 -2.25756
-1.029 4.97833 -5.00626
0.132971 5.10345 -5.30417
-3.00698 5.82234 -0.688505
-2.94829 6.0648 -3.55857
-1.74285 5.16137 -0.215377
-2.82376 5.71256 -3.44596
-2.22062 6.87945 -0.641368
-2.78794 5.25804 -2.55686
-1.13745 6.13218 -5.13962
-1.0324 7.12168 -3.30108
1.6267 4.73042 -3.12467
0.909477 6.01913 -1.59826
-0.991785 6.65916 -1.33226
-2.6735 5.18713 -1.7696
-0.923657 7.06969 -3.70444
1.90224 7.11688 -2.59141
-2.87439 6.60029 -3.31465
2.65943 5.23226 -2.9225
-1.89543 5.89804 -4.6877
-0.270147 6.89221 -0.711856
1.5991 6.9667 -1.83636
3.17616 6.25545 -2.69418
-2.57072 5.41748 -3.66102
-0.377147 6.90893 -5.25442
1.09775 6.88828 -3.56071
2.10356 4.76409 -0.81669
0.633941 5.92766 -5.27509
-1.62417 5.62196 -4.82163
-0.489396 6.99429 -4.35525
2.63885 6.71639 -1.17667
-0.314966 4.95886 -0.387611
0.436208 5.48673 0.824721
0.895515 4.99827 0.570494
-1.19468 4.75105 -0.961539
-1.00397 6.45251 0.612066
-1.69195 4.9067 -3.89909
3.40664 6.05693 -2.24191
-3.07281 5.66388 -1.38456
-3.17496 6.34035 -3.30231
2.73801 6.77977 -2.24981
0.86478 5.79296 -2.02299
2.49068 4.99431 -2.495
-0.844234 4.805 -0.866414
-0.197661 5.0056 -4.38495
2.26067 6.61294 -4.07643
-1.79952 6.68655 0.0302964
-1.63574 5.23525 -4.72966
2.59681 6.3683 -3.8211
1.38949 6.73072 0.63793
1.4382 4.91437 -0.375979
-0.396339 5.99938 -3.35419
-2.00394 6.81263 -4.31588
-2.44119 5.45914 -0.292822
-0.666249 5.0127 -5.15347
-1.755 7.03626 -1.7656
-0.869842 7.12435 0.429698
3.08015 6.1729 -3.174
-0.704242 4.92402 -0.425408
0.926135 7.0536 -4.94985
0.85499 6.93139 0.388285
0.52403 7.02746 -0.966188
-2.31523 7.11838 -2.24735
-0.568462 5.70964 -5.27504
0.992306 4.95233 -4.01529
-2.4253 5.8999 -4.19349
-1.30301 5.30777 -4.96751
0.665433 5.82194 -1.33897
1.89491 4.70548 -2.82299
2.13918 7.29929 -2.30694
-1.04252 6.86772 -0.907058
0.990934 6.96401 -0.0770912
-1.39751 7.07193 -0.679185
-0.202956 6.98485 -0.182361
2.05091 6.62696 0.297527
-1.96861 5.92993 0.301434
-1.04018 5.73846 -1.77428
1.96275 7.09444 -1.24393
0.323381 6.32287 -3.32225
-0.992101 6.99832 -0.488017
2.63015 5.70596 -0.649727
0.84472 5.42408 0.698693
-1.56766 6.76763 -4.97573
0.123859 6.90971 -0.995949
-0.981681 4.96115 -4.56403
-1.25475 5.38168 -2.57838
-1.23377 6.90742 -4.75904
0.569441 4.93491 -3.53797
1.06197 5.72402 -5.203
-2.10919 7.31428 -1.57764
1.43112 6.91928 -3.30676
-2.63996 5.77816 -3.83774
1.93984 6.82536 -4.31435
0.506573 6.64514 -3.13798
1.4818 4.88338 0.124775
-1.83202 6.33797 -4.82621
1.52645 7.13347 -4.51564
3.39281 5.9643 -2.58375
-1.16719 6.82004 -5.13068
1.92347 4.80815 -0.412276
1.35792 6.85758 -1.55091
1.32454 6.59715 -2.5308
1.47806 6.70477 -2.17092
-0.351285 5.62094 0.892807
-0.331217 5.54266 -3.34629
-0.107714 5.01747 0.0159184
-0.705175 6.70168 -3.31999
-0.568913 6.97977 -0.312226
-1.04967 6.32557 -2.91182
2.21301 7.08385 -1.59992
-1.7432 4.90839 -1.72044
2.64044 5.38873 -3.6615
-3.36598 6.06754 -1.83273
-0.786734 5.21244 -1.05012
-1.96336 4.91785 -2.634
1.65963 4.91122 -0.769165
-1.22617 5.35805 0.756468
3.0431 5.7156 -3.70495
-1.13387 5.61045 -2.16433
1.42271 6.17809 0.568009
-3.16997 5.87328 -2.73643
-3.06228 6.24542 -1.28348
2.82861 5.32913 -2.58939
2.23843 4.7347 -1.24166
-0.495943 5.35229 -5.2741
1.85963 6.86897 -0.363423
-1.73411 7.07844 -1.36731
-0.642547 6.74731 -1.05811
-2.67355 5.49928 -0.643996
-1.59935 5.1504 -1.95657
-1.45089 6.70942 -1.91373
0.0700185 4.99637 -0.470724
-1.40098 5.36378 -2.17299
-2.0928 5.33187 -0.128521
2.64583 5.12358 -1.72005
-1.89043 6.72688 -4.79288
-2.26162 5.98532 0.0559263
-1.40589 6.78889 -1.523
-0.119498 7.02927 0.275591
-3.30538 5.97732 -1.46373
0.350427 5.05478 -4.94386
-2.67763 6.82564 -2.12834
2.10119 7.25294 -3.54578
1.20227 4.94134 0.375913
2.52983 5.05339 -1.34164
0.109155 5.40249 -3.45359
2.98751 5.48503 -2.2323
-1.85872 4.89986 -3.5013
-0.931679 6.47402 -5.22762
-1.60932 6.92817 -4.16104
0.411738 6.1156 -1.10334
-1.95595 5.51732 0.429437
-1.7084 4.90768 -4.5205
1.28114 5.0905 -3.09786
2.73114 5.20139 -2.16573
2.09684 5.28545 -4.31271
-1.10818 6.48919 -1.72963
1.29806 6.54147 -1.85302
2.77916 6.43004 -3.41302
1.06908 6.34872 0.718433
-2.36282 5.50398 -4.06519
-0.66387 5.73985 -3.14746
2.06416 6.37367 -4.44941
2.08375 6.90086 -0.783348
3.38266 6.11898 -1.839
1.33953 5.36782 -2.69028
0.898205 7.04476 -0.541939
-0.694859 6.36242 -1.61013
0.200876 6.93436 0.785656
0.184085 5.92699 -5.32982
1.55635 7.24375 -1.38765
2.46906 6.71119 -3.64477
-0.88283 5.9369 -2.15841
-2.39368 4.91681 -1.74517
-2.33688 4.74588 -3.20859
1.74545 4.92606 -3.57927
2.81718 5.45098 -1.39677
0.291642 6.99453 0.412571
3.12691 5.78725 -1.62323
3.29906 6.20617 -1.43148
2.40786 5.93385 -4.37713
-1.29942 5.404 -1.7464
-0.82306 5.64558 0.840021
-3.05921 5.90673 -3.14404
2.421 5.35388 -4.01832
-0.0853009 6.99181 -4.95662
2.03726 4.91193 -3.23664
-1.58611 7.19678 -0.111935
0.00220817 5.45615 -1.00633
0.235043 6.83408 -3.37522
-2.59841 6.82053 -2.8877
1.07328 5.74882 -2.65656
-1.38499 4.93103 -4.77001
1.22778 5.05234 -0.81429
-1.83278 7.14445 -3.10723
-1.77054 7.2575 -0.454857
-0.977207 5.0273 -0.110361
2.10287 5.92803 -4.63561
-0.817679 6.14642 -1.87994
-0.894245 7.08908 -0.049853
2.17066 7.28174 -3.13999
-0.558535 5.04196 -3.85243
-0.263868 5.04787 -5.24673
-2.10348 4.81753 -3.93401
-0.556634 6.35365 0.769458
-1.64497 5.14981 -2.43537
2.65852 6.05193 -0.419195
-0.39453 5.32084 -0.974286
-0.493742 4.87331 -0.832338
0.585953 6.97341 0.138153
1.34644 6.80021 -4.82891
3.05934 5.89128 -1.23477
0.428458 5.04877 -0.630283
1.69778 6.6649 -4.62586
-1.59222 5.1226 -2.85931
1.78912 7.05391 -2.9909
1.27326 6.88277 0.252581
-2.28907 7.0317 -1.02555
-2.23573 4.68739 -2.07407
-1.75135 5.29664 0.181335
-2.62791 5.0886 -2.96886
-0.500723 7.0741 0.593794
-2.53916 5.69212 -0.0430788
-1.91212 4.91158 -2.16471
1.78363 5.90732 0.309378
1.1061 6.86874 -1.28221
3.32788 5.88663 -2.96096
-1.97729 7.26716 -0.772206
-0.850775 6.95628 -4.67873
0.706068 6.31025 -5.21348
0.955892 4.82524 -3.51911
-2.50117 6.25156 -4.26806
-2.17696 6.63607 -4.61935
-1.14819 5.07285 -1.19069
-1.09933 4.89232 -0.546047
0.821033 6.24641 -2.59709
-0.936882 6.06375 0.730568
2.46682 7.05674 -2.44883
0.200509 6.99005 -0.0535548
-1.27122 5.71236 -5.03904
0.60119 4.92898 -3.86927
-1.60896 5.43766 0.614105
-2.45389 5.10534 -1.35952
-2.34242 5.13095 -3.84446
3.20819 5.76212 -2.06527
-0.597972 5.00317 -4.28791
-2.73038 5.39277 -3.25028
-0.528797 5.96463 0.835784
2.53107 6.6857 -0.72571
-0.566151 6.07642 -1.27781
0.80544 6.68108 -1.16095
-0.0998079 5.01324 -4.85308
1.26039 7.20108 -1.15771
0.582152 6.99703 -0.258024
-0.520429 7.0613 0.147559
-3.29586 6.26915 -2.92636
-0.998802 4.99875 -4.13278
-1.68238 7.13916 -0.95864
-2.15066 5.70887 -4.40777
1.20285 7.11284 -4.74207
-0.150151 4.96012 -0.875727
1.03386 6.98308 -3.93989
-1.0207 6.67386 -3.12139
-0.0969837 6.99337 -4.51035
-2.42185 7.05592 -1.82292
-2.35349 4.71699 -2.8336
2.69561 6.79541 -2.72157
-0.592763 7.04227 -3.45354
-0.906074 5.92909 -2.87424
-0.921268 5.82316 -5.18894
-0.742031 6.23541 -3.20435
-1.25035 5.75888 0.707413
2.3683 7.01321 -3.39557
-1.43079 7.21498 -3.07092
-0.919715 5.39316 -5.15472
0.268558 6.34047 -5.29914
-2.25807 5.56653 0.203347
-2.06861 7.30417 -1.1954
-2.9024 5.52433 -2.92417
-2.75438 6.71808 -1.72628
-0.890572 5.26436 0.806567
