0.218183 -0.602631 -0.921369
-0.114694 0.0355725 0.680141
0.31933 -0.413663 0.190111
0.618574 0.222451 -0.212822
-0.718727 0.103659 0.688741
0.0986733 0.282839 0.827677
0.184664 -0.0913001 0.262036
-0.405644 -0.560708 -0.089593
0.427944 0.370954 -0.726757
-0.467796 -0.413081 0.468259
0.535163 -0.217583 0.175297
-0.0569887 0.355599 -0.840745
-0.344395 -0.537489 -0.652913
0.542615 -0.617691 -0.356694
0.816795 -0.0843793 -0.902054
0.28935 0.1528 0.151844
-0.881568 -0.0385572 0.103682
-0.152852 -0.600901 -0.191194
-0.572338 0.212096 -0.120814
-0.724283 -0.00781559 -0.962288
-0.940855 -0.223881 0.344828
-0.729237 -0.0819798 0.603403
-0.719158 -0.196912 -0.596574
-0.0621897 -0.664267 -0.228149
0.413102 -0.69913 -0.457548
-0.729549 -0.129257 -0.587948
0.100257 0.370628 0.880161
-0.0615706 -0.518892 0.0196852
0.141838 0.414567 -0.186965
-0.62588 -0.107954 -0.812979
-0.862905 0.0281867 -0.145961
0.92825 -0.036235 -0.544942
0.785266 -0.316326 -0.578326
-0.62125 -0.0307769 0.587163
-0.337611 0.0852735 0.743031
0.653395 0.151258 -0.0861958
-0.605652 0.625822 0.835597
-0.329838 -0.228292 0.243125
0.0704085 0.435502 -0.680867
0.104777 -0.572437 -0.0621686
0.668909 0.218259 -0.273011
-0.199384 0.261996 -0.697124
0.593828 0.199343 -0.090957
0.245708 -0.429488 0.182661
0.679589 0.210225 -0.406562
-0.167667 0.0408608 -0.929316
0.244062 -0.557631 -0.00913103
-0.415315 -0.568833 -0.466692
0.0592954 -0.650992 -0.973066
0.471306 -0.271759 0.201325
-0.603557 0.566038 0.662676
0.784053 0.0999 -0.7121
0.578045 -0.553784 -0.64594
0.0539993 0.14959 0.671026
-0.921059 -0.337156 -0.259321
0.530945 -0.448169 -0.92389
-0.823048 -0.230769 0.598436
-0.579695 0.762163 0.850216
-0.713814 0.564164 0.764389
0.803332 0.0711179 -0.654508
-0.828844 0.00661793 0.117232
-0.68977 0.0648286 0.352236
0.405657 0.382815 -0.310918
0.068665 0.285565 -0.0461524
-0.0677387 0.232798 0.0265159
-0.26515 0.241331 -0.797544
-0.101707 -0.710319 -0.9585
-0.352393 -0.108999 0.489643
-0.236668 0.28898 -0.188057
0.397688 0.344101 -0.784512
-0.191881 -0.569473 -0.116732
0.957641 -0.0204443 -0.607697
-0.368756 -0.445487 0.0838005
0.720826 -0.440357 -0.452329
0.355241 -0.458383 0.140759
-0.493356 0.245947 -0.369418
-0.0419414 -0.698421 -0.955185
-0.45104 -0.224602 -0.771292
-0.889453 -0.111936 -0.391846
-0.80204 -0.549016 0.00426373
0.824592 -0.160471 -0.89926
-0.394113 0.0567157 0.608121
0.910364 0.0309329 -0.726425
-0.936611 -0.157456 -0.186983
0.0175379 0.255751 0.999696
-0.44981 -0.471443 0.0848491
-0.200842 0.163734 0.822443
0.740407 0.111999 -0.493404
-0.27101 -0.10198 0.24147
0.0422095 0.238298 0.852136
0.744393 0.0550329 -0.631448
-0.71284 -0.546344 0.526772
-0.255524 0.187681 -0.561977
0.437975 -0.0403666 0.219415
-0.637651 -0.168007 -0.847318
-0.601523 -0.33557 -0.894311
-0.851336 -0.038788 0.371721
-0.549844 0.246102 -0.312308
0.49016 -0.334367 0.172622
0.774549 0.0188746 -0.586008
0.365904 -0.0252073 0.242651
0.146001 -0.558635 0.00351736
0.806108 -0.074936 -0.267466
-0.612168 -0.578702 -0.11733
0.732479 -0.353059 -0.143916
-0.390472 0.0240057 0.739617
0.279667 0.120524 -0.943219
0.0965952 -0.740917 -0.267649
0.013819 -0.662957 -0.728636
0.529164 0.0977555 -0.884171
-0.0732234 -0.582799 -0.680162
-0.411014 -0.0609658 0.441793
-0.728113 0.114718 -0.446421
-0.893463 -0.351988 0.0399197
0.579926 0.103455 -0.84578
0.0893348 0.19627 0.708611
-0.945039 -0.112686 0.212524
0.457389 -0.388999 0.151711
-0.951975 -0.292935 0.326998
0.359103 0.156389 0.141413
0.645691 -0.483397 -0.160378
0.315699 -0.724405 -0.5255
-0.510382 -0.46639 -0.577427
0.180347 -0.171977 0.265713
-0.542236 -0.359072 -0.979611
0.395512 0.248175 -0.966125
-0.105367 -0.610073 -0.477764
0.758469 0.0509189 -0.213099
-0.247957 -0.0499268 0.771371
-0.679131 0.166996 -0.433352
-0.791037 -0.104198 0.584569
0.0732285 -0.581737 -0.129379
-0.219607 0.170452 0.749833
-0.857805 0.00941599 -0.354957
-0.194784 -0.566368 -0.318992
-0.635389 -0.639053 0.337367
-0.0489144 -0.481953 0.07126
-0.0253285 0.132663 0.733161
-0.483428 0.1815 0.0664508
-0.617137 -0.39642 -0.860293
-0.0301895 -0.00613338 -0.932531
0.308715 -0.685307 -0.709372
-0.386822 0.186098 -0.856701
0.378347 0.0839313 0.182855
-0.286952 0.235843 -0.40262
-0.730184 -0.546381 -0.154197
0.131969 -0.410937 0.191158
-0.0937 0.127559 0.130297
0.660184 -0.49378 -0.5619
-0.775026 -0.164606 0.602633
-0.590233 0.579064 0.758119
0.903436 -0.341693 -0.724274
-0.938674 -0.288515 0.0508224
0.42549 -0.614738 -0.748119
0.361553 -0.512506 -0.996095
0.396044 0.249269 -0.0644763
-0.0493833 0.214489 -0.933093
0.740388 -0.382526 -0.583213
0.732432 -0.419412 -0.267905
-0.595125 -0.387661 -0.59848
-0.810724 -0.472189 -0.360772
-0.509806 -0.57218 -0.0732794
-0.380121 -0.392648 0.226276
0.215957 0.397369 -0.738573
0.369381 0.298453 -0.921688
0.384177 0.236735 0.0134596
-0.467299 -0.580278 -0.123238
-0.824474 0.0342067 -0.412757
0.512549 0.31423 -0.277635
0.773633 -0.205463 -0.919788
0.948455 -0.287623 -0.700166
-0.0791056 -0.717278 -0.339148
-0.652365 -0.39572 0.60199
-0.251241 0.0591913 0.198171
-0.574727 0.220656 0.624703
0.0234524 -0.738344 -0.267564
-0.185289 0.0503551 0.171153
0.733643 0.0713753 -0.151952
0.472804 -0.644774 -0.335952
-0.891373 -0.293631 -0.00590859
0.13047 0.448242 -0.640221
0.911509 -0.210704 -0.508877
-0.609866 0.194791 -0.059066
-0.247875 -0.606173 -0.970766
-0.933761 -0.231427 0.44282
-0.640951 0.0791032 0.225297
0.197212 0.446802 -0.600168
-0.620238 -0.528357 0.0147142
-0.130745 0.0301599 0.586348
-0.427835 -0.600374 -0.22937
-0.29003 -0.0793125 0.727813
-0.705333 0.0689333 -0.496254
-0.252886 -0.185143 -0.985094
0.0817415 0.211513 0.0612203
0.747282 0.130823 -0.33045
0.254863 -0.161115 -0.997346
-0.811326 0.00994471 0.343016
-0.646835 0.720359 0.72477
-0.107458 0.0818782 -0.9291
0.243147 -0.138406 0.269474
-0.530067 0.00131179 -0.699885
-0.649008 0.732647 0.869145
0.587301 0.220585 -0.718056
-0.373344 0.328193 -0.970827
0.332514 -0.660586 -0.782298
0.647197 -0.539881 -0.294535
-0.846367 -0.0836298 -0.453573
-0.112011 -0.47064 0.0472379
-0.875215 -0.35044 -0.0346926
0.66569 -0.490969 -0.631858
0.686398 -0.367824 -0.878291
-0.537578 -0.145346 0.610678
0.626346 -0.549367 -0.448091
-0.91785 -0.091892 -0.20731
-0.445719 0.0947034 0.185731
-0.343264 -0.341764 0.177018
-0.0192693 0.497717 -0.460235
-0.565029 -0.498092 -0.808119
-0.760247 -0.540502 -0.220974
-0.492485 -0.205759 0.599874
0.752672 -0.0634967 -0.930872
-0.099621 -0.553576 -0.611859
0.321003 0.424607 -0.409004
-0.703538 -0.37135 -0.549301
-0.904286 -0.23402 0.0128429
-0.558271 -0.0309122 -0.641499
0.641862 -0.00844992 0.0605145
-0.253154 -0.609345 -0.902074
-0.691874 -0.117982 -0.848693
-0.959305 -0.474815 0.102408
0.0866193 0.338798 -0.869351
0.267631 0.251567 -0.992253
0.598158 0.158436 -0.034084
0.613366 -0.346687 0.07507
-0.318375 0.0819976 0.205157
0.468038 -0.620848 -0.635562
0.749746 0.102265 -0.40497
-0.264936 -0.0226712 0.230758
-0.921612 -0.289404 -0.0775925
-0.127394 0.394625 -0.673942
-0.59563 0.688387 0.874705
-0.450832 -0.616928 -0.319239
0.798126 -0.0150754 -0.319238
0.570617 -0.574211 -0.482695
-0.504932 0.0666714 -0.67206
0.117504 -0.620161 -0.834202
0.43386 0.371264 -0.446891
-0.805924 0.421817 0.762986
-0.772856 0.055029 -0.4657
-0.00150103 0.453866 -0.667066
-0.895605 -0.273472 0.573133
-0.926574 -0.494586 0.308025
0.628646 -0.197435 0.0935083
-0.588197 0.429528 0.626523
0.802473 -0.390059 -0.787986
-0.211675 0.309404 -0.262904
-0.275385 -0.533367 -0.687891
-0.641988 0.658371 0.914323
-0.0737658 -0.0544729 0.205481
0.736236 0.0176677 -0.101563
-0.170136 0.372114 -0.891318
0.700913 -0.265608 -0.0106893
-0.716034 -0.733268 0.15525
-0.75787 0.0383447 0.380837
-0.536109 -0.425177 -0.803304
-0.468381 -0.0633269 -0.985712
0.564213 -0.555245 -0.549502
-0.056967 0.152365 0.802211
0.0498762 0.24061 0.0173302
-0.396539 -0.176515 0.375043
0.724512 -0.0388141 -0.0506287
0.620863 -0.339073 -0.921094
-0.763174 0.204715 0.716979
-0.207768 0.375662 -0.493817
-0.697025 0.0758955 0.172851
0.50819 0.339194 -0.433083
0.874916 -0.201225 -0.863119
-0.723162 0.443784 0.598469
0.350992 -0.704811 -0.591882
0.0179804 -0.509037 0.0573032
-0.206084 -0.0686511 0.217485
0.0876095 0.120804 -0.926746
-0.362638 -0.587894 -0.222971
0.0528728 0.487534 -0.463511
-0.388081 -0.0707105 0.295547
0.669892 0.186746 -0.602317
0.0505989 -0.630163 -0.828876
-0.402853 -0.436729 -0.977982
-0.844333 0.0151866 -0.0496889
-0.759307 0.225105 0.538817
-0.454082 0.100305 -0.816143
0.120962 0.181693 0.110308
-0.608675 0.74188 0.915709
-0.21196 -0.520478 -0.635283
-0.82789 0.0563827 -0.101551
-0.520541 -0.434806 -0.976699
-0.330122 -0.108081 0.676776
-0.465515 -0.352071 0.56539
-0.899425 -0.428606 0.0565308
0.635083 0.205003 -0.668041
-0.0622589 0.298161 -0.10542
0.716232 0.161368 -0.271193
0.490484 -0.485401 -0.000561087
-0.361254 0.243527 -0.359317
0.201406 -0.656225 -0.80892
-0.34788 0.139709 -0.797728
0.253311 -0.0704968 0.264469
-0.491066 -0.545277 0.204213
0.321237 -0.0741328 0.26152
-0.692165 0.319009 0.795804
0.178308 -0.0467873 -0.94228
-0.902713 -0.190682 -0.376479
0.349467 -0.721202 -0.328209
-0.137048 -0.24905 0.192406
0.534284 0.227266 -0.827716
-0.70371 -0.149215 0.610438
-0.0148509 -0.0965304 0.226269
0.0237404 0.0935463 0.672707
0.313399 0.103295 0.1869
-0.3011 -0.0999444 0.552214
-0.00546903 0.282876 0.822128
-0.227466 -0.356888 -0.981749
-0.586147 0.652579 0.761948
0.355659 0.382672 -0.733472
-0.865193 -0.563943 0.0225238
-0.136112 -0.0146259 0.187014
0.692057 0.138254 -0.148002
0.249779 0.358553 -0.173562
-0.0427071 -0.374701 -0.935065
-0.148765 0.453064 -0.290592
0.201615 -0.699479 -0.188072
-0.299092 -0.0528854 0.50695
0.326122 0.391583 -0.661054
-0.664171 -0.581802 -0.335643
0.236477 0.432965 -0.541542
-0.111045 0.0581096 0.165425
-0.94635 -0.162066 0.0669716
0.560338 0.27188 -0.222974
-0.231034 -0.418156 0.116386
0.412107 -0.681866 -0.322697
-0.973595 -0.230532 0.275607
-0.681161 -0.53111 -0.427993
-0.686797 0.0272133 -0.545836
0.483276 -0.575659 -0.772176
-0.745242 0.212452 0.590535
-0.0586184 -0.609637 -0.620867
-0.806168 0.00192929 0.425337
0.359173 0.402905 -0.463386
-0.317664 0.178071 -0.548402
-0.850738 -0.483529 0.0202917
0.268899 -0.52497 -0.995154
0.372494 -0.289975 0.243244
-0.448023 0.162553 -0.517014
-0.943866 -0.284313 0.395542
-0.291851 -0.573455 -0.219458
-0.145723 -0.510599 -0.585862
-0.0646001 -0.667037 -0.498715
-0.440194 -0.041149 0.386601
-0.0426229 0.48789 -0.525291
-0.0718197 0.00588195 0.641716
-0.919509 -0.271851 -0.29499
0.0321692 -0.692059 -0.652478
-0.546509 -0.587429 -0.141355
0.375494 -0.701108 -0.39136
-0.887607 -0.119876 0.0127553
-0.0139487 0.192989 0.851157
-0.0174746 -0.22125 -0.9377
-0.812718 -0.672475 0.363042
-0.204622 -0.293755 0.193696
-0.250995 0.205019 -0.942051
-0.478034 0.204323 -0.44422
-0.469537 -0.409398 -0.623941
0.141555 0.42262 -0.705834
0.213853 -0.498279 0.115016
-0.0863947 -0.428716 0.109287
-0.318826 0.367232 -0.932293
-0.884922 -0.0699751 -0.344971
0.0967771 0.131915 0.155822
0.141357 0.299623 -0.126433
0.00124787 0.253289 -0.00778006
-0.652015 0.178644 -0.114855
-0.526298 -0.410575 0.583621
0.404284 -0.634846 -0.195843
0.280449 -0.233029 -0.9974
-0.240451 0.380764 -0.896467
0.242196 -0.596559 -0.865237
-0.407836 -0.0986186 0.367601
0.163368 -0.750336 -0.397992
-0.964957 -0.36138 0.290609
0.0145862 0.203116 -0.930995
-0.856461 -0.673682 0.309949
-0.67033 -0.646657 0.405537
0.205395 0.413782 -0.200115
0.00335615 -0.700371 -0.214818
-0.741903 0.390753 0.534356
0.43139 0.161635 0.101048
0.267376 -0.687664 -0.76874
-0.293973 -0.569759 -0.465126
-0.896911 -0.178756 0.00788576
-0.233955 0.00535451 -0.933974
-0.00349136 0.394938 -0.794097
0.214405 -0.409316 -0.932609
0.0564218 -0.656104 -0.166812
-0.500712 0.107357 -0.87009
-0.386817 0.260727 -0.170065
-0.844446 -0.159498 0.580344
-0.639927 0.0671348 0.416567
0.922085 -0.227996 -0.815342
-0.0452869 0.0647414 -0.929577
-0.746453 -0.22208 0.612673
0.568661 0.299441 -0.430555
0.809882 -0.240496 -0.454771
-0.612631 0.0155519 -0.982887
0.553241 0.0932402 0.0768717
-0.869101 -0.0685858 0.042703
0.651817 0.0953436 -0.855203
-0.886745 -0.353166 0.564271
0.72789 -0.309414 -0.0768195
-0.440355 -0.192197 -0.972983
-0.682283 0.0419375 -0.973978
-0.064787 -0.704651 -0.880906
0.27026 -0.201144 0.270385
-0.231223 0.115444 0.135368
-0.682596 -0.0269599 0.623935
-0.352323 -0.567003 -0.503271
0.400923 0.292054 -0.117411
-0.611993 -0.537445 -0.469253
-0.0962175 0.4922 -0.474156
0.118582 -0.310995 -0.9377
-0.898643 -0.0244556 -0.173829
0.551898 0.147749 0.0191972
-0.607137 -0.108883 -0.643452
-0.691955 -0.53911 -0.0872622
0.806251 -0.347006 -0.838767
0.647112 0.105707 -0.782179
-0.26173 -0.251383 0.223151
-0.627253 0.5609 0.829509
-0.253137 0.155963 -0.626267
-0.4509 0.111399 -0.672494
0.790623 -0.304496 -0.459739
-0.935125 -0.378562 0.501718
0.0410867 0.320192 0.974532
-0.66923 0.00892842 -0.862498
0.98783 -0.215866 -0.599916
0.31306 -0.337665 0.239352
-0.454152 -0.236284 -0.708413
0.513518 -0.513912 -0.80032
-0.476921 -0.41367 0.54327
0.272521 0.423332 -0.59984
0.217844 -0.729257 -0.648175
0.101166 -0.18609 0.255014
-0.880433 -0.397941 -0.278204
0.472589 0.332186 -0.762743
-0.568837 0.0987569 -0.907813
0.579323 -0.502459 -0.748373
-0.427483 -0.00642002 0.487051
-0.0770566 0.464675 -0.580053
0.277727 0.186486 -0.978255
-0.179176 0.217912 -0.927321
0.0234686 0.0580757 -0.928698
0.526906 0.288646 -0.715248
-0.963505 -0.226696 0.0681373
0.128761 0.381223 -0.829403
0.434029 -0.563 -0.898076
-0.569579 0.100848 -0.973991
-0.474337 -0.464955 0.325142
0.962338 -0.282461 -0.627047
-0.771351 0.36571 0.794597
0.696237 -0.375996 -0.0900425
-0.607384 0.00724921 -0.828086
-0.0702281 0.496495 -0.400016
-0.472139 -0.258828 -0.828911
-0.51169 -0.0851874 0.641029
-0.205646 0.42063 -0.430104
-0.170369 -0.339515 -0.941402
-0.323561 0.194302 -0.979989
0.485446 0.00129602 0.180245
0.823485 -0.132399 -0.498063
-0.177728 0.381507 -0.254526
-0.450403 -0.426436 -0.693233
-0.316853 0.207956 -0.477896
-0.655217 -0.444322 -0.959602
0.756179 0.099692 -0.268859
-0.491475 -0.345416 -0.806435
-0.183329 -0.49021 0.0150312
-0.704215 0.243321 0.765015
-0.732186 0.356917 0.596411
0.16462 -0.739103 -0.539885
-0.749565 0.0388078 0.460084
-0.080908 0.346604 -0.969504
-0.883618 -0.145646 0.525757
0.455071 0.361672 -0.381485
0.0456264 -0.282058 -0.937774
-0.646113 -0.601348 -0.269218
-0.796736 -0.694586 0.16534
-0.1928 -0.408087 -0.939609
-0.411311 0.197073 -0.458718
-0.808817 0.485589 0.808373
0.668621 -0.154332 0.0466457
0.84528 0.0852494 -0.730406
-0.791112 -0.730529 0.233643
0.165559 -0.462315 -0.936065
-0.524497 0.176079 -0.493217
-0.916798 -0.16004 -0.0578591
-0.143367 0.193196 0.0542148
-0.716726 0.282786 0.503725
-0.149956 -0.39689 0.11923
-0.842171 -0.0923847 0.544855
-0.909492 -0.136698 -0.326449
0.15107 0.404232 -0.769168
-0.681467 0.100002 0.045497
-0.736756 0.613827 0.857573
0.131129 0.455846 -0.241443
-0.00307306 -0.0769492 -0.933992
-0.10793 0.105052 0.842447
0.33128 0.358147 -0.812686
0.453454 0.0604102 0.166485
-0.577227 -0.6315 0.131827
-0.657669 0.125914 -0.489469
-0.669938 -0.574184 -0.149625
-0.382465 0.261125 -0.875456
-0.309903 -0.400479 0.131635
0.0513667 -0.56871 -0.982248
0.308291 0.418589 -0.534407
-0.827544 0.0696765 -0.339234
0.417457 -0.237635 0.236744
0.415594 -0.639793 -0.675282
0.223026 -0.0837509 -0.9931
-0.587753 0.37038 0.587885
-0.721101 -0.0395728 -0.886948
-0.124917 0.362851 -0.739896
-0.206131 0.217786 0.0158601
0.663781 -0.30603 0.036854
0.154203 0.0406308 -0.929453
0.342577 -0.568777 -0.982968
-0.661707 -0.491592 0.563672
-0.595004 0.717234 0.714301
-0.526297 -0.129244 -0.735257
0.652556 0.24841 -0.348359
-0.599293 0.0407761 0.574569
-0.225002 -0.592521 -0.250863
-0.606978 0.448417 0.762729
0.285216 -0.742707 -0.346385
-0.548613 0.16268 0.0660006
0.440281 -0.162072 0.229658
-0.859858 -0.154715 -0.4372
0.863312 -0.33373 -0.794168
0.21625 -0.735858 -0.585992
0.0455732 0.172677 0.111489
0.808438 -0.211486 -0.38343
-0.788219 0.105271 -0.122247
-0.681067 -0.496558 -0.481549
0.801434 -0.275507 -0.385594
0.424078 -0.447196 0.118222
-0.775355 0.0248514 0.0721388
-0.219264 -0.597042 -0.836374
-0.109358 0.222554 -0.933262
-0.495137 0.139895 0.12295
-0.168698 0.443 -0.484026
0.397303 -0.406828 0.1779
-0.925781 -0.0844736 -0.28136
0.468097 0.368014 -0.563419
-0.575009 0.365935 0.660971
-0.579758 -0.534123 0.385732
-0.648943 0.0831376 0.108959
-0.81943 -0.134122 -0.495395
0.445347 0.337026 -0.259289
-0.128178 -0.133928 -0.93667
-0.900564 -0.267511 -0.36847
0.401351 -0.609555 -0.122094
-0.786431 -0.503505 -0.153246
0.484866 -0.522425 -0.937371
0.0424715 -0.0136587 -0.932515
0.162336 -0.700039 -0.697643
-0.915026 -0.429247 0.379863
0.442614 -0.266374 -0.994331
-0.931067 -0.138427 -0.119244
-0.831084 -0.20181 -0.491118
-0.37356 -0.376951 -0.984869
-0.145551 -0.531026 -0.959448
0.179134 -0.606914 -0.851137
0.543021 0.162459 -0.843746
-0.780045 0.0901286 -0.394943
-0.888412 -0.334919 -0.324472
0.530059 0.199671 -0.0413504
-0.645253 0.551301 0.577481
-0.538046 -0.574862 0.162757
-0.700666 0.585846 0.588471
-0.106754 -0.659015 -0.289698
-0.858791 -0.408187 -0.0749612
0.420009 0.117507 0.145514
-0.544087 -0.267529 0.607516
-0.503944 -0.184963 -0.795206
-0.738803 0.27781 0.615294
-0.753081 0.0544518 0.307346
-0.390811 0.161856 -0.58062
0.53121 -0.372465 0.132901
-0.473554 -0.278072 0.582543
0.124744 -0.752151 -0.468293
0.0636501 -0.750995 -0.330891
-0.679771 -0.521598 -0.0156985
-0.606439 -0.573295 -0.902062
-0.236506 0.346308 -0.43722
-0.505021 0.0877641 -0.600251
-0.106789 -0.605529 -0.226785
0.139482 0.481612 -0.368812
0.403114 -0.553347 -0.0642171
0.919132 -0.289472 -0.776322
-0.181555 -0.0235939 0.582526
-0.456819 -0.351935 0.490267
0.171188 0.143369 0.147379
-0.768203 0.0541934 0.146115
0.636608 -0.456192 -0.751076
0.809126 -0.084189 -0.343017
0.597357 0.130871 -0.794261
0.614441 -0.510254 -0.686312
-0.208851 -0.663319 -0.892631
-0.807837 -0.362882 0.590985
-0.196207 0.295928 -0.629919
0.404061 -0.320441 -0.994811
-0.570923 -0.0827681 0.593817
-0.325098 0.14816 -0.613503
0.654175 -0.439198 -0.100831
0.712876 -0.1912 -0.948651
0.222268 0.164963 -0.933414
-0.430331 0.208317 0.024837
0.313651 0.243474 0.0405007
0.628321 0.255277 -0.422534
-0.448732 -0.484322 0.245677
0.0722839 -0.0843598 -0.935106
0.376414 0.0365638 -0.996314
-0.192411 -0.358695 0.153344
-0.629652 0.374562 0.53076
0.136884 -0.487434 0.125397
-0.0739453 -0.0757061 -0.933899
0.339388 0.280493 -0.979452
-0.805942 -0.622371 0.0254785
-0.960235 -0.163822 0.281123
-0.827254 0.0876398 -0.183388
0.758613 -0.373896 -0.453368
-0.754061 0.306489 0.544033
-0.952605 -0.578136 0.219188
-0.856666 -0.517909 0.49004
0.492695 0.353358 -0.499029
0.670982 -0.228123 0.0405943
-0.0261327 0.236571 0.754113
-0.688217 -0.685658 0.338213
0.415101 0.311571 -0.194806
-0.38182 -0.569577 -0.844708
0.507083 -0.0656748 0.185769
-0.109239 -0.532785 -0.692633
0.013032 0.189907 0.787521
0.0792668 0.298394 0.896373
0.62893 0.159429 -0.729445
-0.0263719 -0.169528 0.227734
-0.621269 -0.515842 -0.865418
0.340708 0.407013 -0.334035
0.91409 -0.339285 -0.65132
0.55196 0.0485995 -0.944853
0.102177 -0.718346 -0.665159
0.739454 -0.263921 -0.921582
0.145821 -0.626503 -0.908299
0.657017 -0.0795053 0.0566072
-0.440476 -0.457053 -0.611368
0.639248 -0.375242 0.0218098
-0.513957 -0.542715 -0.804136
-0.901497 -0.0261646 -0.243461
-0.485672 0.00654553 0.370134
0.753946 -0.286513 -0.137826
-0.629669 0.200576 -0.163068
-0.577679 0.0329865 0.50818
-0.778158 0.159481 0.610465
-0.179761 -0.589648 -0.981416
-0.442279 -0.299003 0.437642
-0.380286 0.227009 -0.0208881
-0.472767 -0.0343421 0.668973
0.759286 -0.0535271 -0.111918
-0.132583 0.0511347 0.892794
0.410745 0.0216185 0.208348
0.425989 0.38699 -0.511436
0.532391 0.234498 -0.101051
-0.304718 0.117954 0.683304
-0.512002 0.0650733 -0.81019
0.703603 -0.113227 -0.957841
-0.574058 -0.178452 -0.829081
0.611587 0.110294 0.0159537
-0.753854 -0.507886 -0.087329
-0.506549 0.12687 -0.544278
0.686666 -0.0299623 0.00581633
0.803624 -0.222306 -0.315558
-0.495398 -0.237594 -0.983641
-0.0674153 0.249663 0.826506
-0.0702542 0.38408 -0.775693
-0.605141 0.166298 0.658531
0.500096 0.149625 0.0712267
-0.254027 -0.50417 -0.0113382
-0.299132 0.0213822 -0.957833
-0.226819 -0.570723 -0.378923
-0.368128 -0.209445 0.305229
-0.771968 0.140619 -0.182285
0.272302 -0.424605 -0.937707
-0.944304 -0.28644 -0.222096
-0.734567 -0.644051 0.433181
-0.883568 -0.0228145 -0.0964134
-0.193745 -0.532012 -0.0506994
-0.214537 0.193417 -0.760699
-0.749656 0.070244 0.0216876
0.770197 -0.341707 -0.517992
-0.648531 0.30583 0.500678
-0.630099 0.0652197 -0.883384
-0.536311 -0.51182 0.498894
-0.136841 0.232945 0.00761633
0.549127 -0.0249578 0.144207
0.817832 -0.0690514 -0.507227
0.148082 -0.731925 -0.230512
-0.82925 -0.578334 0.456379
0.18198 0.270215 -0.990118
0.0802776 0.191291 -0.930694
0.203328 -0.705886 -0.757606
-0.614373 -0.144234 0.604488
-0.918821 -0.504475 0.0471845
0.319615 0.361381 -0.199163
0.881218 -0.077531 -0.514297
-0.575203 -0.620979 -0.265879
-0.134903 0.208809 0.827756
0.0291295 0.103904 0.149281
-0.346184 0.0240913 0.786221
0.390474 -0.0962575 0.246887
-0.46787 -0.359369 -0.728017
-0.455924 -0.508128 0.0176742
0.585399 -0.243603 0.132576
0.698231 -0.104271 -1.67128e-05
0.236037 -0.746839 -0.403722
-0.125305 0.34751 -0.818409
-0.752802 0.51172 0.87418
0.270824 -0.556822 -0.0766761
0.440991 -0.681257 -0.395132
0.268485 0.375821 -0.789449
-0.259018 -0.371594 0.166785
-0.555749 -0.363662 -0.838646
-0.833855 -0.413236 -0.394505
-0.896011 -0.0229985 -0.309352
-0.254479 -0.534486 -0.81866
0.260905 -0.656116 -0.162144
-0.342096 0.255661 -0.123977
0.766512 0.000472801 -0.162462
-0.789175 -0.537416 0.516294
0.242142 -0.315221 0.249297
-0.338451 0.218641 -0.816259
-0.219134 0.173919 0.0826493
-0.636248 0.737593 0.796725
0.552825 -0.484195 -0.028861
-0.270971 0.206334 0.0451822
-0.455684 -0.474476 -0.9767
-0.0463616 0.277907 -0.0355545
0.556171 0.259788 -0.764305
-0.226717 0.380272 -0.377833
0.694759 -0.457262 -0.21096
0.114396 -0.635033 -0.973359
0.521936 -0.584302 -0.588708
-0.677044 0.199208 -0.293786
-0.418874 -0.317287 0.362341
0.177593 -0.314678 0.248912
-0.863809 -0.678889 0.19711
-0.411914 -0.532258 -0.52363
-0.258133 0.223635 -0.496398
0.336482 -0.625509 -0.162029
0.249833 0.447164 -0.414002
-0.600379 -0.605071 -0.337249
-0.40212 -0.597144 -0.158262
-0.734256 -0.254558 -0.581853
-0.17085 0.0189001 0.85905
0.532529 -0.447749 0.0383119
-0.762805 -0.593091 0.482087
0.0611421 0.385451 -0.822378
0.0332671 0.338854 -0.918863
0.0989557 -0.75855 -0.389453
0.444481 0.212947 -0.924687
-0.775495 0.434628 0.822972
0.259268 0.262873 -0.00881545
0.781595 -0.244867 -0.191551
0.0504797 -0.497962 -0.933155
-0.533249 -0.148407 -0.67398
-0.623205 -0.0397361 -0.623947
-0.290926 0.162964 0.100309
-0.138444 -0.461195 -0.930007
-0.0765019 0.270397 -0.988555
-0.442039 -0.096576 0.684529
-0.0294728 -0.398117 0.153502
-0.643655 -0.460146 -0.894071
0.0142823 0.427204 -0.733091
0.802938 -0.033556 -0.391042
-0.183941 0.0823019 0.582984
0.612027 0.0597354 0.0540891
-0.414979 -0.00801321 -0.98438
-0.443934 -0.499047 0.16724
0.00279024 -0.542641 -0.000832137
-0.302337 0.069644 0.810282
-0.423104 0.256833 -0.321695
-0.608197 -0.696613 0.146665
0.870928 -0.118263 -0.867438
-0.60891 0.0811995 0.161264
-0.666673 -0.160145 -0.629729
0.44024 0.0634451 -0.980494
0.22649 0.079759 -0.928947
0.374221 -0.666355 -0.73021
0.58453 -0.554095 -0.202544
-0.744214 0.168822 -0.312256
-0.736368 -0.596133 0.00617847
-0.048797 -0.712924 -0.277201
-0.958163 -0.548644 0.097042
0.265265 -0.707963 -0.21629
-0.577942 0.161436 0.586954
0.796361 -0.12957 -0.215379
-0.773912 -0.185411 -0.541494
-0.92795 -0.0687867 0.154655
-0.61636 -0.562159 -0.963406
0.961366 -0.234334 -0.749589
-0.626616 -0.570484 -0.401831
-0.53628 0.0474505 0.335326
0.597643 -0.484318 -0.0974018
-0.6375 0.203559 0.718794
-0.63985 0.185453 0.470046
-0.510329 -0.509727 -0.976702
-0.283999 0.145865 -0.929962
-0.0175152 0.181573 0.678293
-0.689913 -0.699158 0.0631965
-0.676626 -0.326712 0.614196
-0.306107 0.0861046 -0.941103
0.799452 -0.0188458 -0.538231
-0.548687 -0.617437 -0.891614
-0.127164 0.117053 0.617097
0.658165 0.0421789 0.0104135
0.142807 -0.746119 -0.316569
-0.369789 0.0728567 0.679007
-0.308452 0.228666 -0.000970665
0.00454058 0.498037 -0.392119
-0.950619 -0.299849 0.466682
0.710859 0.0672384 -0.87951
-0.464986 0.0254705 0.305337
-0.0970823 -0.321274 -0.937667
-0.427693 0.143569 0.141975
-0.406377 0.252834 -0.0890192
0.489368 0.0855543 -0.93312
0.488369 0.343992 -0.692965
-0.864533 -0.641207 0.0571
-0.263033 -0.589968 -0.312278
-0.511821 -0.597845 -0.839752
-0.646704 0.392816 0.795691
-0.0400749 0.0866461 0.162121
0.167716 0.329338 -0.869325
0.869791 0.0458861 -0.783237
-0.604056 0.101207 0.618787
0.948682 -0.256551 -0.55404
0.331381 -0.186025 -0.991789
0.697512 0.0869698 -0.0965234
0.625352 -0.379717 -0.859959
-0.597089 -0.571411 0.320493
-0.402305 -0.0819848 -0.986777
-0.543185 -0.284518 -0.982766
-0.622815 -0.48742 -0.521887
0.316718 -0.142397 0.268276
-0.679337 0.153222 -0.063902
-0.599292 0.119149 0.465596
-0.6808 -0.0182864 -0.58916
0.201384 0.428176 -0.667358
-0.215595 0.190248 -0.688987
0.306109 -0.470689 -0.986531
-0.822794 -0.475056 0.540998
-0.648528 -0.391651 -0.924143
-0.130241 -0.0314625 0.638803
0.694279 -0.39417 -0.729511
-0.652181 0.201725 -0.227719
-0.21167 0.261696 -0.979681
-0.00126048 -0.62025 -0.791576
-0.699922 0.352728 0.507745
0.465358 -0.614374 -0.220607
0.253137 0.34119 -0.847621
0.0271284 0.495725 -0.31578
0.192798 -0.139539 -0.981977
-0.212702 0.153944 -0.9235
-0.38908 -0.490478 0.0361215
-0.99669 -0.307372 0.183604
-0.391912 -0.611677 -0.282821
0.427213 -0.510821 -0.00514152
0.111367 0.352176 0.821885
0.806078 -0.146151 -0.291946
-0.483937 -0.180937 -0.710109
-0.577743 -0.45608 -0.566843
-0.606044 -0.622781 0.270212
-0.224798 0.259804 -0.55969
0.530955 -0.599697 -0.214316
0.720735 0.103486 -0.81507
-0.000973373 -0.026617 0.215667
-0.00909168 0.288347 0.947439
-0.263916 0.0758962 0.567549
0.5205 0.271711 -0.156809
-0.155371 0.167518 0.879
-0.527082 -0.334908 0.597604
-0.246222 -0.019655 0.691723
-0.841662 -0.0605786 0.430368
-0.928099 -0.336613 -0.171146
0.595072 -0.56806 -0.332642
0.812866 -0.167356 -0.438308
0.368401 -0.441973 -0.994609
-0.526415 0.246888 -0.160546
-0.694286 -0.60311 0.478553
0.651303 -0.164295 -0.976004
0.678709 0.148254 -0.670205
-0.12604 -0.519059 -0.0152259
0.262255 -0.374879 0.220555
-0.683381 0.530421 0.862205
-0.926561 -0.0941673 0.279534
-0.418799 0.17488 0.085108
-0.0110312 -0.514488 -0.932197
-0.197689 0.375571 -0.967098
0.109021 0.333699 -0.927635
0.276738 0.431775 -0.287453
-0.58824 -0.509883 0.542835
-0.554541 -0.560729 0.257722
0.281785 -0.00623152 0.249818
-0.652937 -0.68357 0.269454
0.207682 0.441892 -0.26226
-0.58023 0.747893 0.779088
-0.205873 0.0203906 0.743681
0.385563 0.357178 -0.235226
-0.721581 0.178028 0.483391
-0.267857 -0.564506 -0.141947
-0.577194 0.181631 0.00478076
0.0471919 0.311079 -0.978753
-0.264873 -0.536342 -0.0793346
0.0794188 -0.650067 -0.894768
0.961371 -0.0215814 -0.680774
-0.645075 0.0305609 0.628413
-0.600139 -0.180958 -0.656477
0.239319 0.238515 0.0660907
0.527889 0.323917 -0.361964
-0.867534 -0.677684 0.125582
0.50992 -0.389301 -0.962723
0.672555 -0.50253 -0.449331
0.66845 0.0403802 -0.926803
-0.14722 -0.494215 -0.657303
-0.859751 -0.110937 0.470489
0.0394667 0.274745 0.763073
0.494331 0.187339 0.0162342
0.872555 0.0721271 -0.66989
-0.449648 -0.555033 -0.977996
-0.581307 0.694431 0.811677
0.361646 -0.575363 -0.922068
0.37207 0.410807 -0.534366
0.842447 -0.349058 -0.613835
-0.139531 -0.315806 0.16003
0.22965 0.110805 0.179291
0.692093 -0.472476 -0.508963
-0.581491 0.24046 0.562109
0.712343 0.125918 -0.61076
-0.629266 0.332032 0.762606
-0.616974 0.133988 0.0579085
-0.791046 -0.516657 -0.28361
-0.0646471 -0.642147 -0.984327
0.781623 0.0304726 -0.389894
0.439792 0.295042 -0.824506
-0.701896 0.673707 0.881807
-0.531382 -0.407042 -0.606952
-0.672531 0.126221 0.450484
-0.133021 -0.700861 -0.886189
0.516453 0.321572 -0.571117
-0.143656 0.260627 -0.979683
0.0263727 0.480373 -0.536308
-0.706165 0.0771953 0.255986
-0.914099 -0.0447292 0.232965
-0.669699 -0.642393 0.0323528
-0.779856 0.00294815 0.505373
0.411347 0.384922 -0.594403
-0.314859 0.128365 -0.680132
0.118369 -0.117252 0.255262
-0.58588 0.0533949 0.446779
-0.39689 -0.172372 0.512313
-0.158017 0.0603643 0.799024
0.792211 -0.27359 -0.258198
-0.441443 -0.398752 0.350501
0.219114 -0.581048 -0.122229
-0.0185795 0.32885 -0.971923
0.264309 -0.729627 -0.285466
0.551906 -0.0107056 -0.979493
-0.717475 0.459976 0.846824
0.747622 -0.171615 -0.0832716
-0.0736075 -0.215771 0.210628
-0.83754 -0.461222 -0.290278
-0.663913 -0.238 -0.629995
-0.82882 -0.26649 -0.478547
-0.662576 -0.726013 0.117926
-0.215581 -0.540037 -0.571388
-0.939239 -0.27252 -0.147332
-0.490265 -0.530559 0.122228
0.69565 -0.419313 -0.152052
0.0976685 -0.727654 -0.534928
-0.587981 0.176745 0.516249
-0.635119 0.07868 -0.5405
0.811049 -0.0925583 -0.430802
-0.610488 -0.0730605 -0.981968
0.681207 -0.30698 -0.928314
0.689298 -0.337972 -0.0239052
0.608247 0.264343 -0.492673
-0.659969 -0.200702 0.614435
-0.493277 -0.00723619 -0.9844
-0.477125 -0.015214 0.441545
-0.498798 0.057251 -0.743083
-0.572579 0.297568 0.623582
-0.43235 -0.23676 0.478124
-0.294381 0.124143 0.162492
-0.03955 0.353695 -0.908932
0.671247 -0.457907 -0.695161
-0.591261 -0.414552 -0.976489
-0.158982 0.197642 0.757001
-0.639881 0.266666 0.748058
-0.114585 -0.394377 -0.934225
-0.858704 -0.412331 0.5574
-0.427551 0.228641 -0.393532
0.41517 -0.670843 -0.599521
-0.177741 0.264547 -0.0424212
-0.915771 -0.0797682 -0.138472
0.741342 0.0889147 -0.561364
-0.678183 -0.0881776 -0.611064
-0.0728392 0.0708606 0.608716
-0.252744 0.116243 0.825677
-0.163874 -0.653291 -0.837691
-0.703109 -0.438859 0.586712
0.0695548 0.00524286 0.224892
0.787123 -0.0699076 -0.182496
-0.0600514 0.0165434 0.1906
-0.566217 0.0753388 0.215626
0.487759 0.102916 0.118743
0.33804 0.037663 0.223975
-0.88757 -0.40153 -0.146541
-0.733425 0.109552 0.477408
0.451519 0.221197 -0.0280128
-0.933338 -0.4243 0.31945
0.575236 0.27507 -0.566131
-0.280914 -0.576655 -0.397768
0.915112 -0.313789 -0.5859
-0.462344 -0.389694 -0.978
-0.547391 -0.517673 0.325105
0.644121 0.226314 -0.545937
-0.711918 0.527377 0.709177
0.995091 -0.157047 -0.655165
-0.729447 0.460524 0.538667
0.0872162 -0.529334 0.0506753
0.767209 -0.318026 -0.201194
0.803299 0.0851636 -0.796755
-0.172165 -0.558802 -0.385965
-0.934844 -0.357589 0.426987
-0.939607 -0.152302 -0.258443
-0.635408 -0.597187 0.455527
-0.786249 0.136688 -0.249615
-0.298623 0.2675 -0.330144
-0.727667 -0.727863 0.215418
-0.184003 0.00465507 0.674839
-0.214538 0.026814 0.550057
-0.502443 0.106452 -0.982849
-0.459324 -0.500827 -0.555285
-0.901652 -0.0762853 0.336959
-0.671734 0.684016 0.822759
-0.731748 -0.370997 0.604568
-0.386572 -0.136959 -0.964999
-0.312884 -0.158923 -0.964648
0.279746 -0.594204 -0.136883
-0.989594 -0.245005 0.201159
-0.698487 0.17484 -0.177277
0.17565 0.357939 -0.157772
0.11449 -0.511298 -0.958504
-0.845821 -0.701634 0.255176
0.629093 -0.27416 0.0889896
0.577436 0.259867 -0.663169
-0.176859 0.454361 -0.369604
-0.0218867 -0.698379 -0.534266
-0.557092 -0.585224 -0.396497
-0.216082 -0.50652 -0.768468
0.185558 -0.452616 0.165878
-0.594429 -0.245979 -0.651244
-0.652348 0.0755363 0.299081
-0.696988 -0.436243 -0.520015
-0.396505 -0.50603 -0.595303
0.31342 0.324384 -0.884132
0.693522 -0.485311 -0.271626
0.00982518 0.345654 -0.855718
-0.333778 -0.0464791 0.248558
-0.418163 -0.0322947 0.723085
-0.460321 -0.29611 -0.763178
0.17785 -0.25811 -0.941505
0.602766 -0.282426 -0.961804
0.400865 -0.198645 -0.984032
-0.758327 0.14275 0.54911
0.310164 -0.722167 -0.406137
-0.241063 -0.0446997 0.548086
-0.357704 -0.0339132 0.475648
0.366333 -0.512722 0.00150847
0.239728 -0.735912 -0.523738
0.0745502 0.42548 -0.193393
-0.643133 -0.552679 0.517981
0.483042 0.160293 -0.884271
-0.0554218 0.412697 -0.196422
0.33394 0.272171 -0.100581
0.434183 0.281717 -0.893818
-0.969343 -0.51504 0.167201
0.585381 -0.581332 -0.402472
-0.0863706 0.0971037 0.933997
0.315395 0.00471778 -0.997163
-0.246042 0.245592 -0.0404716
0.267276 0.0464181 -0.976277
0.209052 -0.542221 0.0456912
0.210939 0.0125624 -0.940163
0.0804411 0.226903 0.779947
0.774779 0.0567767 -0.857311
0.981873 -0.227104 -0.676879
-0.480518 -0.353049 -0.651309
-0.169543 0.317011 -0.212014
0.553468 0.315515 -0.502517
0.149744 -0.522528 0.0712527
0.547342 -0.326679 -0.959802
0.499018 -0.430236 0.104786
0.26679 0.278755 -0.0798178
-0.517876 0.0511841 0.267277
-0.430096 -0.61601 -0.95739
-0.285516 0.015746 0.519303
0.358138 -0.261222 -0.992057
-0.526622 -0.22357 -0.676247
0.175059 0.325663 -0.950994
-0.351856 -0.525851 -0.726807
-0.307537 -0.368081 -0.983279
0.721725 -0.441169 -0.331701
-0.27624 -0.554117 -0.618599
-0.537624 -0.289487 -0.660036
-0.199496 -0.47718 -0.961182
-0.45269 -0.600569 -0.854788
-0.101014 0.167629 0.935114
0.15618 0.226002 0.0518358
-0.174733 -0.0222274 -0.931014
-0.41708 0.259218 -0.240032
0.641668 -0.0848097 -0.978019
-0.0909272 -0.6677 -0.81776
0.343838 -0.220433 0.262013
0.587367 -0.526695 -0.146473
0.697287 -0.471337 -0.394508
-0.662799 -0.580469 0.0179418
0.737874 0.00516563 -0.912686
0.368063 -0.36044 0.21796
-0.407787 0.232548 -0.979905
-0.860897 -0.617862 0.385684
0.0902433 0.0477534 -0.929884
0.098075 -0.447768 -0.9313
-0.744981 -0.66168 0.0401839
-0.404511 -0.123467 0.438609
0.722016 0.161706 -0.389415
-0.983259 -0.209687 0.134984
0.0801456 0.354027 0.941306
0.918489 -0.079857 -0.819057
-0.744899 0.000581764 -0.509255
-0.209755 -0.503122 -0.702282
0.369861 0.203165 0.0825399
-0.134899 -0.611713 -0.790973
-0.665453 -0.0527966 -0.830665
-0.637667 -0.174024 -0.977996
-0.438596 -0.223403 0.548416
-0.731769 -0.117523 -0.895047
-0.389756 -0.512469 -0.9784
-0.508693 -0.500071 0.0555704
-0.136533 0.366172 -0.95963
0.569429 -0.474559 -0.809525
0.431842 -0.488734 -0.991292
-0.317942 0.28508 -0.82853
-0.580241 -0.0527558 -0.798839
0.448469 0.140072 -0.946916
-0.749075 -0.713028 0.101948
-0.953612 -0.503542 0.238989
-0.328956 -0.107786 0.610268
0.851173 -0.374186 -0.669532
0.47019 -0.570683 -0.0972398
-0.784291 -0.716428 0.310166
0.704384 0.166144 -0.537617
-0.484552 -0.432804 0.402254
-0.916601 -0.584087 0.0553306
0.11574 0.301797 -0.981747
0.089606 0.48497 -0.319159
-0.556183 -0.5574 0.0996929
-0.0771141 0.180771 0.0790557
-0.54756 -0.557051 -0.976202
0.707435 -0.447325 -0.576967
0.435171 -0.0800521 -0.982666
-0.566894 -0.605509 0.208028
-0.282771 -0.524735 -0.75288
0.435367 0.197765 0.0446201
-0.72269 -0.562016 -0.288346
-0.13999 -0.172425 0.203671
-0.508536 0.204693 0.00744863
0.493223 -0.0512757 -0.997167
-0.76886 0.0880191 0.623819
0.470002 0.345826 -0.322743
0.208691 -0.213202 -0.985071
0.204288 0.213429 -0.981216
-0.1336 -0.197392 -0.940465
-0.687123 0.189221 -0.364162
-0.720255 -0.720529 0.282417
-0.672855 0.676632 0.677144
0.400193 0.373482 -0.663921
-0.824018 -0.0452571 0.493319
0.387541 -0.383425 -0.993506
0.326262 -0.397664 -0.951156
0.21413 0.454344 -0.340642
-0.282851 0.173963 -0.788698
0.300051 0.203085 0.100497
-0.246876 0.0437605 0.851044
-0.923045 -0.630541 0.106915
-0.0957808 0.224351 0.77108
0.149605 0.181391 -0.930326
-0.111919 0.484229 -0.342491
-0.984068 -0.371865 0.219637
0.0516584 0.325533 0.823939
0.193372 0.259256 0.00535673
-0.601971 -0.324698 0.612345
-0.241739 -0.462392 0.0477288
-0.236298 0.323832 -0.987052
-0.848254 -0.397242 0.0125894
-0.0909318 -0.361498 0.152215
0.292408 0.31 -0.957155
-0.812899 -0.485894 -0.219552
0.58843 0.27521 -0.363467
0.534339 -0.490914 -0.87505
0.0337459 0.252644 0.93166
-0.0750023 -0.621686 -0.554464
-0.983667 -0.367558 0.149079
-0.0287965 -0.296193 -0.9377
-0.871471 -0.0229953 0.300395
-0.655056 0.468278 0.819904
-0.0215678 -0.6688 -0.83145
-0.363704 -0.333029 0.247959
0.677178 0.0994389 -0.729853
0.68702 -0.0320118 -0.953592
0.0306759 0.222446 0.709083
0.801153 -0.0128398 -0.889222
-0.576463 -0.205516 0.610082
-0.150628 -0.268723 -0.943697
-0.744595 -0.685717 0.373127
-0.430193 0.134203 -0.898749
0.0669108 -0.557722 -0.00973188
-0.0849134 -0.504044 -0.930964
0.859072 -0.0122794 -0.550371
-0.857769 -0.0374954 -0.40626
0.992043 -0.143208 -0.585729
-0.761808 0.392916 0.708522
-0.396084 0.124019 -0.826397
-0.174659 0.104365 -0.927378
-0.32631 -0.540147 -0.81112
0.472003 -0.212945 -0.979425
0.619468 -0.000151228 -0.961554
0.233147 0.308509 -0.975921
0.735588 -0.409094 -0.516665
0.0374765 -0.720012 -0.509407
0.26964 -0.518298 0.0757238
0.682417 -0.498837 -0.335811
-0.38742 -0.139827 0.646395
-0.947384 -0.411562 0.10506
0.288749 0.442233 -0.474396
-0.325106 -0.573864 -0.287216
0.464236 -0.603497 -0.155032
-0.286814 -0.00722609 0.811232
0.189546 -0.576097 -0.0524941
-0.826603 0.0803326 -0.258002
-0.903875 -0.384369 -0.212935
-0.69535 -0.57768 -0.219379
-0.50626 0.1333 -0.935895
-0.694954 -0.187443 -0.957467
-0.113551 -0.593755 -0.981064
0.454797 -0.145455 -0.9805
0.762616 -0.350132 -0.635063
-0.574487 0.114377 0.112313
-0.91092 -0.562256 0.353393
-0.567247 0.0769393 -0.567766
-0.152789 -0.589343 -0.267883
0.657559 0.100316 -0.0370274
-0.449153 0.262588 -0.154048
-0.458678 -0.547347 -0.0365322
0.28529 -0.5879 -0.968366
-0.583925 -0.139036 -0.982169
0.00458655 -0.668657 -0.974997
0.229075 -0.477571 -0.964854
-0.892195 -0.104784 0.400455
-0.610344 0.513604 0.784936
-0.206539 0.336241 -0.564951
-0.247149 0.302919 -0.320016
0.0586552 -0.0676312 0.239256
0.351563 0.307377 -0.168665
-0.602377 -0.293154 -0.967143
-0.359179 0.0201751 0.511561
0.0132757 0.0422548 0.191874
0.839693 0.0236059 -0.839386
-0.344941 -0.545597 -0.577263
-0.00930565 -0.753021 -0.333009
-0.550432 -0.345218 -0.629272
0.381415 0.323183 -0.853886
0.804004 -0.264462 -0.532052
0.138064 0.0302655 0.229865
-0.750913 0.556113 0.817337
-0.278389 0.128777 0.756982
0.0811096 0.416489 -0.758901
-0.342008 -0.10743 0.259748
-0.622759 -0.261927 0.614699
0.536013 -0.519238 -0.0901666
-0.28355 -0.0596099 0.653045
-0.102482 0.109717 0.762723
0.539227 -0.551016 -0.721512
0.341581 0.400071 -0.261057
-0.593291 0.310526 0.54721
0.645213 -0.534503 -0.378451
-0.0473111 0.329104 -0.166809
-0.462353 -0.129774 -0.980709
-0.961554 -0.588684 0.152108
-0.319225 0.0204487 0.231121
0.695158 0.0319162 -0.0455701
-0.172311 -0.444748 0.0749323
-0.0123923 0.196284 0.920762
0.367307 -0.046093 -0.986135
-0.739448 -0.458331 -0.471493
-0.481798 -0.314388 -0.983774
0.657438 0.201164 -0.480435
0.293078 -0.721726 -0.650132
-0.2029 -0.139489 0.221521
-0.366354 -0.587643 -0.963799
0.916069 -0.152334 -0.831083
-0.308189 -0.236306 -0.965483
0.202665 -0.0167231 0.251319
-0.665737 0.714891 0.941268
0.270333 -0.647426 -0.827165
0.183836 0.464299 -0.40957
-0.176114 0.365063 -0.627207
-0.352453 -0.29693 -0.971795
-0.538425 0.252362 -0.242006
-0.802287 -0.669629 0.0903934
-0.498511 -0.610614 -0.969146
0.304609 -0.118295 -0.992265
-0.60531 0.0630353 0.359638
-0.901859 -0.636231 0.251502
-0.219649 -0.558004 -0.447342
-0.764029 -0.520153 -0.342638
-0.254896 -0.0917613 0.612733
-0.164065 0.101652 0.140361
-0.897997 -0.0916755 -0.061363
-0.221001 0.225349 -0.624637
-0.780476 -0.48228 -0.0199963
-0.780076 -0.426808 0.579477
0.237217 0.173132 0.124806
-0.571762 -0.516474 0.0452222
0.719521 0.115852 -0.209645
0.67137 0.172406 -0.212749
-0.60558 -0.451062 -0.830924
-0.812842 -0.00970262 -0.464662
0.394728 -0.482416 0.0614952
0.0675903 -0.661693 -0.778473
-0.0828338 -0.131743 0.212845
-0.0601167 -0.156402 -0.936451
-0.792324 0.121751 -0.321231
-0.696776 0.583031 0.664503
0.942514 -0.0352067 -0.750151
-0.4785 -0.597369 -0.18432
0.565931 -0.395198 0.0751935
-0.0537678 0.226541 0.952355
0.32811 0.257323 -0.031523
-0.128459 0.157602 -0.925134
-0.892236 -0.163831 0.44634
-0.144476 -0.611328 -0.336618
-0.347057 0.26498 -0.984388
-0.425832 0.024947 0.673042
-0.918408 -0.207945 -0.307331
-0.0601613 -0.559833 -0.961939
-0.323722 0.244922 -0.063221
-0.984348 -0.300988 0.257949
0.469844 0.349755 -0.631454
0.160676 0.112751 -0.926439
-0.74627 0.116756 -0.0687484
-0.0607675 0.146255 0.885046
-0.51612 -0.471308 0.547853
0.074264 0.31132 -0.131114
0.823022 -0.237953 -0.889418
-0.601272 0.218023 -0.271076
-0.583821 0.135799 -0.524717
-0.207578 -0.0161357 0.816183
0.388006 -0.608414 -0.798263
0.12831 -0.689841 -0.176403
0.098372 0.365328 -0.157507
-0.887981 -0.00960116 0.170855
-0.272957 -0.317043 0.197288
-0.28032 0.259069 -0.983831
0.744393 -0.334556 -0.88705
-0.356218 0.318904 -0.89437
-0.149743 -0.0766691 -0.932883
-0.42339 -0.262437 -0.974549
-0.3325 -0.0998256 -0.98729
-0.243107 0.0760035 -0.926085
-0.543698 0.00738944 -0.783093
0.668841 -0.391528 -0.795603
-0.467195 -0.144272 0.636625
0.903844 -0.0119211 -0.804186
-0.564577 -0.614662 -0.953032
0.438011 -0.550547 -0.823032
0.467987 0.248773 -0.0872516
-0.864983 0.0309165 -0.287192
-0.663494 0.600239 0.889559
0.206974 0.0486772 0.222682
-0.384215 0.0588492 0.224371
-0.448014 -0.366207 0.413074
0.0853458 -0.685979 -0.71579
0.95371 -0.171897 -0.783106
-0.0818579 0.467447 -0.265749
-0.875136 0.0356318 -0.217785
0.565415 0.291512 -0.300828
-0.890848 -0.446345 0.507262
-0.597221 0.628171 0.696179
-0.70961 0.521862 0.628911
-0.61743 -0.591475 -0.195953
0.331173 -0.619362 -0.838789
-0.247455 0.310137 -0.809442
-0.621345 -0.671745 0.0793213
0.704535 0.152554 -0.454899
0.624021 -0.522404 -0.51416
-0.408641 -0.600709 -0.902854
0.285007 0.298437 -0.149482
-0.48937 -0.608784 -0.375568
-0.416656 -0.429169 0.28369
-0.655954 -0.720684 0.202481
-0.762185 -0.298014 0.610056
-0.759791 0.0764818 0.533509
-0.636016 0.614839 0.614923
-0.740182 -0.0714569 -0.960657
0.866836 -0.277935 -0.841333
-0.0204266 0.0467455 0.654336
-0.0184844 -0.720402 -0.458843
-0.374738 -0.389737 0.145025
-0.121601 0.425679 -0.23062
-0.379003 -0.599119 -0.346593
-0.148482 0.111048 0.912684
-0.743563 0.451616 0.727052
0.616402 0.24686 -0.609298
-0.390024 -0.53489 -0.0189769
0.588155 -0.572706 -0.263941
0.611699 -0.52811 -0.595407
-0.61659 -0.224587 -0.88594
0.462796 -0.630378 -0.276837
-0.572222 -0.560972 -0.0600816
0.460533 0.294267 -0.142209
-0.273107 0.265695 -0.112799
-0.00919965 0.199565 0.991148
-0.246762 -0.246864 -0.98547
-0.860169 -0.436334 -0.217837
-0.0109645 0.475676 -0.59868
0.757264 -0.224925 -0.123177
0.643457 -0.519501 -0.222644
0.325846 -0.707057 -0.267535
-0.172967 0.292162 -0.151803
0.577729 -0.434242 -0.870236
-0.122959 0.460131 -0.532674
0.791254 -0.304099 -0.322319
0.107711 -0.237368 -0.938995
-0.577594 -0.277169 -0.905456
0.12804 0.227998 -0.983065
-0.243945 0.128305 -0.692291
-0.192316 0.417137 -0.318607
0.416269 -0.553399 -0.96994
-0.76502 0.0614375 0.223568
-0.334014 -0.576605 -0.152856
0.00740355 -0.587362 -0.147488
0.480844 -0.204647 0.208315
0.331184 -0.671837 -0.206593
0.971815 -0.0820422 -0.563104
0.0743993 0.488138 -0.394106
0.333186 -0.496819 0.0815341
0.664009 -0.241357 -0.958017
-0.201806 0.26141 -0.771023
-0.735841 -0.0536261 -0.558197
-0.345479 -0.0255215 -0.986574
-0.785065 -0.434299 -0.431772
-0.708866 0.113138 -0.0152626
-0.0551011 -0.584452 -0.107971
-0.717225 0.0624014 0.0944038
-0.976375 -0.175185 0.205966
-0.290342 -0.553203 -0.876487
-0.786529 0.224416 0.649084
-0.357274 0.161778 0.122194
-0.623233 0.201301 -0.40965
-0.602347 -0.598112 0.0599607
-0.644692 -0.241811 -0.955998
0.154505 -0.184812 -0.942856
0.796685 -0.0144111 -0.459749
-0.861233 -0.229017 -0.42372
-0.0593128 0.416535 -0.714867
-0.3966 -0.00882507 0.255957
0.766061 -0.348437 -0.264835
-0.489123 0.246252 -0.100302
-0.670258 0.668548 0.756197
-0.546821 -0.0829297 -0.673587
-0.156969 0.172164 0.686315
0.0330146 -0.703946 -0.584799
-0.0880804 -0.682977 -0.434099
-0.914945 -0.18353 0.388304
0.0909782 0.466922 -0.522545
-0.481813 -0.485633 -0.787096
-0.192845 -0.140894 -0.966821
0.745707 -0.410214 -0.391198
-0.356829 0.224123 -0.423877
0.301647 -0.582943 -0.886449
-0.702501 0.0611708 0.423069
0.583827 0.0212733 0.100108
0.403028 0.182764 -0.984666
-0.737159 -0.143735 -0.952277
-0.405134 -0.443696 0.129617
-0.656644 0.0820933 0.667312
-0.866385 0.00611971 0.238367
-0.262787 -0.117888 -0.988378
0.978986 -0.16125 -0.721926
0.332071 0.145406 -0.990777
-0.253015 -0.418978 -0.981387
0.0606788 0.240837 -0.984661
-0.0218294 0.117427 0.634969
-0.769499 0.0342179 0.576548
-0.204615 0.0970253 0.878171
-0.105736 0.272389 -0.0352415
-0.404284 0.279714 -0.950704
0.939322 -0.113334 -0.517841
-0.455635 0.0505044 -0.984402
-0.265988 -0.481362 -0.983122
-0.746725 -0.495541 -0.410681
-0.714251 0.664017 0.943968
0.604503 0.0684216 -0.909652
-0.696194 -0.26359 0.616106
-0.926655 -0.426474 0.444733
-0.472792 -0.417184 -0.769092
0.283164 -0.725804 -0.584995
-0.366726 -0.284787 0.293682
0.770042 -0.120393 -0.129564
-0.115973 0.368145 -0.198956
0.117657 -0.356652 0.224667
0.844695 -0.37676 -0.740298
0.116476 -0.0260786 -0.9326
-0.446769 0.0320375 0.240002
-0.861093 -0.348429 -0.380928
0.270871 0.0584907 0.218548
-0.594907 0.38567 0.730703
0.137764 -0.676083 -0.775762
-0.576326 -0.21865 -0.981785
-0.289383 -0.560335 -0.544391
0.579832 0.193662 -0.783283
-0.448542 0.131249 -0.596193
-0.372507 0.117138 0.178606
-0.625473 -0.354391 -0.969238
-0.548692 -0.562447 -0.465673
-0.813493 -0.433518 -0.014137
-0.198396 -0.0642683 0.635238
0.652931 -0.399745 -0.0395037
0.0209017 -0.348759 -0.935993
-0.41792 0.20547 -0.918575
0.183639 -0.530318 -0.988029
0.358448 -0.678213 -0.65566
-0.789105 -0.0608752 -0.499419
-0.903122 -0.491805 0.447126
0.269443 -0.349021 -0.938151
0.487189 -0.5305 -0.864368
-0.31953 -0.534092 -0.0249709
0.474369 -0.63486 -0.571052
-0.943738 -0.25064 0.523923
-0.566305 -0.0228845 0.544843
-0.349342 0.27524 -0.225175
-0.764226 0.635247 0.917198
0.889137 -0.151872 -0.501112
0.0632929 -0.490327 0.109469
0.0180638 -0.563841 -0.073614
-0.757332 0.306536 0.776744
-0.794014 -0.321969 -0.494059
-0.341603 -0.58012 -0.899025
-0.590596 -0.547627 0.467076
0.587896 -0.140427 -0.994049
0.121231 0.452079 -0.577348
-0.563028 0.229467 -0.374486
0.87753 -0.262199 -0.526837
0.239568 -0.703464 -0.699646
-0.488502 -0.613834 -0.257743
-0.301753 0.27447 -0.180346
-0.4913 -0.0089287 0.524676
-0.251234 0.298482 -0.381527
-0.54033 0.0428819 -0.984431
-0.114655 -0.66994 -0.368647
-0.74245 -0.316951 -0.542096
-0.688834 -0.302818 -0.598139
-0.841341 -0.454078 -0.148612
-0.00555696 -0.595609 -0.98524
-0.0239652 0.146245 0.114472
0.174921 -0.611802 -0.978982
-0.171992 0.313325 -0.785046
-0.0106963 -0.264655 0.219823
-0.590805 0.311478 0.702765
0.524874 0.0447324 0.133065
-0.864519 -0.0445994 -0.0207107
0.117897 -0.632551 -0.142506
-0.518087 -0.17009 -0.985692
-0.537888 -0.00265895 0.46718
