4.6115 5.54734 -5.32765
3.98107 6.62878 -18.9998
-4.66757 2.00014 -5.68785
-4.78264 -9.99963 4.13646
1.07258 9.96126 -5.96034
5.54719 5.91706 -13.6445
11.7994 5.7364 -5.73123
-2.32615 5.66689 17.2167
6.48052 -9.99947 9.94639
-8.19955 -1.22718 8.05017
-6.369 6.09976 -9.9994
-5.46408 8.24332 9.99944
2.54361 4.98965 5.95229
-4.1967 7.9757 0.121589
7.70954 3.75511 -11.8516
11.7994 1.98376 -7.86722
-8.14601 -9.99942 -5.45359
-2.79343 6.50802 -3.86366
-5.06352 -1.38102 17.1596
2.65405 -4.9209 19
11.7995 -6.3887 -4.4963
-6.40757 0.939588 -5.93437
5.80894 6.34563 -4.46087
1.76269 -9.90803 -9.99952
6.26674 9.99952 -4.06397
-8.19929 -6.56823 9.95849
4.69731 -9.99957 -5.33958
11.7996 6.05065 -0.499602
-8.1994 -3.49503 4.96718
1.90404 -6.78008 -6.02017
-0.364222 6.6735 -17.1686
-8.1995 7.79657 2.09999
7.60197 4.06652 -10.0005
8.41604 -9.99934 -9.95808
7.10133 2.62627 5.39344
11.7995 6.3523 4.83898
1.48901 1.01212 19
-4.74712 -8.2687 9.99948
9.97249 6.01959 9.99944
7.23836 4.40415 18.9581
-2.37973 9.99925 4.42559
-4.04087 -7.99419 1.38669
4.19986 -6.57809 15.3594
8.37865 2.39904 15.3445
4.89526 -3.15751 5.15091
11.7995 0.0787952 6.06717
5.53066 5.89005 -18.9999
3.85705 -6.74874 -10
3.01031 -6.17716 5.87638
-8.1995 3.26697 -9.93603
7.66588 -3.82159 -17.081
-8.19954 -7.86294 -2.31822
9.79438 -9.99956 -0.977052
2.15103 6.97605 18.999
7.79047 3.56709 -18.9999
-1.30538 8.21164 5.13863
6.47003 -5.21208 -17.1332
-6.45401 -7.46251 9.99938
0.68908 2.88247 19.0001
-8.19916 9.95174 -6.4548
11.7994 7.80077 -5.99226
2.62353 0.713052 -5.98259
1.21281 -7.82699 5.96967
-8.19952 -0.927322 -6.00703
11.7341 -9.92893 -9.99864
-3.49327 -7.9774 -9.99951
4.0061 -6.64117 -15.325
11.7995 -1.25748 9.94408
-3.12797 8.23301 -3.42317
-8.19951 5.93412 -7.84096
-0.213094 -6.71075 -15.0457
9.86773 -2.16345 -5.60536
7.6423 5.77878 -1.66429
7.62966 5.75981 1.68054
11.7995 -7.84318 3.82951
11.6721 9.99958 9.93347
-4.20683 -9.99963 -0.893651
2.71285 6.9376 -11.8582
7.10734 -4.56541 13.744
-6.54895 9.99954 -4.15049
4.60081 9.96799 -9.99943
-8.19954 -8.09861 5.63194
6.86641 5.03604 -3.27695
-4.32962 3.40878 11.9737
-4.98363 -1.63868 18.9992
4.98269 6.23163 17.1315
-4.22426 -9.99943 0.704556
-8.19954 -9.96217 2.53344
-6.45881 4.33449 4.15125
-8.19951 -2.53548 -7.93454
11.7995 6.94232 2.92631
-8.19998 5.97874 1.05051
-8.19956 -8.52798 3.66357
-3.5076 2.48366 5.46707
-2.26001 -5.72215 -15.4882
11.7994 -6.02181 -0.735321
0.522901 -9.99947 9.95237
-1.16318 -6.34844 -18.9526
8.61097 -1.45336 -18.9998
3.95064 -2.38155 -19.0001
-4.76995 -2.42739 15.3958
-2.12964 3.83481 4.61733
-0.117583 -9.99957 -7.79318
4.01374 6.63772 18.9269
4.05501 6.63134 11.875
9.96024 -3.90269 -4.57895
-8.19949 -5.7445 8.3182
11.7998 0.920549 -9.96195
-4.64358 2.74281 17.1011
-4.42767 -3.1996 18.9575
-6.52259 6.68589 9.99946
-4.17611 3.65325 18.9534
-6.09333 -9.99963 -2.15662
11.7431 -4.55739 -3.92505
9.52969 -5.58936 2.23543
-6.0774 4.21387 -9.99956
11.7995 0.0365949 -7.94083
-5.02341 1.59498 11.9347
-1.93074 9.9543 -4.6951
-3.37449 -4.70318 18.9572
4.15161 7.89887 -5.51667
-0.522526 9.99898 -5.61474
9.9613 9.99955 -4.44112
-4.41845 6.18179 -9.99953
-1.65898 7.95874 -4.90711
-4.88268 0.895808 5.94582
10.1316 -2.32243 9.9996
0.718227 6.92952 -11.8951
6.33342 8.27788 3.96054
-3.80403 -9.99901 2.34208
0.586728 4.57172 5.91034
6.24765 -8.19027 4.04981
6.26762 -6.31871 4.0209
-8.13004 9.99968 -9.92417
1.84976 -7.01216 18.9603
1.74542 7.00489 -13.636
8.18347 -9.9997 -4.45282
-4.04614 9.99949 -5.69413
11.7994 -8.07582 -7.92127
-6.33237 2.838 -5.29631
6.76451 4.94637 -18.9534
8.50439 1.96206 -18.9995
-4.48944 4.1905 4.29478
-8.19948 -3.53666 -9.93535
11.7995 -2.70269 7.72923
8.80244 0.500603 15.3994
-1.20945 5.84977 -5.18225
-4.94456 1.88302 15.3886
8.47584 -9.99957 -6.40192
-8.19949 7.74587 5.9768
-8.19953 8.07455 0.051505
-8.19952 8.35259 3.97318
11.7708 2.7425 -9.99944
0.136744 -0.826073 -19.0001
4.75215 -6.82761 5.23202
8.21457 -2.80325 13.737
1.74525 9.9995 7.99959
-8.19944 8.34821 7.8818
-5.06123 -1.40299 13.6543
4.83306 8.17466 5.17977
1.95012 -7.02106 -15.2875
9.80658 -5.73572 -1.83155
1.71346 -7.00179 11.911
8.05974 -3.1346 -18.9566
-4.00576 -5.86667 1.57847
5.88505 -5.68532 -15.3298
11.7998 5.94175 1.16571
-4.31214 -3.44066 17.1253
-3.44613 -5.28204 2.96479
9.32598 9.99962 2.89958
-1.19924 -6.33011 13.6381
9.94019 3.99829 -4.48366
-8.19971 5.47487 2.60433
-6.23398 9.9996 0.0716042
3.78476 1.49141 5.82067
-2.75641 2.23328 -18.9998
11.7995 -0.693199 8.01271
-1.5929 -9.99942 9.94901
-0.565131 -8.29818 9.99956
-1.25521 -8.21507 -9.99952
-0.272371 9.99961 -7.86143
0.772777 -4.8048 19
11.7995 -1.79466 -8.17084
0.700824 -3.8581 5.93248
10.3079 -0.127957 9.99965
-1.91024 -5.94187 18.9489
2.29006 6.96451 -18.9995
-8.15473 9.99929 -0.965422
2.52253 -1.14314 -5.96944
-0.861586 -4.96087 5.3935
-3.80646 -9.9994 -2.3915
-4.221 3.59241 -15.3584
0.852555 -6.95595 13.6599
8.29645 4.71826 -3.74337
-2.96773 -5.14611 17.1156
9.79582 5.32818 -2.78028
1.67449 9.99965 -7.94984
-4.90902 1.90953 18.9998
8.54894 1.90271 -15.315
-2.76626 -5.26175 -18.9997
-8.15147 -4.76108 9.99955
4.51584 -0.75201 -5.98353
1.01032 9.95952 -9.99945
8.84481 0.892609 -10.0002
6.60731 -9.99968 3.70085
11.7531 -9.99933 -8.30848
-8.19955 -8.09324 -0.31783
-5.87231 5.36228 2.70592
-0.542958 -6.60566 -16.8937
11.7997 -4.33988 4.24311
0.293637 6.81017 18.9994
-3.64928 4.4101 17.0862
8.32727 2.70064 -9.99986
-8.16565 1.46887 -9.9996
6.59925 -9.99966 -6.08914
9.78162 5.9556 -0.791871
-6.03853 -2.58629 5.40703
-5.93463 -5.29098 2.85848
-1.30946 0.717936 -19
-8.19948 -5.22457 -8.17813
7.38769 -4.22505 -15.3174
1.02162 -5.72835 5.9561
-1.53141 -6.16499 -13.7473
11.7994 -8.3347 9.95815
-3.68537 -9.99964 5.97469
6.38259 -5.29361 16.9134
8.03339 -3.22194 -13.6367
11.7596 8.36091 9.99926
-1.93088 -6.02488 -10.0002
11.714 -0.831315 -9.99948
11.7552 -1.54899 5.79213
-5.19122 -0.115856 -18.9588
5.38902 -5.93376 -4.80512
2.02909 1.29998 6.01488
8.37078 -9.99964 4.1918
4.73391 9.94656 -5.22399
11.7995 4.44631 4.13878
8.69587 -1.20406 -13.603
-6.0219 -9.9996 1.96444
1.94484 4.81123 -6.02445
7.54727 -9.99948 8.09028
3.85808 6.56958 5.6338
-6.03014 5.91599 -1.08579
-1.55296 6.14733 18.9596
-0.455504 -9.99855 -5.64876
7.66497 9.99911 1.53309
1.88451 -9.9994 -8.0424
11.7697 0.813746 9.99949
-1.57917 -9.99972 5.03278
11.7996 9.94049 -6.69143
5.2045 -3.89028 -18.9999
-2.40906 5.59932 15.3763
2.15116 -9.99996 6.05868
-6.69721 -0.63218 -9.99971
11.7995 8.02796 -0.131024
8.70169 -1.01046 18.9997
11.7995 6.55309 9.95254
-0.72922 -6.52543 -12.1598
-1.00169 9.95908 -9.99929
1.10402 9.99951 9.95514
-5.20397 -0.442685 11.8809
5.77418 5.75614 18.9601
9.87397 2.13913 -5.61751
7.76532 -8.00798 0.695696
11.7547 0.53357 -5.97399
11.7995 -7.77087 2.03439
3.51856 9.9996 -8.21243
11.7506 -8.23315 -9.99967
11.7995 8.21644 -9.96003
5.16266 -6.1439 13.4936
5.77505 9.99958 -8.31183
3.786 -4.44464 -5.67695
11.7997 -9.94839 2.73858
-4.84894 5.018 -3.2926
-8.19955 9.92709 -4.67341
-2.04705 6.48136 4.59927
-4.75262 -2.46841 11.8681
1.53063 -9.99962 8.01761
8.88899 -0.669514 -10.0001
3.55421 4.82945 18.9999
0.514008 -1.79331 -5.87702
-8.19957 5.65792 -5.69376
-2.96011 5.15195 -11.8122
10.0782 -9.94823 -9.99919
-5.70523 2.90969 5.26544
11.7998 2.10977 -5.69588
-8.19949 9.95664 4.89673
-8.16476 -0.216724 5.99905
-6.38976 4.25529 -4.22708
11.7994 -5.53747 -2.51974
-4.23231 3.577 -11.8086
7.86686 -9.99938 0.43507
-6.30113 -2.89136 -5.26639
0.153615 8.42927 -9.99958
-8.15611 -9.99944 -1.35465
11.7995 -6.71401 -6.47559
1.40298 -5.02183 -19
-2.07057 -5.84011 -17.3212
2.55114 -0.433397 5.99141
-3.61193 4.45212 -17.1468
-0.667059 -6.76707 5.48167
1.92264 -1.15639 -19
-1.44996 -3.21966 5.08889
-6.66598 -0.123785 9.99961
5.47255 -3.76637 -4.73979
-3.03193 9.9995 -3.66456
-5.95859 -7.8262 -9.99943
-3.01009 9.95273 -9.99925
7.77374 9.99954 -7.93188
7.09529 -4.57358 -18.9589
7.13891 9.9994 9.96341
6.05842 7.94811 9.99945
11.7994 5.95869 -7.83472
-4.82111 -6.12387 9.99966
-5.2102 -0.748358 -9.9997
-3.2321 -6.65684 -3.26835
-5.19714 -0.322037 15.4074
9.94839 9.99946 -6.46649
-2.17398 -5.7749 11.8764
7.88827 -3.43919 -4.90984
5.11722 -6.1668 -13.6133
9.38238 9.99935 9.96467
5.83417 6.41901 4.44031
-8.19952 0.253499 9.93892
3.85723 -6.66874 18.9997
5.85475 -1.30831 5.85269
-3.81926 -4.18834 -11.8981
-8.19951 -6.65171 6.76722
6.13058 -5.51467 15.1262
-4.64039 2.75572 -17.1622
-8.19954 -6.57655 -4.25707
-3.25703 4.84005 13.605
-4.49432 -3.05979 -17.168
-3.00561 5.0259 18.9998
6.00347 4.1311 -4.37694
8.79332 -0.47745 17.1115
9.66596 -9.99961 -3.0454
-6.29231 -5.50473 -2.38695
-0.782747 8.33492 9.99953
-1.5994 -1.3082 -19
3.88307 -9.99944 5.71935
-6.3381 -0.710039 5.98184
-6.22653 -4.91358 9.99951
10.1145 2.63546 -9.9996
8.08232 -3.01057 19
-8.19928 6.73952 -9.94619
-6.39682 -3.23339 -9.99971
-5.17789 0.784348 10.0427
6.63829 1.67869 -19
-4.92142 -2.17454 -10.0002
-1.26747 6.30716 -11.8624
5.94431 -7.85845 9.99939
7.00919 6.97056 -2.98824
2.94415 8.25426 5.89077
-5.16855 0.732305 17.1373
10.0944 9.99947 8.18924
-4.78679 -9.99951 -9.95568
5.96184 4.2264 4.32059
11.7998 5.3124 2.78383
-4.68191 2.67462 -13.5623
6.13691 -5.51252 -11.8637
11.7997 -9.937 9.92881
8.34815 6.18541 -9.99957
-8.1993 -8.41925 -9.94838
4.11031 -2.45331 -5.53983
-4.18844 -9.99948 -7.76121
2.39177 9.99978 6.04911
8.01474 3.2523 13.5763
7.00471 -4.6855 18.9621
5.93319 5.65304 11.8332
11.7996 9.95706 4.65305
9.88964 -0.0881889 -5.99709
0.0179528 8.03219 -5.73087
-8.1998 -3.77477 -4.74886
6.68287 -4.81335 -3.6236
3.53219 -0.372046 -19.0001
-8.19945 1.61386 5.87438
-8.19946 -8.02401 7.95931
-5.16218 0.824482 -17.1601
6.34098 -2.26323 -19
-1.39828 6.24337 13.7295
7.24737 -7.68839 2.51846
-8.19952 1.87686 -7.94711
7.52419 -5.67473 -1.9884
0.690726 -6.90337 10.0506
4.64036 6.40692 -11.8478
6.07324 9.99952 8.29798
-2.36953 5.62604 -10.0348
-5.1952 -0.391005 -11.8503
5.11457 3.77368 18.9998
7.41702 -9.95399 2.13681
9.60891 -7.73751 -9.99945
-8.19966 -6.04575 0.594207
8.57003 1.85635 -11.8188
11.7995 9.93847 8.17172
-8.19943 0.661105 -6.04348
10.0171 0.819745 5.96314
-4.12527 9.95769 0.997711
6.59674 2.3877 18.9999
-3.79166 9.99952 8.17526
8.21705 0.966278 -5.93108
6.54238 -5.14592 12.0601
7.56659 -9.99948 -8.13346
-3.97597 -4.09068 10.0004
6.46919 5.21204 -10.0434
-3.82025 4.33219 -9.99996
-8.19964 -2.3572 -5.59237
8.43794 -2.26195 -17.2206
8.02935 8.22824 9.99952
-1.80848 3.73788 -4.79459
7.49183 9.96907 -1.89552
11.7995 -6.19861 4.99497
4.75132 -5.05836 5.2568
11.7995 -4.71431 8.30978
11.7994 8.38799 -4.01096
4.7422 -9.99946 9.93649
2.00691 -7.01615 15.4029
8.10084 4.077 4.41803
8.19665 2.8504 -13.5651
-3.72425 -4.31746 11.8874
-2.83708 -5.24529 10.0463
3.17704 -6.87684 -13.61
3.50833 4.10616 -5.78417
1.68346 4.83971 19
7.26253 -9.99951 -2.70815
4.08941 9.99921 5.61413
6.74626 -6.58042 -3.38697
6.14548 -9.96354 -4.16655
7.73705 8.02215 0.899973
-6.3209 -4.36188 -4.12492
-5.93134 9.99953 2.12092
6.7891 -4.92399 -13.601
-4.71368 2.59526 10.0446
9.78188 -9.99934 -7.82655
-1.97301 -3.32093 -18.9999
-8.19952 -0.352059 -8.01596
-3.428 -4.65327 -17.167
-4.53608 6.25767 9.99951
5.23092 -0.651868 -19.0001
7.86914 9.9993 -0.203291
2.01289 -5.05201 -6.02469
-8.15341 9.99929 1.02032
-3.95262 7.80344 -1.78898
-2.09382 7.99508 -9.99945
-3.69577 5.41872 2.60866
-8.19952 0.766577 7.86817
-1.93214 -9.95797 -4.72868
-3.6465 4.41695 -13.59
4.8929 3.1412 -5.14151
11.7995 -8.00325 -3.53214
6.47713 9.99968 -6.24554
1.9309 2.82689 -6.02231
8.2615 2.66715 18.9997
11.7995 7.85866 -2.06606
11.7587 -9.99922 -0.787694
-8.19949 5.86084 9.95898
9.02371 -4.92327 -3.43186
2.43955 -7.09809 -10.0001
11.7994 -4.89066 -6.16005
1.93213 7.01806 11.8735
-8.15479 -9.99945 0.688167
-8.19952 -6.83631 3.59719
-4.19693 -7.94233 -0.505251
4.44078 -6.49725 -11.8417
8.41579 -2.31507 17.2563
4.9995 6.22454 13.6029
9.93345 7.99826 9.9994
-2.61699 -8.18199 -4.05791
-2.12576 -5.80604 15.3747
-4.94786 1.88481 -18.9611
11.7997 4.56468 9.96319
9.99151 -4.70141 3.73715
11.7994 3.10281 5.2125
-8.19951 3.56305 6.71399
8.01622 3.18309 -5.10176
-3.62127 9.99915 2.7222
3.09269 6.88405 17.1276
-6.25773 -9.99964 -0.113452
-8.1527 -9.99957 6.55518
-2.19107 9.99955 -8.38718
7.67626 -7.87754 -1.23278
2.59846 -6.95223 -11.8782
9.77201 -5.1329 -9.99943
2.93607 9.99959 -5.95852
-8.15944 -4.72475 -3.71547
-8.19957 6.51394 4.18365
-0.109355 -6.71063 18.9996
3.68711 6.74418 -13.6252
9.46387 2.60356 5.40517
8.30671 9.93488 -9.99964
-5.17802 0.687037 -13.5857
0.281756 0.558283 5.99519
-3.83947 -4.15466 -15.3999
-4.66523 -1.9084 -5.71405
11.7994 7.81423 8.12289
-2.97732 2.75445 -5.32644
11.7519 -9.99913 -6.51818
8.42228 -2.29257 -15.3675
-4.32294 -3.4089 13.6369
-2.76966 2.40636 18.9998
3.29044 -9.9227 -9.99945
-2.74185 -9.9995 8.26878
11.7995 -9.96299 8.24039
-3.2998 -1.21405 18.9998
3.73045 -2.03812 5.69816
8.15172 -6.25391 -9.9995
11.7997 -2.7306 -9.95166
-3.99667 8.02615 -9.99936
2.75574 9.90893 -9.99949
11.7995 -5.95054 -8.19913
0.672852 9.99942 5.97944
4.62399 6.41134 -15.4126
-4.19017 6.03114 -0.609658
-4.23604 9.99947 -0.630323
-0.486605 -8.50345 5.56859
11.7996 6.45366 -9.96011
11.7995 -8.00693 0.147927
0.64135 -8.22714 -5.91838
-8.19926 -9.95226 8.29587
11.7994 6.63379 -3.93876
-0.777826 1.24177 19
4.9533 2.93703 5.22871
3.5933 6.7756 -17.1595
-0.24796 -2.61246 19.0001
-8.19957 7.39705 -3.93797
11.7995 -2.9396 -6.82417
-6.07098 8.02169 -9.99933
5.17868 -6.13441 11.6186
6.45748 0.488789 19
-4.6199 9.99955 4.30013
-6.07097 9.99957 5.98825
6.63917 5.05871 17.1228
1.80265 3.17175 6.01336
0.582288 -0.746589 19.0001
-2.45376 -9.99963 -6.47428
6.50912 9.94554 -9.9994
11.7995 1.34696 8.00129
-2.8998 4.7587 3.75689
7.20435 -5.35092 2.76085
-2.65533 5.45397 10.0004
-3.16208 -4.94438 -13.709
9.58674 -4.26648 9.99954
11.7991 -5.41828 2.75254
6.2155 5.51295 9.99993
-4.38712 -3.28175 -13.642
2.87237 9.99951 9.9484
4.82255 -6.3123 17.1352
-2.15175 5.79112 -13.5996
10.1322 -9.99939 9.94459
6.86109 -1.32401 18.9999
-2.53271 -8.53599 9.99942
-8.19952 -4.04081 -6.7137
2.12074 -3.16293 -19.0001
4.0396 4.69296 -18.9998
-2.15089 5.79236 -17.1853
8.57754 -1.76112 15.4588
8.43302 -9.99941 9.94881
7.76555 -8.2083 9.9995
2.22519 -3.04798 -6.00917
11.7995 -8.31114 -5.60403
-5.17173 0.745905 13.6953
-3.27306 0.277207 -18.9998
5.5048 5.94696 -17.1734
1.64184 7.00382 -17.1559
8.6924 1.22186 13.5492
-8.14824 9.99971 6.61141
11.7995 8.3065 3.98605
0.214565 2.13086 5.78938
11.7995 8.20717 6.03399
9.60286 -9.99944 7.69367
-8.12845 9.90547 9.99982
0.603397 -3.92176 -5.90458
-8.10062 -9.99961 9.93401
5.66665 -5.81071 -18.9993
2.54395 1.18433 -19
4.07481 -6.61829 -18.9545
11.7399 9.99916 2.68919
8.78946 -0.956253 10.0002
10.1496 2.18713 9.99958
-8.19962 2.23017 -5.65247
0.184985 4.17037 -5.7828
-4.81362 -2.29291 -15.383
5.87834 5.68957 15.3418
-8.19955 -5.85921 5.15628
-8.19945 -8.37248 9.95689
7.86022 -6.00787 -0.36449
7.18651 -7.95997 -9.99937
-2.94229 5.16266 -15.3695
7.72595 -5.86062 1.28359
-3.37235 -7.67008 3.03648
-4.70558 2.72009 -10.0001
-1.71523 -9.99962 6.74169
-8.15389 -4.7744 3.64451
6.04115 -5.65408 9.99981
-8.15405 -1.44831 9.99939
10.1295 9.99952 4.55434
11.7548 9.9992 0.681769
-1.88183 -6.24573 -4.73374
3.21981 6.93475 9.99985
8.4704 2.183 11.8269
8.14114 9.99949 8.1685
4.81316 -0.932628 19.0001
5.83792 -7.98928 -4.44022
-4.99135 1.73958 -15.3607
2.6841 -9.99948 9.94463
-6.07855 -9.99938 9.9606
-0.964589 -2.67765 -5.36139
3.11604 -6.88687 -17.0773
4.76284 -8.46357 5.22335
-3.27596 4.81929 11.7279
0.944405 -6.96134 -13.5064
-8.19866 -9.93232 -7.7026
-8.15655 9.99963 -8.19203
-5.06894 -1.3507 -13.6071
2.66379 6.94269 -15.3859
8.78388 -0.764956 13.7205
3.07443 -6.88892 13.7415
-6.47899 5.35748 -2.68988
7.38256 4.23106 15.3204
9.78897 -9.99954 5.56517
9.83126 -5.99287 0.298583
8.14901 -1.35414 -5.84035
-5.17536 0.0936839 18.9997
-8.199 8.38883 -9.9543
-8.19952 1.89537 9.95599
6.25269 -2.1561 -5.62899
8.73009 1.0808 -17.0661
-3.88304 9.99901 -2.15632
-8.13451 -9.99784 -9.88066
11.7411 9.99935 6.45653
-4.56803 2.90564 13.7206
-8.15476 9.99939 2.80905
-4.80111 -5.00563 -3.31539
0.482695 6.88758 -18.9604
-8.19948 4.4969 4.0885
1.04777 6.96921 17.0929
11.7995 -7.82563 -1.75419
6.37064 5.30587 -11.8609
9.8462 4.97565 -9.99949
-8.19961 7.96303 -2.02591
-8.19946 4.93787 -9.93952
-8.19963 6.04675 -0.587559
-0.316532 9.99953 7.99097
7.71332 3.74553 -15.3497
3.44939 3.3241 5.80256
-1.3414 6.21972 -19
8.08948 9.99965 4.61266
-4.47241 -1.10804 5.90243
11.7996 9.95694 -5.02205
-6.26324 5.96055 0.794383
-0.308744 6.69393 -13.6413
0.338481 -9.99981 5.90296
-6.61236 1.39385 5.83176
11.7995 3.97164 -6.69114
-8.19955 -3.60315 8.4031
-3.09488 7.9073 9.99935
5.4605 9.99962 6.62363
7.02596 8.67962 -2.97075
-8.13545 9.99962 8.35023
0.604121 1.54953 -5.8945
2.5919 -1.02152 19.0001
-8.1995 6.5983 8.01174
11.7994 -8.08709 5.87722
10.0816 9.93729 -9.99967
-0.201256 -6.71567 15.3886
11.7997 -9.9525 0.989496
-6.55295 2.06614 -9.99963
11.7719 2.78917 9.99943
-8.12162 -1.83147 5.73239
-1.69441 3.9667 -18.9999
-8.1995 -8.38674 -4.28177
-4.05436 -3.80697 -18.9995
-3.97317 -3.02747 5.20236
0.689778 6.26647 -5.93494
-1.3976 3.48372 18.9999
8.00637 -6.27595 9.99953
-5.16304 -1.13899 10.0006
11.7995 3.92492 -8.39206
7.87542 6.00375 0.0665407
-4.13396 3.70412 -18.9599
-6.2108 -9.99957 -6.21556
-4.6451 -9.99945 7.87798
-3.09241 -9.99983 -3.61758
-3.75265 -8.10957 -2.26188
3.65127 -6.36331 -5.72854
11.7995 3.2808 7.7846
-2.926 5.14258 -18.9987
-1.09086 -8.01302 -5.25257
11.7988 -2.96716 5.3106
7.09299 4.58318 -13.6307
6.58317 -9.99939 -9.95413
-3.31599 -1.75139 -18.9999
7.17844 7.49462 2.66997
11.799 -3.1251 -5.19063
11.7998 1.75482 5.8231
8.12693 0.94702 5.93579
-1.02055 5.01992 5.30349
-8.19946 -8.09642 -6.24757
4.71239 8.27224 -9.99956
11.7485 -4.6008 -9.99934
8.71966 0.836258 18.9998
-5.97389 -9.99957 5.94264
4.91091 -6.26847 -17.0938
10.0624 -3.16141 5.11003
-0.7712 6.51077 17.1153
3.69954 2.06219 -5.70661
1.31977 -9.9998 -6.05422
-0.508518 -4.65849 -18.9999
-8.19963 -5.59526 -2.38675
3.99383 6.6446 15.3475
-8.15459 -9.99942 4.77735
-5.01124 1.68659 -11.798
9.7876 -1.01521 5.91552
11.7994 -8.06961 7.99488
2.65785 -8.32443 -5.9362
7.08904 4.58745 -17.126
-0.806588 2.49721 -5.46748
-8.14554 -5.63752 2.11232
-4.21975 -3.72844 -10.0002
0.859304 -6.96329 -11.6714
-8.19967 4.88222 -3.62701
9.68085 9.99947 -8.26058
-8.15934 -3.0427 9.99953
6.19074 -4.31923 4.16661
-1.28911 6.29368 -15.3902
-0.185363 6.6049 5.66541
5.57092 -9.99955 -7.74773
3.61884 -9.99963 7.94612
4.44261 -8.06385 -5.41765
7.47114 -9.99967 6.05343
8.03286 6.25961 9.9996
-0.659623 9.97298 9.99942
5.63711 -5.8515 18.9485
8.21365 2.81887 10.0475
7.70473 -3.76061 15.5105
0.274778 -9.93178 -9.99947
11.7995 6.46683 6.74583
2.95672 6.37195 -5.88827
11.7593 -1.21672 -5.87335
8.79868 -0.265769 -15.3009
-3.86069 9.99961 6.16582
0.095419 -6.24685 -5.74861
4.60533 4.94459 5.32498
5.80468 9.99956 4.57231
1.69569 -2.88264 19.0001
11.7997 -3.13927 9.94473
-4.16792 5.88346 1.13495
8.78341 1.00231 10
8.25504 -4.25067 4.23936
8.0658 9.99964 -3.83837
-3.98444 -5.81938 -1.69567
0.84356 -0.970623 5.95516
-2.05939 9.99958 7.28461
11.7296 9.9267 -9.99757
-2.38388 -6.21937 4.31298
5.0115 9.99946 9.95788
-0.295225 -2.16667 5.64729
2.06988 8.11333 -6.02309
-8.19954 7.82571 -5.89838
0.500892 -6.86111 -18.9991
2.86114 2.80868 18.9999
-4.47971 3.76032 -4.68301
-6.18394 -9.99942 -8.14815
-4.35245 -3.67903 -4.73721
9.75805 -9.99953 1.12559
6.36428 5.31086 -15.4104
3.89969 -8.39872 9.9995
-8.13749 3.16524 5.09646
11.7997 -9.95577 -2.55204
0.151331 4.7568 -19
-1.19505 -6.33277 17.1474
-3.06763 -9.9554 -9.99946
-8.19951 4.72672 8.18138
-6.53092 2.42643 9.99974
-3.11598 -7.01262 9.99965
3.67335 -2.79192 19.0001
-2.31566 -2.87079 19
0.161256 -2.80517 -19
-2.20604 -3.95615 -4.52597
7.39022 4.22571 10.0331
11.7995 -4.56188 6.36767
-2.1599 -8.12381 4.51674
1.64873 -8.51068 9.99964
-1.05707 0.756729 -5.98479
2.98242 6.90235 13.5817
-8.1995 -5.95731 -6.13005
6.7696 -5.0082 -9.99982
-6.60357 -9.9996 3.87008
6.91531 5.18918 3.13131
-8.19961 5.6915 -2.1568
11.7995 8.22191 1.73062
11.7997 9.95159 -1.22591
8.61524 1.60212 17.2033
4.41069 -0.343788 5.99317
-2.86509 8.39416 3.7758
-8.19946 -7.50932 -8.05089
-8.1995 -1.82548 -9.94981
-2.51989 -4.24312 4.24007
-6.48687 -4.10802 4.3787
5.76145 8.18532 -4.51118
9.35858 5.23956 2.95276
3.11268 -9.99907 -5.95281
-3.94519 -9.9994 9.95362
5.25374 6.18422 -9.9999
-6.49223 9.99955 3.98507
9.47542 9.99958 6.36024
5.43412 -9.99933 4.90263
-8.19952 5.55309 6.08275
9.74088 -7.98983 9.99934
3.52267 -6.79264 11.9208
6.72312 4.98351 13.5667
5.99504 0.874733 5.95265
5.54107 3.36701 -18.9998
-3.9369 4.13994 10.0007
7.51924 -4.05092 -11.8557
-4.66787 -4.34748 4.13289
8.80034 -0.663136 -17.0985
11.75 4.76169 -3.63876
-3.04467 -4.91637 -3.53583
4.79299 1.80184 18.9999
11.7997 -9.95992 -4.40034
7.69771 7.91093 -1.10408
-4.77822 -2.39891 -11.8452
2.11993 5.01373 -19
-1.05775 2.92753 5.28039
0.746656 0.967838 -19
4.95823 -8.20963 -9.99949
-8.1391 -6.72836 -9.99958
8.79238 -0.230108 -11.847
7.3254 9.99964 6.34987
-1.34428 -9.99948 -9.95015
-2.8327 -2.41447 -5.49288
0.830778 -0.183581 -5.99186
9.64255 9.99952 -2.49645
-0.846927 -4.75126 -5.40205
3.10512 -8.1179 5.85804
-8.19954 2.61908 8.23509
-2.04305 -9.99952 -8.18214
8.79357 0.132186 11.8231
-6.08126 4.58953 9.99959
-8.16221 9.99928 -2.85634
-0.510168 2.56379 -19
11.7416 -4.8976 9.99934
3.49648 0.66132 19
4.93619 -9.99942 -9.93727
-8.19949 3.64085 -4.87813
1.81408 6.59193 6.01259
-5.89694 9.99945 7.93766
-4.27185 -5.99699 -0.0481908
2.60543 -6.9521 10.0444
9.63678 4.21 9.99955
-4.41677 9.99943 9.96152
-4.9006 -2.02065 -18.9486
-8.14243 -9.9994 -3.33027
9.82558 -9.9995 3.10234
-8.19957 -4.64836 6.63615
11.7533 9.99912 -8.33038
11.7994 7.95753 -7.98105
-2.82226 -9.94893 3.80851
7.55509 -4.00114 17.3261
8.77118 0.823455 -13.5936
-0.456696 -9.99954 8.11949
3.77985 8.42726 9.99956
11.7994 -6.38658 7.33252
0.302294 6.90858 10
-4.19754 9.99951 -7.84513
4.80301 6.39698 9.99973
-8.19963 -2.79252 6.97102
7.64891 -0.773484 5.98302
-4.24637 -9.99964 -5.44407
11.7488 -9.99922 6.49317
1.93598 7.01321 15.3275
8.21907 9.99963 -5.79601
6.5295 2.10895 -5.64951
-1.27581 -0.609203 5.99566
11.7518 -5.90246 1.07152
8.1533 2.94315 -17.1384
9.95112 -6.06838 9.9994
7.02477 7.80496 -9.99949
-6.05055 9.99952 -6.10706
-2.99433 -5.12098 13.6345
-6.15665 -5.99164 -0.743462
8.50193 -2.43519 5.47951
-1.0717 -4.4112 18.9999
-1.91969 5.92771 11.9609
0.800172 -6.94915 17.1643
11.75 9.99915 -3.03166
-2.81756 4.67847 -3.83805
-2.61397 -1.84195 5.72615
4.66355 9.99968 -6.92184
-0.907998 9.9989 5.43826
11.7519 -9.99919 4.56932
-0.94876 6.50238 -10.0001
-8.19948 7.99626 9.96084
-4.88004 9.99952 -3.88772
-3.12087 0.385862 5.99486
2.913 -6.9076 17.1223
-6.37573 -0.928549 -5.93963
-8.19955 3.90798 -7.43599
-3.7204 -4.32557 15.3698
11.7996 -6.65159 9.9364
7.35819 -4.36262 10.0005
11.7996 5.69326 -2.08389
-8.19967 -5.98686 -0.932153
-2.27935 9.99967 -6.6157
-0.330756 6.68213 15.3305
-1.15402 -0.908487 -5.95049
-8.14544 -5.09022 -9.99948
-3.76043 5.63729 -2.26513
5.81806 -2.94515 19
10.0766 -9.99951 -5.33178
1.71392 7.12474 9.99984
-3.97814 3.94888 15.2976
10.0662 -2.80365 -9.99956
-6.17543 9.99944 -8.04309
11.7996 -4.01171 -8.20537
11.7996 5.39042 8.25207
7.02363 -8.26341 -2.95219
7.75252 -9.99972 -1.21501
-2.97334 -0.728422 -5.98639
-4.6556 0.136408 -5.99672
11.7997 4.64167 -9.96383
9.83924 5.89222 1.19999
1.99372 -2.49472 6.02364
-2.42432 9.99949 9.94143
3.44034 -4.77417 -19
11.7993 3.6333 -4.87777
0.657914 6.92358 -15.4007
-6.1178 -5.39798 -9.99961
-1.39786 -0.802854 19
-3.27311 6.8072 3.20003
-6.50453 -9.99943 -9.96527
3.809 -9.99954 -7.89604
0.553268 6.89061 -10.0468
7.89175 3.45232 17.1433
4.72228 1.35247 -19
-4.4252 -6.29928 -9.99971
-8.19951 -0.0484017 -9.94757
-4.67295 -2.81365 10
8.23588 -2.74421 10.0471
-8.19958 -7.91096 1.6913
9.81629 9.99953 1.17392
7.46672 4.13434 11.8543
1.15813 -6.9723 -17.0807
-0.175727 6.71763 11.9193
8.80013 0.294809 -18.9553
-1.33558 6.3392 10.0008
7.75717 -3.67377 11.9087
3.40189 2.9592 -18.9999
3.83532 9.9995 7.96172
7.83608 -3.71624 -10.0001
2.34639 -6.99374 -18.9582
-2.81974 1.01934 -5.92209
8.4415 -2.19602 -10.0442
-8.19943 7.96146 -7.89952
-6.46047 -9.99943 7.94848
3.55875 6.84249 -9.99989
8.45771 -2.21208 -11.8873
-0.18952 4.82127 18.9999
-0.306241 -6.68896 11.8701
-1.66838 1.35345 5.84195
-3.139 -4.98056 -10.045
-5.19954 -0.289525 -15.3642
4.99143 0.90096 -5.95246
5.58567 -9.99961 7.43953
-4.80308 9.95695 -9.99936
0.738151 8.27885 5.92687
-6.46641 -2.73274 9.99963
5.47882 -6.05566 -10.0005
0.768062 6.95035 13.6412
-5.21266 0.860814 -9.9995
-1.23864 -6.35019 9.99982
6.57513 -0.187076 -5.99453
-3.89367 8.01646 1.90909
-8.15009 3.89909 9.9996
-2.9982 0.643755 18.9998
8.56806 -1.86814 11.9131
9.59647 7.72773 -9.99945
4.54978 -4.48556 19
-6.10939 9.99959 -2.02703
11.7995 4.63515 6.25965
4.39571 -6.57071 10.0004
2.98392 -4.19467 5.88072
-5.84932 -9.9996 -4.08267
-6.52167 9.99945 -9.95735
-5.10097 -1.1586 -17.1443
-6.14339 -5.89915 1.0827
6.97212 -0.219431 -18.9999
9.82929 9.99954 -0.712873
-6.39989 9.99949 9.95522
-0.469707 -6.64531 -10.0501
6.98231 9.94933 3.01781
10.072 4.13596 4.35014
1.41528 3.04846 -19
0.958713 -7.09706 -9.99998
-2.40937 -5.59892 -11.903
11.7371 -6.49621 -9.99931
2.07527 7.11339 -9.99997
6.85142 -2.89707 5.25286
