-4.40725 -4.07407 4.39949
-8.10718 -6.12611 -0.591898
10.1296 2.76775 -10.0089
-6.56011 -5.14703 -3.06958
-4.27206 -10.0112 8.07575
5.15224 -6.14783 15.309
-6.0925 -10.013 2.93874
7.05829 -4.64795 -17.1232
11.6529 9.84529 1.75184
-3.26811 -0.503786 -19.0044
-6.2284 10.0066 0.561965
9.24338 3.22566 5.05578
-6.28539 -10.0084 -0.889228
8.19547 -9.90931 -9.79693
8.32263 1.95111 18.9104
9.74321 -10.0074 -6.30999
-8.20951 -1.95813 7.91228
-1.80207 -5.99602 -11.9656
-4.77197 -10.0154 -4.3551
-8.08281 1.33519 -9.88351
11.7327 2.9391 -9.79693
0.806777 6.93867 -15.1459
11.7079 9.84339 -4.73518
7.58817 3.56637 18.8689
6.42104 8.3612 -3.81039
4.12235 6.36852 5.53186
11.6846 4.17782 -4.5719
5.22049 5.70523 -4.9394
8.10322 10.0062 7.82905
-8.20842 -7.99603 0.957362
3.91967 -6.682 17.0683
-4.19713 9.83685 -9.8987
-6.72029 -0.562216 10.0131
-4.46254 -3.16282 17.0879
-2.8861 -9.79628 -3.93992
4.98776 -3.80665 19.005
7.7397 -8.01188 0.658705
7.58183 10.0035 -5.88288
-8.06639 1.1796 6.03302
-6.24417 0.533206 5.98441
-1.22317 -3.11038 5.24656
-6.58181 -9.88205 -9.8925
-1.47526 1.75559 -5.73696
7.71183 5.96874 1.59405
-6.03064 -5.61127 2.10431
-5.69749 -10.0079 6.46969
-8.20692 -5.84025 -8.10745
5.81348 -6.17858 -4.454
11.7045 1.0444 6.09584
11.6259 -9.92979 2.11786
-8.13276 -5.55163 2.65932
11.7162 5.21606 -3.28545
10.05 3.01525 10.005
-8.21394 7.77497 3.41941
8.64425 0.471161 -18.8634
7.681 -3.80344 -15.4995
-8.11912 3.66783 -5.0395
-1.61992 -9.85102 5.04403
-6.34558 4.32545 -4.16166
5.46663 -5.96111 11.9216
5.08058 -6.17739 -11.8532
7.15078 4.52062 -15.4589
-8.21643 8.01388 1.50916
11.7221 -5.89892 1.73023
-8.20674 -8.30049 -5.61056
-8.08312 4.85061 -3.86287
7.08613 7.97882 -10.0135
-8.20707 -7.83941 6.21011
-4.76862 -2.42626 -13.487
-4.72376 -10.011 4.42129
-8.21414 8.20607 5.56494
-5.11902 1.11637 -17.1162
-2.04791 2.74243 19.0062
7.68885 -5.92076 -1.81127
11.7357 -7.77313 9.80038
-4.53092 3.93005 -4.5344
-1.16508 -6.47257 -10.1095
-4.92336 -4.9965 -3.30613
-3.04027 -5.06169 -15.3998
11.8085 7.91826 -1.6621
3.90873 -10.0107 7.72421
-1.8368 -5.99674 17.0904
9.76821 -10.0113 1.22606
-2.42891 9.90781 4.47787
2.59163 -6.79736 18.9062
11.5464 9.79689 9.83058
7.99683 3.26397 -15.1391
-3.64468 -5.40326 2.91578
3.39165 6.83528 15.3683
4.4008 -6.50634 13.6106
7.72415 9.81059 9.8523
-2.47138 -7.57071 -4.21683
0.829571 3.65066 5.93246
-8.07596 9.86175 -1.40675
-1.28002 9.86675 9.8622
1.87369 -10.0143 8.0493
-8.20845 -6.49965 -4.35411
-8.11583 -4.46988 9.82959
-8.11344 2.33746 -5.73694
11.8094 2.06993 7.87669
-5.65068 -9.87981 9.88839
1.75219 6.99783 11.848
-1.27369 0.449936 19.0028
-0.00158703 7.64158 5.71697
11.6747 9.84298 -6.50375
-5.00845 -1.66981 -15.2664
11.691 9.81851 6.72143
0.504437 9.91742 -6.09182
1.8905 7.0054 -13.5675
-1.81259 -10.0171 -8.55292
9.88203 4.11359 -4.35417
4.49762 6.46397 -15.4121
7.21615 4.64711 -10.115
11.6625 -5.17445 3.26564
-2.5698 -4.34154 4.22075
11.5969 4.64583 -9.94155
-8.20778 -7.84008 8.07966
9.5584 -5.48777 2.40955
-8.21109 -7.84979 2.82974
7.76453 3.65288 -11.8736
11.7132 9.82848 -2.95353
11.7195 9.82761 0.105729
-4.76079 -2.73973 -10.1182
-2.75444 4.50353 -4.06554
9.98912 10.0123 8.02076
3.53568 6.35768 -5.74846
5.83124 -9.81891 4.65695
0.11795 -6.69357 -18.9266
-8.2075 8.35227 -8.12469
11.7041 -3.85 -4.87015
-2.55763 5.47884 15.1528
-3.14317 8.14878 -10.0122
11.6341 -9.86351 -1.90853
4.31243 -6.68733 -5.45418
-6.29177 2.87142 -5.27913
7.89931 9.85889 -9.8472
-4.43928 2.79601 18.9197
8.15805 -2.91436 11.9718
-4.48467 3.10948 -17.321
5.39044 1.30316 -5.88594
-3.56061 -10.0107 -5.92928
5.25774 9.90071 5.14825
-3.53897 4.31614 -18.8197
-1.84852 -10.0081 -6.8749
11.8053 7.58581 6.21923
-6.57123 -10.012 -4.97838
-8.20536 5.53767 -5.95771
-0.531926 -4.06816 19.0048
-8.20443 -5.56903 5.99358
1.76001 4.77687 -19.0035
-4.85181 -2.18792 15.3337
-8.20647 4.63926 6.3736
0.932546 6.96126 -12.0077
2.57272 0.888444 5.96937
9.80497 9.89646 -9.86401
-8.06692 9.85033 0.328436
-6.30525 9.85157 -9.89324
-6.43258 -1.53558 5.79206
-3.55622 -10.0072 6.09135
-8.0688 4.82843 9.88267
9.81135 -10.0069 -0.866032
10.0462 10.0181 -7.90281
-0.531201 -6.60013 12.0034
5.91903 9.88358 9.82647
-2.62103 -5.66026 -10.1051
11.6329 6.47958 9.90278
7.16461 -4.26016 -18.9305
-8.20754 7.86381 -2.39881
11.8114 -7.92467 -8.21446
4.7069 -6.20531 -18.9016
-8.20387 6.6586 -4.23861
-6.23206 -5.99114 0.398417
7.70872 -3.74102 -11.9703
-5.13871 0.951272 13.6939
-0.495612 4.19381 19.0054
7.0605 7.92817 10.0103
11.8054 -6.88172 3.62356
7.98374 -6.27484 10.0039
-8.07658 -3.33741 -9.85059
3.92174 9.88143 9.85823
-8.07866 3.22553 -9.79693
-1.47663 -1.19503 5.8796
7.03405 2.87711 5.26482
-8.03595 -8.18574 9.85345
11.7087 -2.28339 -5.7656
5.90459 -8.09487 -4.35804
-3.89951 -10.0097 -7.94951
5.9437 -10.0118 8.27273
-2.79632 4.57659 4.04646
-8.21726 8.02986 7.90874
-3.42509 9.8547 -3.21579
10.1321 1.9747 5.66218
9.91275 -9.76926 -9.92874
8.16671 -10.009 -7.61224
4.29409 1.04791 5.91819
3.46123 4.42094 19.0049
-8.06217 -9.882 5.98104
0.974958 7.03477 10.1328
-8.20991 -8.34392 -3.61035
6.06105 5.79957 10.0912
11.806 -7.79981 -6.39477
5.70508 5.81317 -13.6811
4.64107 10.009 -7.96562
11.5969 1.15867 9.94281
9.63239 -4.61321 3.8247
10.0471 6.49313 -10.0103
-4.3498 3.34601 -13.892
-3.14609 4.98177 -16.8488
11.8081 7.94686 -5.80895
-1.70766 -10.0118 6.80479
5.34231 3.56459 19.0062
11.7155 -9.83131 -3.71376
-2.42089 9.80368 -4.4236
-2.92601 7.50421 -3.70264
-8.0665 9.89381 2.19851
8.71379 -1.10566 -13.6167
-6.15971 -10.0076 1.09168
11.7294 2.91732 9.80425
-4.67736 2.64909 -11.9934
-8.20637 -3.86499 7.49641
-0.23878 -4.42788 -5.63734
8.3795 -10.0043 -4.71464
-8.21568 0.135369 8.01255
-8.01294 8.2278 -9.95605
-8.12434 5.85601 2.01433
11.8079 4.41041 -8.27714
-0.14725 0.630209 -5.98634
-6.14825 3.98491 10.0061
-4.53365 2.97496 13.6272
-8.20916 8.01254 -0.481695
-1.80236 6.01394 16.946
9.09995 0.0774199 -10.0849
-1.67637 -9.82765 -5.02141
1.69829 -6.7979 -18.87
-8.15802 -2.2929 -5.83131
11.804 -3.93129 -7.35653
3.51963 -6.1228 5.7586
-6.11934 7.78493 10.0135
7.11037 -4.2479 18.957
-1.19781 -9.90122 9.84923
11.8076 -8.32301 2.96413
7.95969 -10.0068 7.65921
10.1839 -10.0107 -4.41581
11.8106 0.163535 8.05173
-8.21357 -8.28206 -0.819417
-4.63093 4.64646 3.77826
0.0972197 2.14478 19.0028
-2.95979 0.842228 -5.95385
7.83373 -3.55669 15.563
9.92212 -10.0126 -8.22712
-3.0722 2.83062 -5.29258
2.7138 -8.19092 -5.92721
11.6767 5.83001 -1.92078
7.23596 -5.282 3.03163
-6.34509 10.0105 -5.6864
11.6325 5.26036 3.09092
-4.83164 -2.20674 11.9323
6.33944 -5.33083 -15.4314
7.38608 9.87536 -2.56757
4.02841 9.84668 -9.79693
0.839417 10.0077 -8.04908
-8.21437 3.95048 8.05515
9.46385 4.69341 -10.0017
10.0421 4.47689 3.98352
1.79293 5.40242 -6.01728
11.8024 -5.89927 -7.8415
-4.00995 -3.80741 -4.63279
11.7131 -9.83917 -5.59946
-2.463 5.2573 18.8487
-4.08103 3.80469 -15.7867
7.31136 4.30794 11.8909
4.43092 -8.43437 -5.37791
-0.114983 -9.871 -5.82434
4.6444 -6.56222 10.1261
-4.77916 -9.85104 -9.88602
-3.76148 -9.88579 -2.56147
-8.20816 -7.13673 4.4755
-7.19931 10.0216 -7.97103
3.68246 4.40238 -5.7053
-4.73672 9.8788 9.85814
8.19154 -2.88987 -17.1533
8.03535 -8.24062 -10.0089
2.10968 6.85781 18.8671
11.642 9.91582 -1.40257
-7.89035 -9.88913 9.79693
9.60485 9.83849 9.8633
-6.26613 -3.64359 10.0059
0.164837 -10.0168 -7.88239
-8.08653 9.8671 -9.73967
1.93894 -4.64872 -6.02237
-6.58737 -2.49576 -5.44425
2.89558 10.0121 7.93556
3.83875 6.71472 11.9029
9.80922 -6.53784 10.006
7.14316 -4.52428 -13.7398
-1.47135 3.52923 -5.04604
-0.867728 6.48825 -11.9312
5.89257 5.6942 17.0745
0.661009 2.93987 -19.0035
11.7028 -0.694683 6.12457
7.40254 0.968434 -5.92717
4.92427 8.21083 10.0107
3.1926 -6.7101 -18.9437
-0.973909 9.89443 5.49308
8.52182 -2.00148 -15.4556
-4.86267 -1.73751 -18.9074
11.5853 -0.59745 9.89806
5.87511 -2.79451 5.30171
-8.0406 -9.90185 -8.23116
-4.46927 -6.33107 -10.0052
3.79298 4.64479 -19.0077
6.82677 4.87382 15.3507
-5.05791 -3.81e-05 -18.873
-3.76513 -4.03179 18.8588
3.02907 7.0169 10.1235
-4.85825 1.53556 -18.8985
1.61298 -6.12148 6.00378
-3.32183 4.76876 13.4829
-8.21246 -7.40322 -2.25298
2.56186 -6.95963 -15.2913
10.1656 10.0079 -3.94225
-6.05061 -3.95589 -4.52048
-8.08259 -6.41166 9.87704
4.72985 10.0134 7.89791
9.91985 0.234338 5.99829
8.48749 -2.09043 -11.8796
-4.0546 6.76684 -10.0021
-3.24221 4.85537 -14.5549
2.80495 10.0161 -7.96455
8.87089 -1.44814 -10.1022
4.4288 -6.26562 18.8513
-5.19589 -0.114917 15.3825
-8.21235 2.18636 -7.89002
9.42508 -10.0062 -2.75663
-4.26906 6.08424 -1.09837
5.78595 6.13426 4.47839
-8.21088 5.92927 8.17937
-3.82422 7.84893 -2.07036
6.04155 -2.34838 -19.0072
-7.97928 -1.7487 -9.93324
9.815 -3.22094 5.04891
-3.3252 -4.79079 17.0528
-1.54006 7.93163 -4.98839
6.54956 -5.13209 -11.9084
-5.12062 10.0187 -8.41431
2.37277 -6.3746 -5.98347
-0.245009 8.31035 10.0051
-8.09221 4.95953 -9.85199
8.46081 -2.18084 14.5445
4.45274 -0.17166 19.0037
6.57092 -2.36649 -5.51296
-6.08002 -5.82275 -1.42423
3.84359 9.92052 5.86652
-2.41006 -5.58472 11.872
-8.2091 -5.83494 7.9862
-2.29024 -10.0128 8.35011
7.92417 -3.95573 4.51831
-1.46586 -8.24459 -10.0099
7.0774 -10.0051 -6.04434
0.617351 -6.75223 18.8885
-5.89365 10.0053 4.34092
-2.99252 -9.86554 3.85385
11.5837 -0.402632 -9.87603
-0.00585664 4.53343 -5.71366
-0.178853 -6.72385 -11.8992
8.08785 3.1036 -17.0326
-8.08565 -0.533253 6.17902
11.7112 -0.631682 -6.13052
0.528247 -6.88594 13.7473
-1.36993 6.04531 5.09447
-6.33444 4.13385 4.35479
-4.41137 -3.23132 13.5909
-0.394466 6.65324 -13.8389
7.70181 -9.90116 9.83625
-1.14949 10.0116 7.92175
11.6445 -6.646 -9.88035
-4.01725 3.89083 11.8778
-3.53585 5.53749 -2.82514
4.54824 6.25567 -18.9138
11.8078 0.246857 -8.01319
3.87494 6.69018 -13.6065
6.27363 -7.80327 10.0125
5.92365 -0.563616 -5.99103
3.10798 -4.51389 19.0058
3.86742 9.94141 -5.8482
5.72836 5.78533 11.8948
-0.291229 9.92033 -9.80969
8.00117 -2.854 18.906
-6.35501 -7.80444 10.0124
9.59161 10.0077 -2.05165
6.54037 9.83974 3.94557
1.10871 6.76007 -18.8735
8.82089 1.5135 10.0961
-1.82489 5.87483 -4.78557
9.8092 -1.59395 5.78685
4.66264 -0.751404 -19.0035
-6.456 9.83904 9.8527
1.86454 9.90854 -9.82098
6.14694 1.6535 19.003
3.08777 8.39102 -9.99705
-5.1977 0.257 -15.3336
8.28319 -2.66479 17.0885
10.0562 -2.9139 -5.24217
-5.51252 -10.0032 -6.43372
0.439985 5.58264 5.8513
-8.06593 6.6096 -9.83711
-8.09971 -4.77623 3.95176
-8.12266 0.832517 -6.12655
11.8101 7.68682 2.53507
-4.18483 8.01477 -0.0907348
5.17738 -10.0058 -6.71147
6.69977 2.72792 -5.34969
-6.0753 -10.0185 -8.07219
6.72027 -4.98031 15.4132
11.8026 -4.50503 6.53725
-3.91955 -4.03943 15.311
11.8082 -1.77576 7.82592
-5.09559 -1.19787 13.6586
-8.20387 6.60153 6.50737
-3.03413 -2.62642 5.4013
8.82184 1.48469 -10.1185
11.7053 9.79689 -8.21989
11.8086 6.37585 4.41975
-6.40289 -5.5839 10.0052
-8.20791 4.09863 -7.5202
8.48477 10.0053 -4.11006
3.00542 6.91017 -11.8172
7.38198 7.85138 -2.18105
11.805 7.82744 8.05876
-3.35724 4.75175 16.9828
-8.15256 6.20468 0.57014
6.69011 -0.332596 -19.0037
7.02497 -4.65182 11.9559
-8.20545 7.70517 -6.20016
7.94297 -6.18386 -0.147878
6.12007 5.29819 -18.9281
-0.117659 6.43281 -5.68587
11.8108 -5.85717 8.2102
-8.09834 -3.59686 5.09443
1.96628 3.36121 -6.01001
11.6508 -9.87033 4.146
8.36625 2.42771 11.9868
0.270086 8.29781 -5.80691
6.30502 -10.0105 -8.11837
4.21134 -9.83414 5.67712
0.809051 8.48014 -10.0025
-3.82255 -4.17143 -13.5633
8.15844 -2.93105 -13.7461
11.5969 -4.07601 9.90451
-6.37964 -10.0153 8.22221
6.00006 5.60155 -15.52
-3.17864 -5.22507 -3.44885
8.09577 4.34112 4.13342
-8.06736 -9.87632 2.06043
4.05054 -10.0105 -8.1404
11.8091 -8.01965 -0.932502
-8.20385 -4.75544 -6.21719
-4.24599 1.38634 5.83589
9.80603 10.0095 0.0715276
-4.74551 2.81942 10.1263
0.480363 6.6635 18.8759
-2.44539 -8.19404 4.24252
-5.07464 -1.33613 -11.7723
-0.556883 -9.79697 -9.86095
-4.13345 -5.95233 1.54794
7.57793 7.96197 1.56971
-8.05343 -5.04472 -9.85121
11.6803 4.17619 4.54091
-2.34004 -6.38417 4.34124
4.20942 -9.90535 9.7681
-8.0222 9.91949 5.74809
4.47254 -4.24779 5.37618
2.90048 2.86255 5.8942
-2.71917 1.41431 -19.0046
-8.06686 -9.89256 -2.11137
7.45401 -4.42408 10.1511
-6.07065 5.7745 10.0083
-5.15214 -0.847187 -17.0764
-2.82627 -1.07809 19.004
6.01308 4.19009 4.37837
-8.20411 -6.58419 -6.29926
7.7796 8.02158 -0.356732
-5.20068 -0.131993 11.9834
8.79418 0.642538 17.2358
-0.33034 4.68237 -19.0046
5.2186 8.02571 -10.0025
-4.48315 3.25331 5.04524
11.8064 -8.15756 5.27019
4.84803 -0.743422 5.96208
-6.57075 1.94603 10.0024
-0.0424031 -6.77802 17.143
-8.20705 6.26338 4.71394
11.6186 -9.88254 -9.62054
3.67792 8.16076 5.69155
3.30926 0.944014 -19.0018
6.75853 -9.86992 -3.67717
0.0562005 6.7957 16.9619
-4.74513 -6.22815 10.0019
6.15937 -4.35006 4.24911
2.87267 6.74891 -18.8992
8.6707 1.34512 15.5154
-8.2047 6.19034 -7.89459
11.8061 -5.8475 5.10855
-0.948196 6.58655 10.1235
-8.08349 -3.61226 -4.97799
-8.06326 9.79689 9.69804
9.61611 10.0046 2.18459
11.8053 -7.9505 1.10018
-8.20836 8.37368 -4.31407
5.27596 6.08234 15.3473
9.80168 5.945 0.837841
-5.92366 10.0073 -3.51091
-4.11767 -3.45545 -18.8456
-3.72936 -4.32929 -17.0263
9.67116 10.0036 -5.92699
8.06254 6.36854 -10.0019
-1.02204 9.88689 -5.48695
1.38902 4.84891 19.0058
7.91701 -6.41491 -10.0014
6.96112 4.7596 -17.2374
5.40534 -9.89541 -4.95467
5.8925 9.87697 -9.89156
-0.489658 -6.64524 -17.1397
3.65637 -2.33089 19.0029
-1.40075 -0.611416 -19.0034
-8.06029 -5.67919 -2.35495
8.25369 -3.06075 10.1235
-3.17852 0.976901 19.0057
-2.19611 5.7553 -13.4108
7.95531 -10.0041 5.34732
-8.08458 4.16496 4.53583
4.03144 2.09039 19.0028
5.06 7.73275 -5.02454
6.20898 -5.64582 10.1235
11.8054 6.19531 -7.42063
-0.43385 -1.671 19.0048
11.6177 1.20159 -9.91523
6.54095 4.96487 18.7469
-4.00036 3.92383 15.2769
0.714293 -4.6959 -19.0036
1.93734 2.91496 19.0022
-8.10427 1.01845 9.84845
-2.42154 5.2979 -18.829
9.91553 -4.29911 -4.17195
0.650845 -9.79697 9.93207
5.85035 5.90295 -10.1051
-4.3426 -6.16444 -0.115978
7.65547 -3.83817 13.654
-8.11962 5.76126 -2.36758
1.3881 -2.89221 19.0028
4.28956 -1.51568 -5.80668
3.76804 0.250985 -5.99959
-8.04723 9.87847 3.96821
6.82345 7.60388 3.26564
6.57981 9.88494 -3.91258
7.96917 -9.8643 -0.133239
11.8085 7.96433 -7.92814
11.774 -3.39041 -9.79693
4.38583 4.54404 5.42241
2.71824 6.93977 -15.3746
2.42902 -6.97361 13.5809
-3.28396 -9.82633 9.90242
-2.52636 -5.50235 -13.6434
0.670818 0.138394 19.0023
-8.06487 9.89376 7.60886
-8.11601 5.16201 3.26564
-2.46724 5.54617 11.8337
-4.28256 -3.47553 -15.2413
2.90478 -8.02525 5.88682
11.6954 -2.4012 5.72182
-8.06777 6.62599 9.90383
-6.46028 0.982965 -5.91812
11.6922 -9.84339 -7.53575
-8.21441 -1.79308 -7.95822
8.73638 1.14251 -17.0709
-2.47715 5.53501 -11.6741
5.91303 -5.45692 18.8762
11.6016 -5.86934 9.89546
9.3995 5.24534 -2.91583
8.37196 10.009 -7.78314
11.8041 3.88892 7.59744
4.09542 6.62732 17.1074
8.12951 3.25462 10.1235
-4.04858 -5.86274 -1.82767
-4.97751 1.26317 18.8871
-1.41452 -6.00914 -18.8858
-8.07792 6.05196 -0.879755
8.40545 2.34102 13.9136
-2.3716 7.89524 10.0099
0.460766 -1.0182 -5.93329
-1.74737 6.041 -15.3757
-6.17017 -5.59186 -10.0062
3.58792 6.79317 -17.1618
-4.33652 6.11792 0.794109
5.96208 -9.8328 9.92792
2.90249 2.85307 -19.003
7.6986 -5.96484 1.54425
1.92265 -2.57274 6.00645
-4.33762 -9.86543 0.576321
-3.8445 -4.1301 11.9201
4.55818 -6.43719 -15.3578
7.70805 -9.86562 1.69024
-5.03751 5.22112 -2.96026
9.76067 5.88695 -1.11862
2.55184 -0.904645 -19.003
-2.88781 -5.39357 10.1235
-5.38447 -1.22059 -10.0199
5.97706 -4.20636 -4.44763
-4.38055 -3.27452 -11.851
11.6781 -9.85459 0.0792673
2.53494 6.96062 13.5981
-1.57498 6.13822 13.4611
11.6178 -8.39522 -9.90392
-4.52594 3.01904 17.0817
-1.19757 -8.31615 10.0057
1.60351 -7.28568 10.0375
-8.04712 -9.89248 0.0690707
1.70915 8.30183 6.01538
-5.18478 -0.509273 -13.5401
3.40394 -9.9068 -5.96246
-1.66644 8.03983 4.9014
7.26257 -7.8447 2.46817
9.22508 10.0051 4.09434
7.59259 -9.89021 -2.04287
11.6345 5.95669 1.46503
-4.75374 0.457221 -5.99863
-2.27099 -5.7194 -17.1821
5.18326 5.88447 18.9088
-8.07137 -9.18125 -9.86499
8.62513 0.352004 18.9435
-0.899447 -6.45856 -13.7399
7.91368 -2.35712 5.52814
7.25045 4.691 10.1235
-1.48409 -6.18549 13.5934
6.1169 -10.005 6.50602
-6.21042 2.39136 5.50095
0.476808 -6.88067 -15.4717
-4.42508 10.0082 -4.84152
-3.03066 8.28028 3.5417
5.4541 -5.98589 -17.0709
-8.04908 8.25809 9.92114
-2.23858 9.87237 -9.81275
4.1263 -6.6079 -13.5635
2.19645 -1.05514 19.0033
-0.741156 -6.52722 15.3499
-2.82194 6.52792 3.81919
-8.20755 2.14675 7.78919
-1.81757 6.19602 -10.0876
-8.20658 0.179626 -8.05635
5.39418 6.02496 -17.2232
7.3459 4.29679 17.1065
1.25933 -6.97909 15.5392
3.98354 -2.45917 5.62674
3.72941 -2.59463 -19.003
-3.50368 -7.66011 2.80143
4.73902 6.49668 10.1131
7.22267 -4.4667 17.2636
0.332721 -6.18041 -5.82125
5.69791 -5.8292 17.0792
2.14309 9.92308 9.80046
9.40624 5.41485 2.60487
9.56327 -9.91206 9.84058
7.95007 6.13685 -0.121331
-0.624731 1.28074 -19.0047
4.8885 -9.86415 -9.87341
4.88959 2.74998 5.3662
-0.935776 -8.07084 5.35711
7.57481 10.0023 5.61011
-8.08312 -4.67962 -4.00985
0.896473 10.009 7.93622
-8.06136 -7.08936 -9.87981
10.2025 2.51767 -5.44771
6.22631 -5.42124 13.6421
1.13114 -2.86591 -5.96722
7.89683 9.89078 -0.897271
8.33644 2.55772 17.1834
-3.03013 -7.52926 10.0032
11.6594 0.984743 -6.05647
11.7504 2.61248 -5.5842
-0.189441 6.72608 -16.6181
6.67728 -0.193323 19.006
8.56732 1.81777 -11.8167
-2.54601 -5.29815 18.9093
-3.82753 4.4019 10.112
11.6725 4.67619 9.85279
2.45662 -6.97167 -13.4282
8.74306 -1.03402 16.5965
-4.27635 2.93483 -18.9214
11.7547 -5.19699 -3.48733
8.79 -0.418288 14.7923
-4.8682 2.14806 -15.498
9.53163 0.760577 -5.96378
9.39345 -10.0033 3.32559
-5.98608 -4.81834 3.58422
-4.80891 -2.45005 5.48071
-1.64811 -5.8785 -4.91986
-4.1029 9.88383 -1.86655
1.44576 -6.98256 11.8258
-1.26504 8.17751 -10.0084
7.41978 3.86053 -18.889
0.0179146 6.84005 -10.1267
5.95739 -2.01958 19.0076
11.8104 -8.09306 7.74797
2.25451 8.45488 10.0016
-4.18277 10.0049 5.40799
11.8041 -3.61613 8.03994
-0.327431 -2.45992 -19.0033
5.02584 1.28116 -19.0044
0.971472 -8.06665 5.96157
3.24755 -6.85958 15.3305
2.16426 -10.0137 -7.97818
3.64398 6.59045 18.9102
-5.18149 0.678803 -11.896
0.172588 -6.98579 10.097
-1.13363 10.0086 -7.72721
9.8051 -10.0102 7.52524
6.63324 10.0096 -8.20119
4.55121 6.44024 13.6283
11.8038 -5.6863 -5.73192
6.61665 -9.843 -9.85456
6.31725 10.0049 7.29621
-8.0474 9.91207 -4.99074
11.6392 8.18205 9.90065
8.59718 1.70391 -15.2759
1.75338 1.00072 -6.00368
11.5623 -9.82715 9.79693
-4.67145 2.17181 -5.59608
0.165253 -2.00193 5.79404
-3.70808 -0.954414 -5.92456
11.7779 9.79689 8.31156
11.5741 9.81797 -9.85271
2.18472 9.92037 6.12481
7.92972 -3.91032 -4.55615
-3.7005 4.33215 -12.264
4.8713 -3.10204 -5.26467
11.8055 -7.48183 -4.5354
7.66234 -8.03387 -1.27153
5.20628 3.28592 -19.0044
-1.05205 -6.20667 18.9049
-3.2766 4.95674 -10.1235
0.815146 -6.93831 -13.7143
0.58407 -0.700872 -19.0035
8.76282 0.795598 -13.5514
6.46624 -6.55134 3.7784
0.859089 -8.00633 -5.92569
-5.03527 -0.553593 18.8901
-5.04412 1.49834 -13.671
-2.82473 10.0066 -6.30538
-1.7113 3.17315 -19.0037
6.18711 -8.22463 4.06118
11.7489 6.35947 -9.77855
2.86094 -9.84885 -9.87913
-8.21156 -7.96569 -7.86908
-8.20975 -3.71097 -7.81807
0.481189 9.88932 9.87704
-4.26695 6.40251 10.0001
-3.89995 5.68872 2.47075
-5.96954 -7.86975 -10.0163
-4.60294 -2.44968 18.8991
8.63197 -5.11973 -3.11386
-3.67352 4.14729 18.8827
9.67813 5.16971 10.005
-2.64515 2.88938 5.25099
-6.38585 4.28053 -10.0102
-3.54835 -7.93078 -10.0094
6.00925 -7.88396 -10.0069
-8.11504 -2.22856 5.81631
8.51399 2.54494 -5.43581
11.8031 5.35725 6.12083
-6.37333 -3.45983 4.89996
4.00996 6.71591 -10.1312
11.8071 6.08082 -5.23383
11.7063 2.83303 5.55066
-8.08034 -9.82702 7.80911
-5.39032 0.290613 -10.0163
-2.95353 -9.83653 -9.84677
6.14404 -5.29817 -18.7963
-1.49576 -6.38499 10.16
11.682 -6.18013 -0.0749441
7.88516 9.85632 0.912081
-2.25001 1.04186 5.91781
1.65649 -2.8082 -19.003
-4.09339 -7.99473 -0.99702
9.64037 -4.57572 10.0047
-1.14426 4.11559 5.23049
6.52804 5.1556 -11.888
10.1256 -8.32668 10.0246
-4.91185 2.00025 15.4087
2.82652 -4.68599 -19.0033
-5.25953 -0.464156 10.1578
-6.12997 5.36882 2.69379
3.5978 -6.78856 -17.0759
-3.16265 -4.94082 13.6256
9.80899 -5.96176 0.728996
5.33511 9.81303 -4.99787
-1.6259 -0.660322 -5.98
11.8081 7.97521 0.468747
-0.706024 2.36019 5.57291
7.1812 4.47813 -13.5984
2.00142 -7.01792 17.2203
7.29403 -4.55861 -10.1062
2.59966 -4.32104 5.94777
11.7034 -4.93774 -9.82469
8.5167 -1.2701 18.871
11.6764 -9.85211 6.2819
-6.54561 -10.009 4.85475
-3.83861 7.79764 1.94287
-4.22573 8.23078 10.0142
6.2787 0.990779 5.92456
-8.06342 -9.90187 -4.18011
9.93797 -1.05808 -5.90841
4.11148 -4.87488 -5.53618
-8.03333 9.89675 -3.14892
11.8066 2.3425 -7.77172
-1.17623 -4.11182 -19.0071
-5.4902 8.23967 -10.0146
7.66387 5.85339 -1.876
8.4471 -2.4111 -5.49578
6.29375 5.36829 13.5943
3.84719 -8.35572 -10.0053
-3.97286 -4.33754 10.0849
11.6355 8.10302 -9.88548
8.67936 -1.29392 12.6846
11.8065 7.6014 -3.68149
8.01979 4.11955 -4.35898
-6.13304 10.0206 8.16363
-8.02652 -2.667 9.91941
-0.462526 0.370042 5.99778
11.5969 9.90782 5.09055
-0.486506 6.6215 11.7394
2.98325 -0.915002 5.95748
-2.13499 -2.95707 19.0068
2.30239 -1.06071 -5.99948
2.06103 7.02244 17.0657
9.86557 -10.0089 5.37657
-2.49991 -2.4854 -19.0041
0.480683 9.85721 6.02115
-8.00711 -0.232824 -9.94884
-8.10419 -9.83122 4.07203
7.10733 5.31855 3.08899
-3.67284 9.90585 2.9871
9.62614 10.0052 6.06145
0.550386 -4.23674 5.8779
11.6096 9.88368 3.35815
11.6498 -3.95041 4.67214
-4.31413 -9.89964 -1.08131
8.49632 -1.43592 -18.9461
11.8064 -1.92986 -7.92255
11.8078 8.23418 4.38117
-2.07751 -3.93026 -4.68195
7.98069 3.30391 15.5016
9.26013 8.16976 -10.0237
9.81377 -7.43675 -10.0091
9.55607 7.71137 10.0138
8.14559 -0.391661 5.99811
-4.02768 -4.26421 -10.1099
-0.289918 -6.41927 5.62756
8.22354 -3.23044 -10.1214
2.45775 -9.80302 9.90618
-4.35486 9.89399 -0.311459
1.14666 -9.79697 -9.90945
5.9599 4.16648 -4.40194
7.6012 3.91927 13.6465
-3.25737 -4.83648 -11.7941
6.95434 5.1061 -3.2772
-6.01907 10.0071 6.33246
2.47355 0.943832 19.0016
1.52842 -7.00163 -11.8011
8.78342 -0.172307 -11.8438
5.4888 8.03747 4.7266
5.74218 -5.78566 -13.6932
-6.16053 10.0137 -1.51783
1.43403 1.09688 -19.0029
11.6576 -9.89033 8.15133
-6.0522 -10.0083 -2.85311
-5.14506 0.906107 17.1108
-6.53472 2.24012 -10.0138
1.79825 7.44724 -6.01565
1.03778 1.71362 5.95797
-2.97671 9.8923 9.79672
2.98592 -7.04284 10.1103
-4.77973 -2.42522 -5.49149
-8.09965 -0.969921 9.78712
4.72162 -7.89108 5.24237
-1.69441 6.09179 -17.3512
4.28201 -6.6962 -10.1123
-6.61051 5.39759 -2.60727
11.8029 -6.70239 6.58989
1.59741 -9.87998 -6.14685
-6.24563 5.93885 0.844989
-8.06192 -6.06815 1.14757
0.401695 6.863 13.4023
9.69324 -5.90218 -1.07013
-1.15758 -5.01763 5.23183
2.46586 4.79694 5.97022
11.7268 -2.3357 9.81746
-0.712516 6.53983 15.1923
-2.49348 -5.53431 15.2848
7.04746 -9.93213 3.26774
-4.6125 -8.33242 10.0119
8.79882 -0.159659 -15.4067
-3.12332 -0.648843 5.98027
4.83186 -4.0972 -19.007
8.30075 2.25634 -18.8147
11.7041 6.13171 -0.306867
4.14933 -8.35685 10.0077
-3.50447 -7.62152 -2.79245
-5.20044 1.07007 10.1522
8.23181 1.53134 5.79938
-8.10077 9.85355 -6.78791
-3.94352 -9.88107 2.27958
8.7616 -1.48879 10.2074
-3.12459 10.0132 -8.1465
0.20282 -9.88198 5.90382
8.17647 6.36841 10.0023
7.00619 -7.5897 -2.97393
-2.48571 5.71008 10.1087
-2.66291 -2.37539 -5.50784
6.52005 6.66883 -3.71489
3.41544 2.05532 -5.76254
5.9494 -5.83701 -10.102
-8.0952 2.75496 5.5506
-5.97111 10.0066 2.52772
-6.32711 -3.46381 -10.0101
6.95598 -5.25792 -3.25215
10.1609 -2.41044 10.0059
-0.0659112 -10.0097 7.96809
11.5969 -1.76614 -9.89699
-2.92059 -4.91299 -18.8207
2.1789 -9.85836 6.15983
10.219 -5.36479 -2.65498
-4.11624 10.0069 7.82175
8.24008 3.14243 -10.123
9.08881 -0.03502 10.0368
11.8064 5.85404 8.01014
-6.36144 6.60687 -10.0109
9.58984 -5.18926 -10.0025
1.30938 6.98166 15.1979
8.77369 0.704064 13.3872
0.570921 -7.1568 -10.0504
-5.07451 1.87963 -10.1624
-0.938745 -7.87005 -5.33392
1.58594 -7.01333 -17.0887
-5.03285 5.32351 -9.999
3.05619 -3.03855 -5.86953
8.77846 0.351507 11.6496
7.95309 -0.740175 -5.96703
3.40002 8.27803 -5.77313
-4.10663 -8.00146 0.991702
10.0563 -3.11669 -10.0064
-4.19813 9.83292 1.39362
-2.59888 10.0047 6.79094
1.64164 7.01245 -17.0739
7.36549 9.88876 2.58354
-8.07866 2.96563 9.82208
-8.07081 -0.707167 -6.0979
-5.09809 -1.22379 17.1121
-6.05481 5.91992 -0.997438
4.92439 6.25571 -11.8896
0.296724 2.51596 -5.80752
4.8209 3.0644 -5.22786
8.25991 2.68963 -13.469
1.18356 -0.46123 5.99564
5.86566 10.0046 -6.58446
11.8046 4.33131 -6.48549
3.55857 -6.78759 11.9096
-4.57984 -3.21435 10.1728
1.94737 7.08373 -10.1261
-4.68633 -2.6683 -17.078
-4.80805 10.0063 -6.74068
-6.00114 -0.890309 -5.93737
-4.92883 1.95966 11.9416
-0.741946 -2.55455 -5.50937
1.22105 -4.97257 19.005
6.72206 1.80749 -19.0126
2.27157 -7.17031 -10.0658
-0.498645 6.5141 -18.7933
-1.08901 6.21588 18.8949
2.10452 9.8873 -6.07826
11.8057 -7.72568 -2.81671
-5.14821 -1.85909 10.1073
-1.46555 -6.20061 -15.4544
7.95878 -3.01044 -18.8802
-8.01804 -9.88711 -6.46216
2.12651 6.62403 6.01416
11.718 -5.8892 -1.83276
3.36249 -6.83793 -11.7207
6.51151 -1.02093 5.92484
-4.77538 -0.595831 5.98842
5.21276 -6.00459 4.93843
-4.41035 3.46974 -10.1062
8.76655 -0.893358 -17.2231
8.19789 -8.18985 10.0089
