-0.535651 -0.425718 -0.802995
-0.468236 -0.0637518 -0.985713
0.56366 -0.555563 -0.550057
-0.0568045 0.152471 0.802161
0.0503712 0.240802 0.0172987
-0.396538 -0.175518 0.3748
0.724263 -0.0387985 -0.0502153
0.623347 -0.338727 -0.920423
-0.762358 0.20546 0.718233
-0.207858 0.376646 -0.492423
-0.697057 0.0758295 0.173976
0.507983 0.339243 -0.432837
0.873979 -0.202031 -0.863757
-0.723194 0.444184 0.598294
0.351925 -0.704255 -0.591926
0.0177902 -0.508816 0.057579
-0.204658 -0.0703596 0.217268
0.0868374 0.121036 -0.926824
-0.362537 -0.587898 -0.222662
0.0530856 0.487582 -0.462785
-0.38743 -0.0712778 0.29485
0.669554 0.186839 -0.602825
0.050458 -0.630128 -0.82879
-0.405195 -0.437367 -0.97798
-0.843902 0.0155615 -0.0492765
-0.75928 0.223438 0.53806
-0.454296 0.10022 -0.816219
0.121554 0.181707 0.110258
-0.608035 0.741377 0.91548
-0.210311 -0.519508 -0.635393
-0.829014 0.0551357 -0.101526
-0.518502 -0.434503 -0.976699
-0.330286 -0.10826 0.676304
-0.46557 -0.351779 0.565549
-0.900248 -0.428675 0.0571593
0.635343 0.204819 -0.667561
-0.0612641 0.298061 -0.105266
0.716223 0.161205 -0.270897
0.490552 -0.485569 -0.000897727
-0.362658 0.243357 -0.359166
0.201994 -0.656454 -0.808817
-0.347434 0.140289 -0.797887
0.253489 -0.0714022 0.264571
-0.491587 -0.545452 0.205293
0.321511 -0.0742698 0.261506
-0.692909 0.319068 0.795972
0.178346 -0.0484371 -0.943036
-0.903131 -0.19184 -0.375827
0.348635 -0.721565 -0.32709
-0.136416 -0.249019 0.192412
0.533615 0.227612 -0.827983
-0.704063 -0.148964 0.61041
-0.0138218 -0.096502 0.226496
0.0236351 0.0933657 0.67149
0.313519 0.103187 0.187001
-0.299758 -0.0989498 0.552489
-0.00553473 0.283054 0.822794
-0.227541 -0.356481 -0.981847
-0.586073 0.652028 0.763109
0.355803 0.382733 -0.733285
-0.865832 -0.565843 0.0229375
-0.135875 -0.0138464 0.18679
0.692257 0.138201 -0.148756
0.250691 0.358254 -0.173644
-0.0413405 -0.37479 -0.935027
-0.148962 0.452578 -0.289891
0.200521 -0.699149 -0.187643
-0.299963 -0.054298 0.506831
0.326599 0.391511 -0.661687
-0.664958 -0.581297 -0.33584
0.236406 0.433294 -0.540498
-0.110521 0.0597165 0.16473
-0.946467 -0.162134 0.067065
0.559936 0.271803 -0.222071
-0.231228 -0.418417 0.116072
0.411208 -0.682794 -0.323092
-0.97327 -0.2303 0.27664
-0.680547 -0.531527 -0.427692
-0.686902 0.0274054 -0.545549
0.483926 -0.575218 -0.771937
-0.745253 0.214255 0.590888
-0.0581154 -0.610157 -0.621521
-0.80636 0.00154374 0.425714
0.359002 0.403038 -0.463834
-0.317915 0.177793 -0.549052
-0.851032 -0.483975 0.0203082
0.268827 -0.524445 -0.995135
0.373207 -0.289413 0.243047
-0.448204 0.162638 -0.516793
-0.944124 -0.284867 0.396612
-0.291563 -0.573454 -0.218794
-0.145953 -0.510587 -0.585691
-0.063514 -0.66712 -0.500896
-0.440441 -0.0409837 0.386804
-0.0424989 0.48789 -0.525372
-0.0710257 0.00642723 0.64203
-0.920029 -0.272277 -0.294182
0.0325594 -0.691752 -0.65332
-0.546785 -0.587295 -0.14059
0.375261 -0.701206 -0.390707
-0.887836 -0.120669 0.0131618
-0.0133961 0.193479 0.851534
-0.0178405 -0.220776 -0.9377
-0.81217 -0.672834 0.363128
-0.204698 -0.293597 0.19381
-0.251059 0.205109 -0.94217
-0.478061 0.204326 -0.444217
-0.469148 -0.409667 -0.624071
0.141587 0.422522 -0.706307
0.212948 -0.49859 0.114527
-0.0855912 -0.429594 0.108656
-0.318729 0.367764 -0.933598
-0.884698 -0.0702152 -0.345786
0.096645 0.132114 0.155606
0.141504 0.299534 -0.125887
0.0015885 0.253101 -0.00746396
-0.651577 0.178927 -0.114088
-0.526727 -0.410227 0.583781
0.404041 -0.635218 -0.196239
0.280215 -0.232343 -0.997351
-0.242163 0.380603 -0.897088
0.242107 -0.595838 -0.86625
-0.408167 -0.0978624 0.367983
0.163622 -0.75014 -0.397123
-0.965023 -0.360757 0.290691
0.0150396 0.202837 -0.930846
-0.855709 -0.67458 0.309495
-0.670956 -0.646806 0.405956
0.204278 0.414018 -0.200133
0.00349388 -0.701071 -0.2158
-0.741836 0.390531 0.534065
0.432234 0.160421 0.101833
0.266838 -0.687784 -0.768159
-0.293758 -0.56999 -0.463861
-0.896735 -0.179803 0.00748297
-0.233792 0.00535145 -0.933911
-0.00502279 0.395656 -0.792654
0.214537 -0.408785 -0.932608
0.056172 -0.656102 -0.166886
-0.499767 0.108336 -0.870965
-0.386017 0.260751 -0.169962
-0.844814 -0.159927 0.580282
-0.639722 0.0673657 0.416968
0.921807 -0.226934 -0.816122
-0.0449016 0.0642085 -0.929593
-0.746476 -0.221557 0.612625
0.568412 0.299444 -0.429588
0.809986 -0.239549 -0.455755
-0.612233 0.0159558 -0.98301
0.553249 0.0931739 0.0769199
-0.868903 -0.0681011 0.0429909
0.651838 0.094958 -0.856136
-0.886815 -0.353395 0.56419
0.727932 -0.309187 -0.0768075
-0.440374 -0.191917 -0.972962
-0.682531 0.0422018 -0.973874
-0.0646574 -0.70468 -0.881356
0.27039 -0.200901 0.270415
-0.231814 0.114959 0.136029
-0.68261 -0.0265285 0.624052
-0.352064 -0.566965 -0.503734
0.399243 0.292836 -0.118925
-0.61069 -0.538004 -0.469293
-0.0950344 0.492768 -0.473377
0.117606 -0.310855 -0.9377
-0.899074 -0.0251935 -0.17456
0.551906 0.147591 0.0194208
-0.607966 -0.108876 -0.64315
-0.692176 -0.538709 -0.0866097
0.804674 -0.347183 -0.839696
0.647567 0.105774 -0.78287
-0.260502 -0.252218 0.222876
-0.627191 0.561177 0.829589
-0.254055 0.155457 -0.626189
-0.451283 0.111662 -0.670201
0.790996 -0.303683 -0.459064
-0.935089 -0.378948 0.501324
0.0415625 0.323574 0.971819
-0.669371 0.0100449 -0.863071
0.98767 -0.215798 -0.597842
0.313511 -0.337483 0.239421
-0.455031 -0.235441 -0.70645
0.514131 -0.514159 -0.799194
-0.477038 -0.413906 0.543741
0.271918 0.423755 -0.599178
0.21829 -0.729241 -0.64823
0.101286 -0.185888 0.255031
-0.880265 -0.397979 -0.278674
0.471522 0.332653 -0.763475
-0.569596 0.0977452 -0.906122
0.58116 -0.502171 -0.747286
-0.427917 -0.00634748 0.487261
-0.0775333 0.46497 -0.579188
0.277093 0.185504 -0.976666
-0.179292 0.217545 -0.927191
0.023202 0.057941 -0.928698
0.528312 0.28754 -0.713677
-0.964329 -0.226681 0.0693551
0.12659 0.381514 -0.829283
0.434733 -0.562806 -0.897973
-0.569748 0.100867 -0.973878
-0.47453 -0.464975 0.325396
0.962329 -0.282471 -0.627026
-0.771377 0.365191 0.794336
0.696955 -0.375623 -0.090921
-0.607871 0.0075546 -0.828397
-0.0702187 0.496563 -0.399126
-0.473385 -0.258838 -0.830201
-0.511901 -0.085128 0.640844
-0.20587 0.420372 -0.430197
-0.170072 -0.340441 -0.941344
-0.323478 0.194566 -0.980033
0.48588 0.00244642 0.179399
0.823378 -0.134296 -0.497636
-0.178411 0.381104 -0.255128
-0.449844 -0.427284 -0.691731
-0.319008 0.207745 -0.479259
-0.65489 -0.443561 -0.959761
0.756052 0.0989841 -0.267254
-0.490581 -0.345439 -0.805404
-0.183672 -0.490205 0.0150198
-0.704241 0.243258 0.764977
-0.732226 0.357885 0.59585
0.165577 -0.739542 -0.539324
-0.750304 0.0382177 0.460786
-0.0809528 0.346369 -0.969738
-0.884043 -0.146206 0.52544
0.455597 0.361445 -0.38132
0.0441826 -0.281515 -0.937827
-0.646742 -0.601096 -0.270098
-0.796691 -0.694824 0.165912
-0.1934 -0.40808 -0.939926
-0.409794 0.197429 -0.45913
-0.808821 0.485229 0.808269
0.66837 -0.154443 0.0470409
0.846713 0.0841853 -0.731722
-0.789336 -0.73104 0.234414
0.165573 -0.462861 -0.936392
-0.524844 0.176156 -0.493154
-0.917221 -0.159995 -0.0587465
-0.142303 0.193126 0.0542916
-0.716783 0.283598 0.504
-0.148511 -0.398039 0.118534
-0.84247 -0.092678 0.544901
-0.909701 -0.136645 -0.325759
0.150799 0.40425 -0.769481
-0.682518 0.099737 0.0449148
-0.737468 0.611969 0.856404
0.130833 0.455693 -0.241038
-0.00101842 -0.076608 -0.933955
-0.108367 0.104685 0.84208
0.330817 0.357783 -0.81336
0.452747 0.0611248 0.166396
-0.577563 -0.632085 0.131219
-0.657267 0.126545 -0.489224
-0.669959 -0.574372 -0.150216
-0.382211 0.261561 -0.875302
-0.309472 -0.400914 0.131345
0.0510185 -0.567808 -0.981895
0.308604 0.418693 -0.53416
-0.82773 0.0690593 -0.339455
0.417918 -0.237367 0.23657
0.415807 -0.639741 -0.674737
0.224421 -0.0837913 -0.993508
-0.587903 0.3704 0.587508
-0.72065 -0.0393654 -0.886259
-0.124526 0.36341 -0.739068
-0.205723 0.217582 0.0162841
0.663197 -0.30685 0.0373623
0.153616 0.0409882 -0.9294
0.34161 -0.568801 -0.982857
-0.661934 -0.490437 0.56426
-0.595106 0.718002 0.714864
-0.52684 -0.129115 -0.736734
0.652992 0.248046 -0.347681
-0.599825 0.0407192 0.575342
-0.225411 -0.592671 -0.250298
-0.607167 0.447975 0.762969
0.284703 -0.742767 -0.34697
-0.549342 0.161815 0.0668048
0.441197 -0.16263 0.229208
-0.860395 -0.15565 -0.435507
0.862777 -0.333825 -0.79465
0.217165 -0.735704 -0.586343
0.045169 0.172453 0.111607
0.808451 -0.211225 -0.383884
-0.788634 0.104936 -0.122486
-0.681206 -0.496926 -0.481081
0.801676 -0.274675 -0.385118
0.422532 -0.447874 0.118231
-0.775063 0.0251902 0.072923
-0.218107 -0.597958 -0.836825
-0.109146 0.22272 -0.933367
-0.49435 0.140618 0.122509
-0.168551 0.443002 -0.484426
0.397052 -0.405714 0.179038
-0.92562 -0.0841172 -0.281688
0.468546 0.36776 -0.563051
-0.57503 0.365453 0.661336
-0.578957 -0.53273 0.384557
-0.648795 0.0829629 0.109683
-0.819965 -0.133909 -0.494938
0.445872 0.336878 -0.259501
-0.128749 -0.134662 -0.936781
-0.900489 -0.268271 -0.368025
0.400046 -0.609145 -0.121107
-0.786958 -0.503181 -0.153799
0.485329 -0.52229 -0.936809
0.0436656 -0.0137354 -0.932574
0.162861 -0.700011 -0.697031
-0.915208 -0.430665 0.379254
0.442222 -0.266439 -0.994368
-0.930953 -0.137739 -0.119678
-0.831269 -0.201494 -0.490893
-0.373174 -0.377767 -0.984701
-0.145231 -0.531599 -0.959629
0.179032 -0.606932 -0.85111
0.542912 0.162073 -0.843931
-0.78034 0.0898695 -0.394797
-0.887782 -0.335325 -0.325187
0.530665 0.199916 -0.0420534
-0.645239 0.551504 0.577598
-0.538318 -0.575038 0.162234
-0.701234 0.585532 0.588743
-0.106652 -0.659325 -0.28988
-0.859408 -0.40773 -0.0754872
0.419435 0.117707 0.14573
-0.544491 -0.267848 0.60759
-0.503494 -0.185393 -0.795267
-0.738571 0.279494 0.615653
-0.753349 0.0543649 0.307317
-0.391972 0.161456 -0.580876
0.53158 -0.372661 0.132478
-0.474138 -0.278743 0.582831
0.123853 -0.751799 -0.468041
0.0644774 -0.750887 -0.329763
-0.681637 -0.522263 -0.0136122
-0.606865 -0.57284 -0.902624
-0.237226 0.345427 -0.43721
-0.506187 0.0869045 -0.598673
-0.106463 -0.606586 -0.22745
0.139726 0.481955 -0.367246
0.402299 -0.553582 -0.0643612
0.919553 -0.288417 -0.776839
-0.181864 -0.0251709 0.583915
-0.456914 -0.352276 0.490378
0.171454 0.142904 0.1478
-0.768942 0.0538688 0.146072
0.636768 -0.455231 -0.751967
0.809061 -0.0834967 -0.343421
0.598014 0.130991 -0.793403
0.61427 -0.510634 -0.68534
-0.20775 -0.663886 -0.892043
-0.807844 -0.362902 0.590976
-0.196754 0.294676 -0.629707
0.403952 -0.319171 -0.99481
-0.571068 -0.0831294 0.593917
-0.32585 0.148287 -0.613187
0.654026 -0.439259 -0.100711
0.71336 -0.192916 -0.948215
0.221984 0.163129 -0.932865
-0.43035 0.208043 0.0254223
0.314577 0.242896 0.0407936
0.628918 0.254865 -0.421533
-0.448355 -0.483933 0.245983
0.0729873 -0.0846892 -0.935106
0.37676 0.0377072 -0.996166
-0.189484 -0.357973 0.152439
-0.62956 0.375085 0.531052
0.137289 -0.48702 0.125922
-0.0730801 -0.0760386 -0.933899
0.338166 0.280961 -0.979337
-0.805072 -0.622951 0.0255955
-0.959888 -0.162596 0.281518
-0.827736 0.0870257 -0.182546
0.759174 -0.372464 -0.452946
-0.754098 0.305303 0.544539
-0.952963 -0.577017 0.219392
-0.856115 -0.517699 0.490761
0.49335 0.353012 -0.498607
0.671005 -0.228572 0.0405217
-0.0252313 0.237021 0.754323
-0.688078 -0.685336 0.338912
0.415693 0.311938 -0.1958
-0.38275 -0.569722 -0.844803
0.506567 -0.0652012 0.185965
-0.107883 -0.534899 -0.69328
0.0128474 0.189947 0.787934
0.079593 0.298997 0.896676
0.629037 0.159918 -0.728909
-0.0283171 -0.170704 0.227154
-0.621603 -0.515633 -0.86578
0.340463 0.407128 -0.333659
0.914284 -0.339214 -0.65238
0.55263 0.0482777 -0.945006
0.102067 -0.718456 -0.66482
0.74031 -0.26456 -0.920982
0.146623 -0.62627 -0.906628
0.657252 -0.0798182 0.0563177
-0.440431 -0.457985 -0.610165
0.639531 -0.375759 0.0210156
-0.514515 -0.542256 -0.804061
-0.901459 -0.026174 -0.244028
-0.486488 0.00735763 0.369792
0.754063 -0.286221 -0.138015
-0.630206 0.200537 -0.163318
-0.577861 0.033234 0.509233
-0.778441 0.159559 0.611594
-0.180909 -0.588612 -0.981421
-0.442167 -0.297945 0.437934
-0.37992 0.226765 -0.0202468
-0.472429 -0.034688 0.669623
0.7593 -0.0525901 -0.111929
-0.133341 0.0504906 0.892003
0.411684 0.0217181 0.207866
0.425666 0.387015 -0.510593
0.532581 0.23446 -0.101107
-0.304196 0.118244 0.681708
-0.512685 0.0647332 -0.810358
0.703987 -0.115331 -0.957748
-0.574416 -0.179443 -0.82968
0.611509 0.11076 0.0156413
-0.753514 -0.508007 -0.0870941
-0.506248 0.127731 -0.54377
0.686606 -0.0310404 0.00638969
0.803669 -0.221915 -0.315642
-0.495709 -0.236668 -0.983651
-0.0673571 0.249648 0.826148
-0.0700372 0.384015 -0.776061
-0.605122 0.166133 0.658414
0.499788 0.149193 0.0719536
-0.253598 -0.504076 -0.011093
-0.29954 0.0207135 -0.95829
-0.225239 -0.568137 -0.383621
-0.368011 -0.208683 0.305057
-0.771285 0.141018 -0.182076
0.272808 -0.424024 -0.937414
-0.944334 -0.286664 -0.221439
-0.735587 -0.643758 0.43369
-0.883508 -0.0239052 -0.0945699
-0.194088 -0.53279 -0.0521775
-0.213281 0.19509 -0.759466
-0.749884 0.0704638 0.0209823
0.770297 -0.341337 -0.518587
-0.648313 0.305638 0.500697
-0.630799 0.0651771 -0.883981
-0.535969 -0.511471 0.499399
-0.136718 0.232827 0.00775309
0.549339 -0.0254338 0.144203
0.817695 -0.0702839 -0.506574
0.148279 -0.732206 -0.231122
-0.828526 -0.578089 0.457147
0.182494 0.268939 -0.990386
0.080847 0.191392 -0.930844
0.203853 -0.705394 -0.758707
-0.614451 -0.143646 0.604417
-0.918045 -0.505175 0.0465753
0.321037 0.36053 -0.198968
0.87912 -0.0770513 -0.514438
-0.574989 -0.621041 -0.266563
-0.134868 0.208788 0.827978
0.0294194 0.103847 0.149392
-0.34694 0.0236384 0.785604
0.390998 -0.0961633 0.246721
-0.467769 -0.359605 -0.726937
-0.456385 -0.507377 0.0184189
0.585438 -0.243416 0.132572
0.698231 -0.104527 -4.47429e-06
0.235488 -0.747002 -0.404123
-0.123496 0.347994 -0.818349
-0.75355 0.510653 0.87347
0.269638 -0.556811 -0.0755759
0.440229 -0.681272 -0.394435
0.267312 0.375381 -0.790203
-0.257532 -0.372047 0.166412
-0.555678 -0.363875 -0.838511
-0.833072 -0.414324 -0.394641
-0.89574 -0.0223994 -0.30965
-0.254411 -0.535516 -0.820246
0.26089 -0.655489 -0.161756
-0.342634 0.255645 -0.123603
0.766501 0.000839232 -0.162719
-0.788773 -0.537188 0.516582
0.242166 -0.314332 0.249599
-0.336366 0.220526 -0.815612
-0.219437 0.173541 0.0829859
-0.636375 0.737366 0.796176
0.552621 -0.48473 -0.0295877
-0.270568 0.206664 0.044603
-0.455135 -0.477323 -0.9767
-0.0458554 0.277938 -0.0357282
0.555062 0.260412 -0.766214
-0.226032 0.381662 -0.378126
0.695117 -0.457418 -0.211885
0.114563 -0.635671 -0.972465
0.521257 -0.584846 -0.588917
-0.677084 0.199085 -0.29291
-0.418692 -0.31673 0.36237
0.177289 -0.315525 0.248687
-0.864429 -0.678768 0.1976
-0.411632 -0.531585 -0.526156
-0.258967 0.223889 -0.494761
0.336558 -0.626212 -0.162789
0.248334 0.447572 -0.413931
-0.599372 -0.604996 -0.337781
-0.402065 -0.596723 -0.157097
-0.734254 -0.257119 -0.581385
-0.17534 0.0166343 0.856622
0.532481 -0.448327 0.0371665
-0.762027 -0.592691 0.482772
0.0590936 0.385072 -0.822709
0.0342129 0.338808 -0.918404
0.0993229 -0.758581 -0.389783
0.443748 0.213912 -0.92553
-0.775467 0.434781 0.823069
0.259672 0.263098 -0.00718407
0.781849 -0.243188 -0.191699
0.0500743 -0.498571 -0.933389
-0.533283 -0.148155 -0.674
-0.623445 -0.0388294 -0.623509
-0.291606 0.163414 0.099757
-0.13833 -0.458973 -0.930271
-0.076853 0.271119 -0.98861
-0.441659 -0.0959936 0.685155
-0.0301857 -0.397448 0.153653
-0.643538 -0.460223 -0.893642
0.0148071 0.42769 -0.73224
0.802806 -0.0328933 -0.391172
-0.181065 0.0828553 0.583939
0.613103 0.0598181 0.0528917
-0.415191 -0.00786301 -0.984379
-0.444352 -0.499628 0.167135
0.00263124 -0.541969 0.000252834
-0.303769 0.0699187 0.808806
-0.423493 0.256777 -0.321971
-0.610167 -0.69852 0.147528
0.870517 -0.118919 -0.867895
-0.608123 0.0812729 0.161166
-0.668506 -0.160436 -0.62897
0.440291 0.0629621 -0.980638
0.224884 0.079139 -0.928689
0.375056 -0.665661 -0.730809
0.584467 -0.554214 -0.202676
-0.744025 0.16893 -0.312201
-0.735036 -0.595593 0.00612229
-0.0487184 -0.713418 -0.278116
-0.958553 -0.54803 0.0978175
0.264838 -0.707598 -0.215381
-0.57802 0.161098 0.586672
0.796049 -0.130388 -0.214276
-0.774336 -0.184967 -0.540964
-0.927797 -0.0683336 0.155519
-0.616542 -0.5614 -0.963811
0.961774 -0.232717 -0.749667
-0.626899 -0.570607 -0.401423
-0.536839 0.0476795 0.335236
0.597596 -0.484639 -0.0979715
-0.637532 0.204196 0.71903
-0.640329 0.185941 0.470041
-0.510792 -0.509712 -0.976702
-0.284108 0.145482 -0.929899
-0.0171237 0.181462 0.678144
-0.691738 -0.699126 0.0622938
-0.677843 -0.326797 0.614277
-0.307037 0.0850875 -0.942465
0.800591 -0.0199487 -0.537501
-0.548748 -0.617292 -0.891309
-0.126283 0.118963 0.618413
0.659232 0.0402449 0.0098905
0.143212 -0.746099 -0.316609
-0.36958 0.0730237 0.67868
-0.308448 0.228571 -0.000765128
0.00484796 0.498162 -0.391584
-0.950464 -0.300002 0.46754
0.711597 0.0669423 -0.879484
-0.465539 0.0256566 0.30553
-0.0970614 -0.322411 -0.937674
-0.427828 0.143325 0.142253
-0.406281 0.25244 -0.0877804
0.489504 0.0854664 -0.93306
0.489997 0.342901 -0.693555
-0.865295 -0.640902 0.0571
-0.263414 -0.589876 -0.311935
-0.512793 -0.597657 -0.839727
-0.647289 0.39227 0.795919
-0.0390671 0.0860031 0.162538
0.167396 0.32938 -0.869295
0.87017 0.0447328 -0.784258
-0.603948 0.101344 0.618668
0.946417 -0.258343 -0.553224
0.332037 -0.186031 -0.991732
0.69721 0.0882791 -0.0967564
0.62487 -0.380388 -0.859527
-0.597024 -0.571097 0.32116
-0.401936 -0.0817823 -0.986769
-0.542855 -0.284321 -0.982815
-0.623076 -0.487067 -0.522119
0.317262 -0.142572 0.268219
-0.679666 0.153355 -0.0645189
-0.599191 0.120789 0.466475
-0.681324 -0.019131 -0.58909
0.201884 0.427742 -0.668312
-0.215944 0.191429 -0.686987
0.306166 -0.470293 -0.986293
-0.822679 -0.474771 0.54121
-0.648266 -0.39195 -0.922587
-0.130457 -0.0315764 0.638787
0.69457 -0.394245 -0.728763
-0.652033 0.201774 -0.227515
-0.212458 0.261685 -0.979714
-0.0013899 -0.620305 -0.791159
-0.700351 0.352716 0.507826
0.467054 -0.613621 -0.220225
0.25296 0.340821 -0.848105
0.0268063 0.495717 -0.315769
0.19301 -0.139055 -0.982139
-0.213756 0.153435 -0.923499
-0.390251 -0.491346 0.0352537
-0.996731 -0.307256 0.18223
-0.393807 -0.612109 -0.28236
0.426609 -0.51124 -0.00618648
0.111188 0.352393 0.822264
0.806079 -0.145298 -0.291171
-0.484189 -0.180431 -0.711967
-0.577234 -0.45581 -0.567188
-0.605768 -0.622042 0.270619
-0.224965 0.259614 -0.559351
0.531436 -0.599769 -0.215463
0.721271 0.102924 -0.816194
-0.000755357 -0.0259134 0.215548
-0.00825068 0.288882 0.948459
-0.26341 0.0754612 0.56704
0.519966 0.271755 -0.156284
-0.155701 0.166919 0.87912
-0.527017 -0.335169 0.597529
-0.245481 -0.0187213 0.692054
-0.841545 -0.0606797 0.430825
-0.928232 -0.336563 -0.171876
0.594074 -0.569537 -0.331884
0.812814 -0.167808 -0.438051
0.369022 -0.441946 -0.99467
-0.52684 0.246386 -0.159113
-0.693726 -0.602913 0.478638
0.650705 -0.164497 -0.976158
0.678471 0.148364 -0.670478
-0.126739 -0.518592 -0.014777
0.261033 -0.373394 0.221599
-0.683593 0.530031 0.86211
-0.926652 -0.0942636 0.280162
-0.418953 0.175031 0.0848376
-0.0121479 -0.514646 -0.932278
-0.197369 0.375534 -0.967083
0.108352 0.333503 -0.928906
0.276249 0.431885 -0.287078
-0.587792 -0.50901 0.543547
-0.554478 -0.56 0.258714
0.281629 -0.00603852 0.249763
-0.652847 -0.683167 0.270088
0.20803 0.441796 -0.262378
-0.582706 0.749018 0.772991
-0.205866 0.0199772 0.7447
0.385976 0.357643 -0.236117
-0.721837 0.177399 0.48348
-0.266028 -0.565409 -0.14327
-0.576367 0.181794 0.0051569
0.0468734 0.310515 -0.979178
-0.265199 -0.536949 -0.080336
0.0780847 -0.65048 -0.894222
0.961364 -0.0213439 -0.68014
-0.645192 0.031227 0.628909
-0.59965 -0.180566 -0.656588
0.239088 0.238835 0.0655747
0.528349 0.323397 -0.361097
-0.866198 -0.678207 0.125025
0.509617 -0.389377 -0.962937
0.67194 -0.502963 -0.450065
0.669173 0.0398442 -0.926982
-0.146629 -0.494496 -0.657611
-0.859581 -0.110516 0.47077
0.0409221 0.275749 0.763195
0.495747 0.186756 0.0152198
0.870774 0.0729078 -0.669919
-0.448535 -0.555679 -0.977996
-0.581267 0.695094 0.812256
0.36257 -0.575222 -0.921297
0.372131 0.410688 -0.535019
0.841837 -0.349362 -0.614282
-0.140104 -0.313694 0.16113
0.229787 0.110648 0.179448
0.693233 -0.471637 -0.50727
-0.581729 0.2409 0.561448
0.712368 0.125829 -0.610826
-0.629891 0.331408 0.76307
-0.618157 0.13324 0.0581307
-0.791085 -0.516659 -0.283255
-0.0643544 -0.642785 -0.984325
0.781164 0.0316515 -0.3903
0.439907 0.294637 -0.825081
-0.701858 0.673288 0.881145
-0.531215 -0.406669 -0.607145
-0.67183 0.126155 0.45042
-0.132736 -0.701374 -0.886712
0.516602 0.321945 -0.569653
-0.144598 0.260716 -0.97976
0.0270404 0.480455 -0.535475
-0.706224 0.0770886 0.256932
-0.914125 -0.0448127 0.233184
-0.669498 -0.642959 0.0327016
-0.780047 0.00252846 0.505696
0.411597 0.385079 -0.592811
-0.313858 0.128254 -0.680215
0.118847 -0.117262 0.255352
-0.586278 0.0550422 0.448544
-0.396886 -0.172088 0.51108
-0.158069 0.060608 0.798601
0.792266 -0.273356 -0.258073
-0.441392 -0.398812 0.350368
0.21857 -0.580971 -0.122067
-0.0179448 0.329039 -0.971707
0.263051 -0.729961 -0.285935
0.551965 -0.0107313 -0.979488
-0.717571 0.459516 0.846644
0.747323 -0.171941 -0.0827278
-0.0723321 -0.217883 0.210594
-0.837489 -0.461179 -0.289492
-0.664877 -0.236607 -0.629945
-0.829234 -0.266589 -0.47768
-0.663669 -0.725789 0.116218
-0.216449 -0.540309 -0.572306
-0.939243 -0.272504 -0.14734
-0.490104 -0.530545 0.122643
0.696068 -0.418841 -0.152488
0.0991328 -0.727747 -0.535668
-0.58781 0.177314 0.51707
-0.634291 0.0798282 -0.540282
0.811069 -0.0927554 -0.43061
-0.610907 -0.07272 -0.98193
0.68175 -0.3055 -0.929055
0.689437 -0.337964 -0.0241216
0.608428 0.264384 -0.491855
-0.659571 -0.200212 0.614379
-0.493645 -0.00743496 -0.9844
-0.477332 -0.0150003 0.440985
-0.497996 0.0580914 -0.743482
-0.572582 0.297685 0.622943
-0.432244 -0.236556 0.478528
-0.294154 0.124808 0.161414
-0.0404442 0.353745 -0.909908
0.670813 -0.458265 -0.69545
-0.589955 -0.414756 -0.976508
-0.158799 0.19771 0.757004
-0.639008 0.266348 0.747195
-0.112951 -0.394514 -0.934096
-0.858364 -0.412198 0.557592
-0.428215 0.228337 -0.39405
0.415141 -0.670714 -0.600167
-0.178054 0.264317 -0.0422425
-0.915456 -0.0789552 -0.138547
0.741487 0.0885992 -0.561223
-0.678081 -0.0880966 -0.611081
-0.0746482 0.070996 0.60824
-0.252318 0.116709 0.825576
-0.163016 -0.654501 -0.838401
-0.70321 -0.438155 0.58696
0.0692567 0.00497289 0.224897
0.787028 -0.0697407 -0.182198
-0.0599387 0.0165446 0.190616
-0.565746 0.0754233 0.214862
0.488755 0.101868 0.119086
0.338893 0.0378988 0.22372
-0.88777 -0.40161 -0.147481
-0.733109 0.10967 0.476941
0.451233 0.221018 -0.0268791
-0.934075 -0.423374 0.318675
0.575586 0.274856 -0.565264
-0.278579 -0.576137 -0.392798
0.91542 -0.314362 -0.587218
-0.461733 -0.387956 -0.97817
-0.547261 -0.517491 0.325218
0.64412 0.226331 -0.546068
-0.711755 0.528176 0.709162
0.995025 -0.157182 -0.655972
-0.72929 0.459959 0.53833
0.0873688 -0.529594 0.0503023
0.767746 -0.317191 -0.201936
0.803648 0.0853229 -0.795951
-0.171079 -0.56003 -0.384701
-0.934888 -0.358756 0.426744
-0.939791 -0.152042 -0.257608
-0.635088 -0.596828 0.455756
-0.786827 0.136061 -0.248866
-0.301167 0.26676 -0.331601
-0.729064 -0.727739 0.21446
-0.183572 0.00520211 0.675176
-0.213093 0.0261081 0.550578
-0.50222 0.106782 -0.982837
-0.461827 -0.501683 -0.554652
-0.901619 -0.0763929 0.337164
-0.671218 0.684839 0.822334
-0.732513 -0.370927 0.604425
-0.386472 -0.13797 -0.964998
-0.312667 -0.159602 -0.964614
0.278352 -0.592897 -0.136137
-0.989498 -0.244996 0.201887
-0.697713 0.174965 -0.176479
0.176523 0.358351 -0.15799
0.113368 -0.511204 -0.958167
-0.844207 -0.703058 0.254178
0.629113 -0.274501 0.0888982
0.578084 0.259158 -0.663703
-0.176049 0.455313 -0.369794
-0.0201629 -0.69955 -0.533781
-0.557138 -0.585212 -0.396466
-0.216595 -0.506825 -0.768747
0.186382 -0.452145 0.166144
-0.596071 -0.24657 -0.650617
-0.651699 0.0756524 0.298514
-0.697623 -0.435542 -0.519986
-0.396982 -0.505468 -0.59612
0.313939 0.324043 -0.884916
0.693929 -0.484861 -0.271963
0.00925597 0.34493 -0.85705
-0.333525 -0.0450729 0.248322
-0.418318 -0.0316613 0.723032
-0.460023 -0.295445 -0.762505
0.177139 -0.258725 -0.941217
0.602249 -0.28322 -0.961586
0.400476 -0.19884 -0.984099
-0.758923 0.142483 0.547855
0.310654 -0.722195 -0.405501
-0.241518 -0.043889 0.546928
-0.357805 -0.0322072 0.4762
0.365275 -0.51301 0.00236885
0.240181 -0.735955 -0.523071
0.0743438 0.426215 -0.193889
-0.642694 -0.551855 0.518862
0.483139 0.16168 -0.883701
-0.056602 0.413202 -0.196984
0.334253 0.272046 -0.100186
0.433937 0.281473 -0.894288
-0.969209 -0.514629 0.168271
0.584908 -0.58188 -0.402209
-0.0887983 0.0959167 0.93482
0.315116 0.00510908 -0.997113
-0.245746 0.245648 -0.0406289
0.266632 0.0463665 -0.9758
0.209645 -0.542391 0.0451882
0.209401 0.0112802 -0.939555
0.0799155 0.226697 0.780185
0.775924 0.0563568 -0.856949
0.982118 -0.226343 -0.676237
-0.480715 -0.352642 -0.65128
-0.170101 0.316957 -0.21235
0.55396 0.315128 -0.502015
0.149245 -0.522349 0.0716193
0.547379 -0.326591 -0.959814
0.498951 -0.430617 0.104348
0.267791 0.278674 -0.0800821
-0.517712 0.0512121 0.266791
-0.430115 -0.616153 -0.957243
-0.285574 0.0149128 0.518931
0.358122 -0.260754 -0.991988
-0.526694 -0.223082 -0.676252
0.174954 0.325682 -0.95095
-0.352234 -0.525723 -0.727556
-0.307187 -0.3678 -0.983352
0.721507 -0.441442 -0.331545
-0.275366 -0.554044 -0.618571
-0.539051 -0.289272 -0.659271
-0.198075 -0.477851 -0.96072
-0.453755 -0.601468 -0.855423
-0.100861 0.166431 0.935665
0.157107 0.226494 0.0513353
-0.174889 -0.0216501 -0.930946
-0.417308 0.259198 -0.239964
0.642396 -0.0849644 -0.977832
-0.091539 -0.668319 -0.818428
0.344329 -0.220307 0.26194
0.587055 -0.52695 -0.146651
0.696723 -0.472102 -0.39518
-0.661639 -0.579943 0.0182645
0.737593 0.00457113 -0.91324
0.368534 -0.359451 0.218416
-0.409586 0.230682 -0.979634
-0.86092 -0.619035 0.383908
0.0896634 0.0485515 -0.929824
0.098067 -0.446926 -0.9313
-0.744128 -0.661134 0.0394242
-0.404336 -0.123011 0.438975
0.722232 0.161782 -0.388366
-0.983433 -0.209366 0.1361
0.0773718 0.355154 0.940502
0.918026 -0.0815841 -0.819834
-0.744252 0.000529109 -0.50972
-0.208399 -0.502609 -0.701879
0.370372 0.202747 0.0833023
-0.134234 -0.612376 -0.791035
-0.666459 -0.0532657 -0.830972
-0.637454 -0.173669 -0.978027
-0.438858 -0.223694 0.548726
-0.731915 -0.117667 -0.895323
-0.388531 -0.512716 -0.978428
-0.510529 -0.500882 0.0564783
-0.137355 0.366661 -0.958347
0.56952 -0.47445 -0.809691
0.432111 -0.489209 -0.991219
-0.316002 0.286758 -0.829186
-0.58194 -0.0529087 -0.799467
0.44973 0.139958 -0.945187
-0.749698 -0.713176 0.102872
-0.9535 -0.502178 0.239244
-0.328683 -0.108198 0.609455
0.8516 -0.374144 -0.669715
0.47027 -0.570689 -0.0972804
-0.783909 -0.716463 0.310361
0.70412 0.166405 -0.538592
-0.484006 -0.432335 0.401818
-0.917768 -0.584705 0.0565405
0.116771 0.301281 -0.981985
0.0892327 0.484975 -0.318909
-0.556341 -0.557613 0.0996966
-0.0768835 0.180068 0.0797167
-0.547979 -0.556512 -0.976159
0.707121 -0.447773 -0.576353
0.434494 -0.0791985 -0.982612
-0.56654 -0.60486 0.208233
-0.284233 -0.5252 -0.754202
0.43574 0.197323 0.0453382
-0.723086 -0.561924 -0.287847
-0.138521 -0.172181 0.203563
-0.508876 0.204984 0.00609562
0.493522 -0.0521462 -0.997261
-0.768747 0.0882682 0.624635
0.470225 0.345387 -0.32181
0.209122 -0.214359 -0.984932
0.204498 0.212424 -0.980207
-0.133462 -0.196767 -0.940378
-0.686898 0.189452 -0.363671
-0.719513 -0.720278 0.282231
-0.673302 0.675581 0.676549
0.400634 0.373315 -0.663129
-0.824247 -0.0459252 0.494083
0.387328 -0.382878 -0.993436
0.325497 -0.398169 -0.950502
0.214424 0.45421 -0.340924
-0.282349 0.174476 -0.788608
0.299105 0.203328 0.100487
-0.246702 0.0437081 0.851105
-0.923624 -0.630559 0.108111
-0.0959977 0.224539 0.772
0.150878 0.180769 -0.930141
-0.112108 0.484083 -0.3419
-0.98436 -0.370562 0.219979
0.0521035 0.324969 0.821886
0.192754 0.259664 0.0046834
-0.602214 -0.324665 0.612392
-0.243065 -0.462453 0.0478344
-0.236122 0.322383 -0.986928
-0.848273 -0.397137 0.0125177
-0.0922985 -0.361041 0.151921
0.292437 0.310088 -0.956696
-0.813174 -0.485647 -0.219775
0.588758 0.275002 -0.362735
0.534648 -0.490575 -0.874346
0.0327015 0.25122 0.930216
-0.0753845 -0.620637 -0.555147
-0.983534 -0.368233 0.149279
-0.0296078 -0.296368 -0.9377
-0.872135 -0.0238254 0.300592
-0.655371 0.467528 0.819943
-0.0225594 -0.668518 -0.830356
-0.363475 -0.332779 0.247153
0.676979 0.0995914 -0.730703
0.687259 -0.0331445 -0.953731
0.031182 0.222802 0.709357
0.800879 -0.0127771 -0.889344
-0.57683 -0.205599 0.610116
-0.150257 -0.268239 -0.943695
-0.744744 -0.68545 0.373561
-0.432161 0.133524 -0.895726
0.0665841 -0.557717 -0.00980589
-0.0863162 -0.504205 -0.931245
0.860154 -0.0118005 -0.550754
-0.857813 -0.0374712 -0.406124
0.992294 -0.14157 -0.588015
-0.762619 0.393645 0.70955
-0.395835 0.124053 -0.826249
-0.174993 0.105053 -0.927378
-0.32611 -0.540689 -0.812457
0.471205 -0.212923 -0.979432
0.619976 -0.000886679 -0.961782
0.233245 0.308392 -0.976042
0.735791 -0.408809 -0.516204
0.039267 -0.72013 -0.508423
0.269831 -0.518067 0.0760568
0.682433 -0.49875 -0.336039
-0.388566 -0.140233 0.646101
-0.947866 -0.410671 0.106251
0.288647 0.442288 -0.474269
-0.325905 -0.574197 -0.286409
0.46234 -0.60383 -0.155192
-0.28727 -0.00666281 0.81135
0.188675 -0.576052 -0.0518474
-0.826773 0.0801851 -0.258512
-0.903818 -0.384512 -0.212465
-0.695579 -0.577606 -0.219583
-0.508566 0.132278 -0.935541
-0.695352 -0.187119 -0.957392
-0.114667 -0.595218 -0.981221
0.454349 -0.145478 -0.980499
0.76409 -0.349152 -0.634428
-0.575001 0.114391 0.111932
-0.910213 -0.563248 0.354727
-0.567933 0.0761746 -0.568254
-0.153049 -0.589269 -0.2674
0.657983 0.0991799 -0.0363421
-0.448456 0.262672 -0.15404
-0.459421 -0.546716 -0.034897
0.285062 -0.587953 -0.968249
-0.583845 -0.138923 -0.982181
0.00550756 -0.668887 -0.974652
0.229304 -0.47699 -0.964395
-0.892293 -0.10468 0.400117
-0.610793 0.513116 0.785413
-0.206622 0.336097 -0.564659
-0.247842 0.302587 -0.319895
0.0591821 -0.067075 0.23931
0.350792 0.307227 -0.168283
-0.602479 -0.292693 -0.966976
-0.360236 0.0215055 0.513609
0.0137998 0.0426306 0.191746
0.840481 0.0229973 -0.839186
-0.344063 -0.546096 -0.578692
-0.00904138 -0.752965 -0.332446
-0.550236 -0.345976 -0.629009
0.381967 0.322936 -0.854419
0.803585 -0.26495 -0.532137
0.138523 0.0292395 0.230265
-0.751773 0.554536 0.816766
-0.278702 0.128608 0.756714
0.0805482 0.416503 -0.759001
-0.340742 -0.107361 0.259021
-0.623431 -0.262526 0.614695
0.535913 -0.519702 -0.090354
-0.283903 -0.0598192 0.652879
-0.102728 0.109397 0.762277
0.539531 -0.551211 -0.720735
0.340259 0.400203 -0.260949
-0.593726 0.310794 0.546314
0.644669 -0.534932 -0.378408
-0.0471042 0.331529 -0.16733
-0.462122 -0.129771 -0.980644
-0.962125 -0.587523 0.15289
-0.318925 0.0212993 0.23071
0.695301 0.0323628 -0.0462135
-0.173702 -0.444515 0.0751894
-0.0136624 0.194984 0.920481
0.368116 -0.0444524 -0.986308
-0.739786 -0.457645 -0.471735
-0.481845 -0.313244 -0.98379
0.657781 0.20069 -0.480263
0.294084 -0.721421 -0.650093
-0.20277 -0.14016 0.221494
-0.365998 -0.587517 -0.963827
0.915349 -0.153476 -0.831944
-0.308196 -0.236986 -0.965541
0.202391 -0.0173854 0.251475
-0.665076 0.715151 0.941369
0.269986 -0.647128 -0.827519
0.18226 0.464668 -0.409986
-0.176023 0.365657 -0.62641
-0.352238 -0.297115 -0.9718
-0.539262 0.251979 -0.241222
-0.802264 -0.669158 0.0895897
-0.499135 -0.609684 -0.969547
0.303909 -0.118421 -0.992368
-0.604998 0.0629987 0.359503
-0.901969 -0.63606 0.251538
-0.219125 -0.557902 -0.450448
-0.764976 -0.519862 -0.341894
-0.254164 -0.0911764 0.612108
-0.165959 0.102139 0.139747
-0.898185 -0.0922219 -0.0612185
-0.222144 0.224139 -0.622667
-0.780603 -0.481798 -0.0201812
-0.77986 -0.426971 0.57946
0.236644 0.172704 0.125168
-0.573066 -0.517885 0.0453689
0.718984 0.116785 -0.209965
0.670622 0.173346 -0.212967
-0.60526 -0.450286 -0.830833
-0.812919 -0.00940526 -0.464553
0.395242 -0.482827 0.0605557
0.0681283 -0.661622 -0.778687
-0.0813856 -0.130676 0.213188
-0.0606002 -0.156436 -0.936451
-0.792586 0.121651 -0.320837
-0.696727 0.583224 0.663732
0.942461 -0.0341189 -0.748196
-0.479028 -0.59777 -0.184949
0.56569 -0.395835 0.074801
-0.0528403 0.227409 0.952829
0.328197 0.257313 -0.0315603
-0.127756 0.157692 -0.9252
-0.891734 -0.163005 0.446419
-0.144913 -0.610476 -0.334769
-0.347863 0.264927 -0.984388
-0.425595 0.0252583 0.672891
-0.918807 -0.207966 -0.306529
-0.0607163 -0.560712 -0.962469
-0.323483 0.244845 -0.0625937
-0.984434 -0.300924 0.257652
0.470256 0.349403 -0.632058
0.15807 0.112064 -0.926317
-0.746479 0.11677 -0.0690163
-0.0601399 0.147088 0.884671
-0.516427 -0.470926 0.548456
0.073721 0.311304 -0.13105
0.822065 -0.239285 -0.889547
-0.601255 0.217963 -0.270485
-0.583429 0.136406 -0.524413
-0.207227 -0.0157473 0.817102
0.387836 -0.608521 -0.798267
0.127967 -0.689817 -0.176365
0.0992697 0.364982 -0.15742
-0.887657 -0.00923899 0.171533
-0.273407 -0.318028 0.196805
-0.279949 0.258674 -0.983719
0.742572 -0.335303 -0.887863
-0.353836 0.320114 -0.892602
-0.149522 -0.0761716 -0.932826
-0.423396 -0.261284 -0.974431
-0.332794 -0.100225 -0.987255
-0.244407 0.0760123 -0.926087
-0.54422 0.00646364 -0.783235
0.670136 -0.391227 -0.795065
-0.467605 -0.143877 0.63692
0.905567 -0.0137674 -0.803557
-0.56484 -0.614484 -0.953011
0.439025 -0.549742 -0.823144
0.467997 0.248425 -0.0869039
-0.865238 0.0308194 -0.285946
-0.664997 0.600326 0.890697
0.206848 0.0477127 0.223269
-0.383291 0.0591535 0.224371
-0.447812 -0.365482 0.412824
0.0852846 -0.68573 -0.716294
0.954013 -0.170434 -0.78269
-0.0820212 0.466866 -0.264709
-0.8748 0.0359517 -0.217215
0.564925 0.291781 -0.299727
-0.891083 -0.446767 0.506651
-0.597334 0.629419 0.695798
-0.709411 0.522461 0.629391
-0.617989 -0.591477 -0.196623
0.329436 -0.618632 -0.840056
-0.247747 0.310112 -0.809489
-0.620961 -0.671561 0.0795915
0.705516 0.151515 -0.454321
0.623165 -0.523144 -0.513897
-0.409097 -0.60081 -0.902854
0.285144 0.298725 -0.149829
-0.490004 -0.608159 -0.377434
-0.416634 -0.429186 0.283629
-0.657578 -0.720604 0.204552
-0.76205 -0.297621 0.610111
-0.76056 0.0771376 0.532312
-0.635258 0.61439 0.615928
-0.740508 -0.0723482 -0.959989
0.867372 -0.277904 -0.840848
-0.0203085 0.0469966 0.6532
-0.0182218 -0.720366 -0.459357
-0.374299 -0.389726 0.144511
-0.1229 0.42474 -0.230612
-0.379746 -0.599837 -0.345578
-0.148411 0.111659 0.912607
-0.742815 0.451094 0.725652
0.616146 0.247104 -0.6097
-0.390226 -0.535693 -0.0202483
0.588288 -0.572531 -0.263822
0.612071 -0.527818 -0.594959
-0.616624 -0.224621 -0.886008
0.460632 -0.633087 -0.275363
-0.57091 -0.561519 -0.0608366
0.459202 0.294494 -0.141759
-0.273142 0.265458 -0.112159
-0.0109475 0.198878 0.991765
-0.246851 -0.246854 -0.985437
-0.860203 -0.436254 -0.218081
-0.0113874 0.475905 -0.597957
0.757035 -0.224847 -0.122412
0.6432 -0.519543 -0.222225
0.324482 -0.70741 -0.26727
-0.17164 0.293051 -0.153507
0.57748 -0.434295 -0.870647
-0.122951 0.4606 -0.531688
0.791316 -0.303893 -0.322173
0.107491 -0.23728 -0.938995
-0.577163 -0.277261 -0.905033
0.127793 0.227767 -0.982922
-0.242945 0.128723 -0.69239
-0.192535 0.417542 -0.319801
0.415808 -0.553369 -0.970338
-0.765512 0.061339 0.224184
-0.333624 -0.576474 -0.152798
0.00698376 -0.588017 -0.148202
0.481085 -0.205156 0.208127
0.330109 -0.672644 -0.207066
0.971251 -0.0818119 -0.562012
0.0759166 0.4882 -0.394679
0.33383 -0.496 0.082575
0.662895 -0.240797 -0.958465
-0.201783 0.257627 -0.769057
-0.73602 -0.0539368 -0.558217
-0.345078 -0.0258379 -0.986627
-0.785585 -0.433735 -0.4317
-0.708302 0.113825 -0.0161176
-0.0545158 -0.584148 -0.106902
-0.717179 0.0624057 0.0947405
-0.976226 -0.174891 0.206359
-0.290606 -0.553565 -0.877604
-0.786593 0.224758 0.649436
-0.357563 0.161946 0.121994
-0.622436 0.201483 -0.409515
-0.60235 -0.598446 0.0600548
-0.645096 -0.241405 -0.95599
0.155179 -0.18486 -0.943188
0.796365 -0.0134724 -0.459409
-0.861216 -0.228826 -0.423816
-0.0590469 0.416783 -0.714606
-0.396721 -0.00852164 0.255837
0.76591 -0.348722 -0.264717
-0.488434 0.246959 -0.101209
-0.670204 0.668729 0.755318
-0.547225 -0.0834569 -0.672973
-0.157805 0.172281 0.68678
0.0344518 -0.704217 -0.584007
-0.0875316 -0.683264 -0.43471
-0.914971 -0.184387 0.388999
0.0913122 0.46692 -0.523301
-0.481391 -0.486636 -0.787089
-0.193383 -0.140912 -0.967129
0.745473 -0.41076 -0.390994
-0.35597 0.224206 -0.423604
0.300522 -0.582961 -0.887698
-0.702762 0.0607822 0.422639
0.584015 0.0214133 0.0999132
0.40344 0.182032 -0.984548
-0.737815 -0.141883 -0.952551
-0.405133 -0.444429 0.132162
-0.656636 0.0827061 0.667642
-0.866332 0.0061835 0.238157
-0.263104 -0.117525 -0.98841
0.979075 -0.159949 -0.721989
0.332344 0.145518 -0.990854
-0.253066 -0.418921 -0.981389
0.0602478 0.240772 -0.984664
-0.0231533 0.11702 0.63474
-0.769446 0.0349481 0.57677
-0.205005 0.0969331 0.87793
-0.105646 0.271868 -0.0345292
-0.404506 0.279142 -0.950395
0.937352 -0.112346 -0.516758
-0.455654 0.0504656 -0.984402
-0.265377 -0.480473 -0.983121
-0.747139 -0.495075 -0.410874
-0.714148 0.664731 0.944065
0.605146 0.0681845 -0.909993
-0.696073 -0.262925 0.616106
-0.926778 -0.426406 0.444226
-0.472972 -0.41673 -0.769184
0.284159 -0.725412 -0.58428
-0.36691 -0.284325 0.294105
0.769567 -0.119512 -0.128364
-0.117175 0.367394 -0.199298
0.117807 -0.356985 0.224505
0.844795 -0.376721 -0.739799
0.117126 -0.0251051 -0.9326
-0.446483 0.0320966 0.239784
-0.860352 -0.350362 -0.381337
0.270742 0.0581389 0.218701
-0.59568 0.384114 0.731501
0.138525 -0.676904 -0.774703
-0.576254 -0.218907 -0.9818
-0.289984 -0.560332 -0.544303
0.579946 0.19381 -0.783011
-0.448944 0.130996 -0.596152
-0.371333 0.11725 0.178494
-0.625567 -0.35508 -0.969245
-0.547211 -0.562815 -0.465689
-0.813853 -0.433014 -0.0141202
-0.199427 -0.0643544 0.635959
0.653211 -0.399929 -0.0403081
0.0212329 -0.348105 -0.936089
-0.418664 0.204776 -0.919236
0.18376 -0.531367 -0.988412
0.357835 -0.678455 -0.656336
-0.788808 -0.0598681 -0.499432
-0.903053 -0.492842 0.446731
0.26889 -0.34831 -0.938262
0.487582 -0.530218 -0.864478
-0.318447 -0.533806 -0.025218
0.474596 -0.634692 -0.571061
-0.943372 -0.250008 0.524421
-0.566669 -0.0225575 0.544579
-0.349232 0.275365 -0.224449
-0.764201 0.635313 0.916935
0.889481 -0.153391 -0.501211
0.0638669 -0.490504 0.109369
0.0178424 -0.563638 -0.0724164
-0.756855 0.304164 0.775673
-0.795132 -0.32139 -0.493059
-0.342771 -0.580362 -0.898522
-0.590496 -0.547399 0.467675
0.587916 -0.140442 -0.994045
0.122093 0.451985 -0.577867
-0.563243 0.229479 -0.374254
0.87587 -0.262682 -0.527036
0.239085 -0.703555 -0.699498
-0.488893 -0.613708 -0.258206
-0.301529 0.274296 -0.179746
-0.492853 -0.00944852 0.523846
-0.250714 0.299732 -0.38053
-0.539936 0.0435993 -0.98443
-0.114868 -0.669587 -0.368823
-0.744007 -0.317781 -0.540439
-0.687395 -0.303063 -0.598858
-0.841289 -0.453998 -0.148173
-0.00578906 -0.59592 -0.985301
-0.0238435 0.145983 0.11464
0.17382 -0.610543 -0.980268
-0.171606 0.313637 -0.78494
-0.0104725 -0.265071 0.219742
-0.590565 0.311335 0.702332
0.525298 0.0440909 0.133057
-0.864159 -0.0447239 -0.0198592
0.118074 -0.632796 -0.142609
-0.518279 -0.170073 -0.985693
-0.53834 -0.00220229 0.466277
-0.743642 -0.0107195 0.613508
-0.533357 -0.530498 -0.00845197
0.498093 -0.651853 -0.399907
-0.153565 -0.549441 -0.452792
-0.921341 -0.0996122 0.0850669
0.112703 -0.296141 0.244708
-0.74956 0.49766 0.76823
0.23581 0.317575 -0.904494
-0.211198 -0.655891 -0.964785
0.809024 -0.146543 -0.365284
-0.964531 -0.438328 0.179507
-0.189976 0.137219 0.634054
-0.891607 -0.620495 0.320015
-0.615148 -0.308404 -0.626268
-0.0844489 0.196918 0.712963
0.209593 -0.747013 -0.335153
-0.710659 0.391039 0.821469
0.596052 -0.428154 0.0168591
-0.365558 0.0482699 -0.981919
0.73102 -0.375102 -0.679268
-0.389239 -0.522366 -0.786398
-0.453416 0.150378 -0.969926
0.621082 -0.125342 0.101741
-0.591116 0.246775 0.681622
-0.277894 -0.309001 -0.972292
-0.0576915 -0.599813 -0.182482
0.0816118 0.0755471 0.198314
-0.851382 -0.301562 -0.422818
-0.150585 0.0624366 0.728354
-0.115075 -0.5651 -0.534523
-0.064981 0.0824207 0.700511
-0.141969 -0.659631 -0.98178
-0.394345 -0.250472 0.349707
0.742492 0.111531 -0.757349
-0.958423 -0.431449 0.254801
0.337228 -0.584207 -0.102648
0.712958 0.0797752 -0.680442
0.779896 -0.340828 -0.39061
-0.01095 -0.644262 -0.182949
-0.689352 0.613217 0.722716
-0.725265 0.150625 -0.123959
-0.279448 -0.047484 -0.974263
0.0116827 -0.676636 -0.894989
-0.947517 -0.220849 -0.223019
0.768294 0.0381948 -0.514301
-0.547842 0.213183 -0.434381
-0.322466 -0.515032 -0.979459
-0.746791 0.337596 0.66247
0.444056 -0.66348 -0.521903
-0.718945 0.521823 0.560302
-0.546414 -0.615749 -0.206767
-0.649757 -0.511878 -0.951292
-0.309566 0.34054 -0.984409
0.475912 -0.333151 -0.989405
-0.622746 0.217408 -0.338646
-0.140823 -0.090243 0.201031
0.0259634 0.326699 0.891382
-0.285231 0.289489 -0.256495
-0.535783 0.211082 -0.0590558
-0.085999 0.155537 0.655106
0.490619 0.0188675 -0.977979
0.521088 -0.619687 -0.517872
0.1501 -0.577791 -0.11539
-0.297756 -0.448483 0.0851621
-0.0157953 -0.338781 0.186227
0.333328 -0.536925 -0.0546731
-0.219063 0.356567 -0.317055
-0.1563 0.154009 0.103664
-0.177621 -0.559813 -0.780042
-0.319991 -0.490359 0.0302283
-0.376123 -0.0891076 0.718872
-0.228824 -0.536989 -0.982419
-0.210048 0.27466 -0.104512
-0.0416948 0.496437 -0.324505
-0.547239 -0.0593352 -0.740069
-0.79576 0.584427 0.885556
0.0946014 -0.447345 0.159883
-0.379452 0.194354 -0.51899
0.917526 0.0272348 -0.655665
-0.47945 0.258343 -0.212947
0.0465015 -0.208075 -0.938241
-0.814576 -0.36593 -0.444818
0.535852 -0.286256 0.167555
-0.896434 -0.206503 0.564558
-0.153904 0.319136 -0.988816
0.199691 0.283379 -0.0677003
0.523795 -0.264118 -0.989776
0.304002 -0.536344 0.0162806
-0.425238 -0.478992 -0.745834
0.116028 0.267261 0.0141543
0.128364 -0.0417981 0.24824
0.129318 0.47239 -0.456449
-0.622206 0.451133 0.57402
-0.808661 -0.459781 -0.0858483
-0.37528 0.124328 -0.733622
-0.19832 -0.216402 0.216837
-0.0179485 0.471742 -0.252615
-0.650612 -0.358096 -0.589893
0.578112 -0.0676489 -0.990334
0.53189 -0.616528 -0.287492
-0.820456 0.0257165 0.188448
-0.622696 0.681053 0.658051
-0.603628 0.176245 -0.471588
-0.408211 0.179514 -0.983085
0.0452442 -0.137512 0.242801
0.789912 -0.0179089 -0.232036
0.101805 0.256828 0.728679
-0.558518 -0.028725 -0.98448
-0.0453252 0.143165 0.967381
0.298904 -0.0584135 -0.989402
-0.746176 -0.490534 0.55868
0.0243254 -0.203354 0.238288
-0.369855 -0.213529 -0.965751
-0.614427 0.245658 0.500058
-0.70909 -0.545694 -0.367593
-0.260969 0.386268 -0.962737
0.156684 0.467883 -0.301808
0.770964 0.0603848 -0.452869
-0.565643 0.0628953 -0.845836
-0.469762 -0.297296 -0.687285
-0.543679 0.0356116 0.404715
-0.3266 0.0933512 0.619865
0.710051 -0.426905 -0.64362
0.211898 0.457923 -0.47573
0.480007 -0.664391 -0.467104
0.214121 0.300603 -0.137926
-0.799298 0.343531 0.725112
-0.00826948 -0.460585 0.115129
0.187915 0.194936 0.0959015
0.709609 -0.180245 -0.0142428
-0.54604 -0.513208 -0.524925
0.0664836 -0.249984 0.243789
-0.217915 -0.0724352 -0.953364
-0.496929 -0.516803 0.275569
-0.0579626 -0.602737 -0.782566
-0.676859 -0.177747 -0.898874
-0.580389 0.103189 0.537083
-0.923515 -0.228109 -0.0572414
0.855542 -0.310673 -0.56288
-0.106409 0.36755 -0.889961
-0.163145 -0.528573 -0.51584
-0.455741 0.224817 -0.0403967
-0.952789 -0.348774 0.0844687
0.904192 0.015975 -0.591514
0.793223 -0.391793 -0.700686
0.147956 -0.23928 0.258392
-0.00767458 0.252445 -0.985029
-0.738957 -0.524652 -0.0185171
0.136167 0.288519 -0.0498994
0.194899 -0.331586 -0.936315
-0.718705 0.471478 0.666561
0.279833 -0.465819 0.135219
-0.76643 0.148992 0.681918
-0.297823 -0.570173 -0.962775
0.979946 -0.0887814 -0.701076
0.741014 -0.393404 -0.833135
0.25934 0.403701 -0.664435
-0.423071 -0.596412 -0.398147
0.0791415 -0.37282 -0.93576
0.0216468 -0.751552 -0.395815
-0.601698 -0.666443 0.209367
0.156516 -0.730473 -0.619068
0.0574646 -0.74439 -0.450965
-0.557558 -0.122967 -0.795438
0.0927029 -0.723265 -0.600928
0.235253 -0.283771 -0.968908
-0.496224 0.0594244 0.205624
0.0559574 0.467454 -0.251712
0.475472 0.235074 -0.857585
0.800034 -0.296673 -0.879526
0.199886 0.383394 -0.816178
-0.666489 0.493459 0.546225
0.612054 -0.455562 -0.0417714
0.44674 -0.409094 -0.991762
-0.618693 0.0261072 -0.594643
0.337008 -0.343385 -0.987194
0.590747 -0.216951 -0.984539
-0.236521 0.128884 -0.755916
-0.919612 -0.502175 0.382137
-0.106833 0.310077 -0.167937
-0.411442 0.101406 -0.984403
0.165437 0.449654 -0.527277
-0.86314 -0.411515 -0.338522
0.736857 -0.109371 -0.0567742
0.526713 -0.572417 -0.147711
-0.263505 -0.179929 0.237605
-0.69991 0.622806 0.803752
-0.483746 -0.578653 -0.436606
0.230527 -0.58897 -0.984156
0.32021 0.0832899 -0.991353
-0.346313 0.127421 -0.979017
0.0577041 0.460406 -0.608299
0.148976 -0.106825 -0.939041
-0.461618 0.00646743 0.609532
-0.386613 0.136236 -0.657904
-0.58418 -0.485875 -0.975566
0.524246 -0.586688 -0.658955
0.346538 -0.722905 -0.462686
0.293875 -0.300675 -0.988949
0.785101 0.0333859 -0.275738
-0.673212 0.424121 0.525234
-0.960078 -0.136774 0.13675
-0.777046 -0.113864 -0.540196
0.776668 0.0635033 -0.335364
-0.206604 -0.291502 -0.981764
0.203362 -0.7337 -0.258151
-0.437413 0.0977167 -0.744817
0.966514 -0.175115 -0.535413
-0.585603 0.0710175 0.284069
-0.728404 0.404632 0.652977
-0.0355159 0.271811 0.889332
-0.773001 0.262458 0.736618
-0.300626 0.122796 -0.751194
-0.783261 -0.0385518 0.563606
0.240834 -0.0182883 -0.989286
0.759943 -0.376517 -0.329538
-0.13306 0.29304 -0.09426
-0.334542 0.0591718 0.55924
-0.639058 0.145848 -0.00597882
0.536569 0.303872 -0.636548
0.381017 -0.165844 0.253552
-0.188577 -0.214626 -0.979802
-0.0987968 -0.552609 -0.758802
-0.414536 -0.24355 0.408722
0.955926 -0.102693 -0.768513
0.398836 0.113096 -0.989676
0.863768 -0.0449205 -0.858209
-0.165399 -0.698961 -0.944989
-0.20651 0.35517 -0.838192
-0.482529 0.254483 -0.28959
0.779804 -0.1764 -0.164684
0.0904276 -0.153378 -0.937304
-0.149916 -0.491387 -0.74134
0.542395 -0.623215 -0.442509
-0.170416 0.330185 -0.700309
-0.415787 -0.329601 -0.979888
0.616657 0.259391 -0.277376
-0.13034 -0.616574 -0.411185
-0.674949 -0.111635 -0.978802
-0.928374 -0.567022 0.283509
0.517496 -0.113494 -0.998145
-0.612853 -0.594887 0.394529
-0.253771 0.271912 -0.447408
-0.0504494 -0.733873 -0.397554
0.29048 0.3995 -0.73239
0.268767 -0.732789 -0.463537
-0.823497 -0.0231571 0.0445508
-0.741777 0.146526 -0.381454
0.462519 -0.470618 0.0583479
-0.481257 -0.540558 -0.496141
0.0153611 0.127819 -0.926088
-0.330422 -0.165583 0.258985
-0.985117 -0.287682 0.11502
-0.234132 -0.559272 -0.510485
0.336165 0.21371 -0.992899
-0.440635 -0.294164 0.520069
-0.789731 0.285246 0.680419
-0.420928 -0.173867 0.589292
0.745907 -0.398759 -0.761177
-0.812036 0.0265808 0.27248
0.105827 0.310256 0.766105
0.116303 -0.567434 -0.990333
-0.424993 0.0224074 0.553091
0.565878 -0.0967586 0.148666
0.575909 -0.318807 0.123453
-0.728804 0.579476 0.911833
