1.48736 5.65918 0.429633
-3.1675 5.91868 -1.03281
-2.76352 5.37421 -1.35089
0.697395 5.64197 -5.29351
0.659855 7.04394 -4.61226
2.36252 5.02599 -0.886164
-1.27402 6.83116 -2.9418
-2.23035 6.96603 -3.16178
-2.86605 6.23813 -0.882845
-2.59765 4.98697 -2.61845
0.676604 6.773 -5.15616
-0.026537 6.12176 -3.42345
-2.95328 5.46232 -2.13732
0.641551 5.01652 -0.283727
-0.519924 6.55132 -5.30579
-2.26245 6.53927 -0.347723
0.728878 6.39956 -2.82182
3.11517 6.42844 -1.74329
-2.95246 6.5879 -2.89612
-1.95132 4.84525 -4.17139
1.47945 5.25521 -1.8924
-2.28387 5.26575 -0.599016
1.20638 6.37964 -2.13777
-0.0849026 5.46584 -5.33619
0.0544189 5.92449 -1.03622
1.27852 5.27304 -5.15989
-2.80451 6.71608 -2.49607
0.464213 7.01551 -0.577115
-2.91497 5.45188 -1.71368
-1.29825 7.14376 -0.282462
0.909106 5.97303 -2.78025
0.736663 5.85029 0.768836
1.3882 6.39656 -4.9252
2.10475 5.78545 0.0176029
0.19753 6.9319 -5.2355
1.59818 5.1004 -1.54191
1.78513 7.18218 -4.20469
-1.14205 5.13304 -3.36866
-1.53906 6.029 -4.94432
1.1789 4.7899 -3.41977
-0.750536 5.3067 -3.02503
-1.29913 6.52731 -2.57527
-1.4402 6.52905 0.371042
-3.34204 6.21343 -2.12489
-2.72789 6.1085 -0.524585
-1.82881 4.69163 -1.40441
0.232082 6.46575 0.840069
2.40275 6.53932 0.0263776
-2.51634 5.07551 -3.383
-1.09952 6.81992 0.458997
-0.782461 6.88592 -5.19431
0.0702352 6.395 -1.05412
1.07673 6.53787 -2.77759
-1.47467 6.70998 -2.25859
0.551885 5.04925 0.714883
-0.203572 5.01668 -3.92523
2.1781 4.70141 -2.09099
1.59199 6.98153 -0.54597
0.88053 5.96214 -2.29669
-1.90854 5.0861 -0.581022
2.47918 5.17554 -3.23349
1.48451 7.05729 -3.73675
0.100101 5.7351 -3.43469
-0.399486 6.49524 -3.39379
-2.15247 6.16727 -4.55763
1.38864 5.04625 -4.19095
-1.04817 5.46675 -1.39031
-1.21621 7.02994 -3.8738
-2.28435 6.85445 -3.56505
-2.22237 5.08716 -0.976535
-0.11302 6.99057 -4.03111
-2.61776 6.61517 -1.00476
2.35417 5.50741 -4.57271
1.05882 5.052 -4.41224
1.85536 7.28222 -1.70636
1.28767 6.96188 -0.248966
-0.126849 6.11543 0.85531
2.28229 6.91249 -1.14874
1.49737 5.27565 -2.32068
-1.3901 5.13024 -1.48337
2.68501 6.48525 -0.283067
-1.56251 5.05201 -3.25789
0.74438 5.10147 -0.80285
-1.31912 5.23596 0.409553
-2.06276 4.68242 -1.74389
2.27822 5.14733 -3.54719
0.284618 5.01874 0.36038
1.26443 7.08567 -0.73661
-1.52673 4.72383 -1.19613
-0.82227 5.50564 -2.76351
1.02053 6.56109 -5.06246
0.648949 6.98481 -4.17348
2.58844 5.3395 -0.97364
2.6478 5.62732 -4.29174
-0.447105 6.5712 -1.32241
1.76016 5.78674 -4.90794
-0.724433 5.12242 -3.45716
-2.54782 5.30027 -0.995931
1.01582 6.81731 0.730448
2.94245 6.5405 -1.36715
-1.945 7.29825 -2.4259
-0.197163 5.17795 0.873903
-1.1934 5.24994 -2.98817
-0.334073 5.74926 -1.05422
-1.65502 5.89038 0.498467
-0.557938 5.23771 0.874949
-2.75522 5.73783 -0.301187
1.01445 6.70555 -3.14545
-0.263051 5.83493 -5.32332
2.0686 7.29027 -2.00987
2.65613 6.75141 -3.08921
3.13453 6.39782 -2.16782
-1.0798 6.13104 -2.50212
2.83857 5.45469 -3.34072
1.39652 7.11434 -4.13936
-3.13072 6.45815 -2.49674
-0.496204 5.2569 -3.23794
1.78117 7.12386 -3.42263
-0.253007 6.23001 -1.12329
-0.924646 5.13479 0.332144
-0.680597 6.89121 -0.675659
-0.831661 5.89815 -1.48841
1.15894 5.31908 -1.54439
-2.43831 6.61903 -4.36591
2.10243 4.69771 -2.49954
-2.73869 6.52058 -4.05638
-2.46593 6.14474 -0.247587
-1.35537 5.13678 0.0383747
0.6524 6.90333 -3.77344
2.13691 5.18746 -3.90167
0.264222 6.98551 -4.27362
1.75692 5.08975 -4.03855
3.14315 6.3082 -1.00971
0.190357 4.9906 -4.07647
-1.40489 7.12013 -3.45502
-2.98651 6.55048 -2.08713
1.90911 7.23323 -3.86734
-0.1133 5.06153 0.4607
-1.44938 4.92929 -4.20142
2.13681 6.94149 -3.96873
2.40433 6.24286 -4.18153
1.79702 4.92311 -0.0931861
-0.137748 6.96333 -3.50179
2.92547 6.38014 -0.589049
1.81075 4.99526 -2.00628
1.65801 7.09257 -0.952138
2.81706 6.68558 -1.83446
2.92247 5.47306 -1.76521
1.40871 6.78121 -2.91047
0.56141 5.17095 -5.30512
0.516963 7.03257 -5.06167
0.517191 5.45949 -3.40992
-1.7301 7.26628 -2.74634
2.45247 7.05398 -2.90348
2.86233 5.63006 -3.98295
0.874852 5.11547 -4.91688
-2.04039 7.30949 -1.9946
-3.06234 6.40031 -1.69073
-1.88453 7.01431 -3.47801
1.43184 5.63329 -5.09911
-2.60727 5.02835 -2.20356
0.66987 6.12291 -3.1036
-0.88527 5.70759 -2.47332
0.936957 5.20988 -1.16877
1.6113 6.84945 0.0380011
1.38039 6.02826 -5.02688
1.81629 4.91304 -1.18372
-0.126502 6.78365 -1.10269
1.00769 5.01399 -0.461601
-2.45271 6.9721 -2.52315
2.44784 7.01083 -1.97695
1.58057 5.00335 -2.79029
-1.41441 5.00995 -0.371608
0.628755 5.36739 -1.41978
-0.197367 6.5989 0.799454
-1.18053 6.3562 -2.12739
1.29139 5.15771 -4.74628
-0.543587 4.98552 -4.73991
1.08768 6.39579 -1.56817
2.91111 6.48477 -2.94636
-1.62844 6.86903 -4.53927
2.38013 5.69599 -0.316719
0.242072 6.93652 -3.79882
-1.99067 6.88963 -3.88951
0.702077 6.5666 0.807498
2.7132 5.99721 -4.00253
-1.96604 6.90824 -0.301253
-1.88431 4.89033 -1.00291
-1.77924 6.27808 0.26253
0.548633 6.91051 0.773441
0.688463 6.78928 -3.40934
-0.212228 6.23542 -5.32727
-3.16494 5.7258 -1.78477
1.16973 5.63327 -2.38259
2.15241 5.05988 -0.456367
2.38516 5.35913 -0.571248
0.257702 7.01381 -4.72212
1.03338 7.0705 -4.38103
1.12645 5.80806 0.635031
2.03743 6.74297 -0.0253222
0.782044 6.31715 -1.2632
-2.17423 4.8919 -1.36187
-2.89361 5.57626 -0.99
2.96657 6.5297 -2.50762
1.65963 5.19762 -4.53577
-1.52709 6.93824 -2.63731
-1.60467 7.00516 -3.76942
0.175979 5.1165 0.823866
-2.65741 6.67415 -3.64838
3.01738 5.54093 -2.95442
-2.71916 6.13643 -3.95967
1.82666 5.44615 0.123923
0.282692 5.01149 -0.0721912
1.54435 5.22885 0.276137
1.95626 4.8767 -1.62641
2.90909 6.11916 -3.59437
0.957493 6.13784 -5.16495
-2.52521 6.478 -0.643776
2.82877 5.66696 -1.0504
-0.250701 5.08825 -3.44374
1.38748 5.10548 -1.17832
0.271787 5.95655 0.853436
3.20809 5.79987 -3.34613
1.69778 6.72814 0.46769
-1.23085 7.17897 0.170438
0.863719 5.1943 -3.34996
-2.98365 6.42933 -3.69827
-1.729 7.03804 -2.23341
1.60018 6.8435 -2.56142
-0.85321 7.00372 -4.16302
-0.584381 5.02854 0.0154176
0.653688 4.99075 -4.21996
0.366871 5.62511 -1.14032
1.08188 5.40076 -3.08014
2.91108 6.00879 -0.80777
0.9736 7.14026 -1.04441
2.08756 5.35346 -0.176538
-0.983198 5.0565 -3.75492
1.67724 5.33938 -4.99617
-0.477537 7.02423 -3.88506
0.437221 5.90238 -3.3465
2.56468 6.83767 -1.5475
-2.72261 6.66178 -1.37822
-2.15205 7.10817 -2.7698
0.31549 5.54627 -5.33993
-0.0289978 6.55325 -3.41815
2.08901 6.21461 0.197003
1.79404 4.9445 -2.41788
-1.93483 4.92415 -2.9379
2.30227 4.72601 -1.63056
-1.4034 6.43455 -5.06275
0.679227 5.04927 -4.60725
-1.55516 4.88517 -0.751978
0.256143 5.01668 -4.5054
1.75804 6.20688 -4.76483
-3.36891 6.144 -2.50733
2.80916 6.55845 -0.87413
0.117218 4.99349 -3.58787
2.02903 5.42787 -4.81451
-1.45135 6.89354 0.206335
0.419215 5.18016 -1.15612
1.78381 7.05348 -2.17185
2.30474 4.93937 -2.8571
0.80909 5.69958 -3.1731
-0.189422 7.02639 0.693621
-0.0872685 6.64822 -5.31705
-2.03818 6.46256 -0.0483688
-0.479566 6.97203 -4.81267
-1.35288 6.1823 0.542698
1.1792 5.50335 -1.98038
-2.36889 6.74684 -3.98265
0.593479 6.20911 0.813763
0.928327 5.25205 -5.2685
-1.3789 5.00685 -3.74214
-0.704499 5.61331 -1.17536
-2.59483 6.76793 -3.24269
0.0839789 6.9615 -0.554874
0.406633 6.53917 -1.05591
0.112172 5.05699 -0.983197
3.14787 5.64593 -2.52373
-1.35743 6.90581 -1.12586
2.47101 4.89805 -1.98302
-0.654302 6.74498 0.668785
1.04588 6.14237 -1.92355
2.2823 6.72694 -0.384195
-1.89283 5.43583 -4.5635
0.693762 4.97987 0.190511
-0.660775 6.14223 -5.27395
0.788338 5.54641 -1.69606
-2.28537 4.7865 -3.53548
1.45035 4.9056 -3.72378
-2.07861 5.21473 -4.28531
-3.09885 5.69499 -2.50402
2.19304 7.29481 -2.7675
1.06215 4.94865 -0.0482422
-2.4281 7.00279 -1.42745
-0.513379 5.10292 0.453967
-1.21942 6.96012 -4.31999
0.0234757 5.60399 0.88568
2.39514 6.10174 -0.104995
-2.34449 4.70481 -2.44553
1.19854 5.35229 0.52772
1.71958 6.33085 0.457126
-3.24366 5.83942 -2.16981
-1.01681 4.96993 -4.99374
0.149301 5.10172 -5.29982
-2.99143 5.80646 -0.659563
-2.92142 6.04958 -3.59218
-1.72406 5.1585 -0.205854
-2.77885 5.69199 -3.51753
-2.23368 6.86955 -0.651114
-2.82911 5.31128 -2.50633
-1.15693 6.1225 -5.1313
-1.01612 7.11861 -3.30918
1.57263 4.73542 -3.20097
0.890865 5.9926 -1.58445
-0.956675 6.65764 -1.31532
-2.70025 5.19851 -1.84843
-0.871958 7.06969 -3.6959
1.88739 7.10356 -2.59165
-2.92351 6.57224 -3.29944
2.66359 5.22774 -2.88389
-1.87596 5.88977 -4.7004
-0.273588 6.89506 -0.697444
1.58272 6.97281 -1.7912
3.18484 6.24685 -2.68946
-2.5446 5.36931 -3.6675
-0.352586 6.92149 -5.24398
1.08419 6.88436 -3.55799
2.08326 4.76577 -0.793798
0.540193 6.02762 -5.28202
-1.5986 5.61012 -4.83669
-0.502916 6.99439 -4.35302
2.62843 6.7205 -1.16482
-0.343601 4.95527 -0.393543
0.428504 5.50517 0.826833
0.900361 4.99985 0.57049
-1.22442 4.74705 -0.971495
-1.00118 6.4595 0.611343
-1.73678 4.91219 -3.74556
3.4068 6.05686 -2.23843
-3.0677 5.66088 -1.37015
-3.18041 6.30554 -3.29394
2.7583 6.75966 -2.21899
0.859655 5.76698 -1.98767
2.47437 4.97063 -2.45581
-0.866067 4.80576 -0.876868
-0.181553 5.00577 -4.39297
2.25974 6.58782 -4.09747
-1.754 6.7278 0.0464431
-1.6283 5.21244 -4.73019
2.59327 6.38469 -3.80958
1.37463 6.69947 0.650068
1.4271 4.91584 -0.366831
-0.417184 6.03417 -3.34891
-2.02059 6.80818 -4.31443
-2.42174 5.46032 -0.253973
-0.649077 5.01185 -5.15567
-1.7395 7.01855 -1.79529
-0.871334 7.13249 0.412811
3.06473 6.18919 -3.18059
-0.735754 4.92258 -0.428238
0.930434 7.04733 -4.95388
0.793296 6.93767 0.414857
0.633417 7.07466 -0.937623
-2.28247 7.14511 -2.24221
-0.610453 5.72791 -5.26678
1.03504 4.93212 -3.93761
-2.40964 5.90643 -4.21469
-1.28996 5.27288 -4.9696
0.661803 5.82386 -1.33412
1.87518 4.70838 -2.85835
2.14367 7.30174 -2.36516
-1.01671 6.8562 -0.91954
0.956372 6.95776 -0.00511827
-1.39778 7.06722 -0.69542
-0.19517 6.9808 -0.211949
2.04178 6.61587 0.308045
-2.01503 5.8953 0.287037
-1.02973 5.754 -1.7809
1.94425 7.10525 -1.25201
0.32938 6.33127 -3.31755
-1.0061 7.00119 -0.489156
2.63603 5.69079 -0.672565
0.827845 5.42805 0.70542
-1.5647 6.76806 -4.97708
0.231567 6.94473 -0.979403
-0.995376 4.96113 -4.54441
-1.2075 5.39736 -2.60384
-1.25385 6.90811 -4.7289
0.471029 4.99149 -3.5224
1.06542 5.71736 -5.2031
-2.09886 7.31483 -1.59723
1.42301 6.9128 -3.29793
-2.60499 5.75233 -3.87285
1.92832 6.78882 -4.34895
0.555139 6.60808 -3.08595
1.48947 4.87721 0.0963999
-1.81745 6.33122 -4.83381
1.543 7.12007 -4.52156
3.38966 5.95182 -2.58745
-1.16757 6.82815 -5.12172
1.88917 4.80155 -0.430966
1.31642 6.89816 -1.46498
1.28902 6.54912 -2.47867
1.50072 6.73315 -2.15396
-0.363514 5.62494 0.892008
-0.282836 5.6035 -3.36923
-0.148542 5.01858 0.0247936
-0.705982 6.71986 -3.3228
-0.578705 6.98166 -0.307813
-1.07921 6.35747 -2.88665
2.21767 7.08037 -1.598
-1.69544 4.92287 -1.66124
2.61454 5.38194 -3.6997
-3.35965 6.06626 -1.79032
-0.780631 5.20905 -1.04599
-2.01014 4.88078 -2.5216
1.62374 4.92789 -0.78707
-1.22804 5.37447 0.762056
3.05246 5.71912 -3.68748
-1.14318 5.60151 -2.16552
1.41 6.13752 0.566583
-3.17447 5.92211 -2.83182
-2.9878 6.32398 -1.27176
2.83159 5.32803 -2.54879
2.22027 4.7366 -1.20703
-0.484424 5.37739 -5.27787
1.85753 6.86581 -0.346816
-1.7282 7.07065 -1.38281
-0.588918 6.75675 -1.03896
-2.65561 5.49092 -0.629937
-1.56787 5.17523 -1.93148
-1.43035 6.69636 -1.88301
0.0506562 4.99494 -0.435053
-1.41752 5.34057 -2.28029
-2.07034 5.31449 -0.149854
2.6524 5.1353 -1.69868
-1.89086 6.72363 -4.79569
-2.20765 6.09255 0.0361084
-1.37929 6.77641 -1.50698
-0.104635 7.02489 0.242
-3.29072 6.00473 -1.42387
0.374697 5.05588 -4.92808
-2.6321 6.865 -2.1388
2.1401 7.22435 -3.57024
1.20334 4.93706 0.366619
2.51227 5.03301 -1.32525
0.0978699 5.34378 -3.4564
2.95973 5.45855 -2.16354
-1.94859 4.87798 -3.35959
-0.948045 6.47539 -5.22353
-1.61488 6.92962 -4.14629
0.432937 6.10023 -1.11291
-1.92741 5.51677 0.447934
-1.74738 4.90855 -4.48784
1.28336 5.05609 -3.12144
2.70576 5.17235 -2.14798
2.04178 5.27503 -4.35407
-1.07321 6.48068 -1.70563
1.32532 6.61596 -1.78316
2.72904 6.50231 -3.40686
1.05087 6.29857 0.718651
-2.34358 5.48923 -4.08304
-0.656955 5.73212 -3.15283
2.06654 6.33827 -4.46587
2.03917 6.91442 -0.770969
3.38071 6.12117 -1.82432
1.352 5.33708 -2.71983
0.915896 7.04432 -0.538701
-0.663075 6.37912 -1.56925
0.163083 6.92589 0.791123
0.135568 5.93951 -5.33147
1.59709 7.25004 -1.41903
2.41302 6.76573 -3.68311
-0.883713 5.94751 -2.15511
-2.41119 4.91743 -1.79163
-2.34915 4.74353 -3.15146
1.84606 4.96217 -3.5815
2.79576 5.43127 -1.37128
0.262254 6.99788 0.431427
3.12152 5.79249 -1.59296
3.29209 6.21367 -1.4119
2.38971 5.92433 -4.39959
-1.28644 5.43295 -1.78225
-0.8358 5.64926 0.837138
-3.01631 5.8691 -3.19831
2.4324 5.38215 -4.10711
-0.0810357 6.99253 -4.93841
2.05094 4.91083 -3.21548
-1.6001 7.18629 -0.11332
0.0137274 5.46763 -1.00958
0.264531 6.81642 -3.3533
-2.56394 6.84438 -2.86933
1.09543 5.66289 -2.78774
-1.39076 4.91996 -4.73812
1.20444 5.05537 -0.805332
-1.83334 7.13885 -3.12279
-1.77565 7.26073 -0.473042
-1.00411 5.02914 -0.115106
2.08402 5.89318 -4.66484
-0.812463 6.16347 -1.86121
-0.902459 7.09075 -0.0503526
2.1614 7.28099 -3.17156
-0.58298 5.04318 -3.84925
-0.254333 5.04329 -5.24061
-2.11935 4.80065 -3.84401
-0.561057 6.35409 0.768391
-1.70458 5.10612 -2.37444
2.6665 6.05512 -0.426819
-0.378695 5.30792 -0.969798
-0.520145 4.86383 -0.820748
0.51317 6.97775 0.147776
1.33544 6.78834 -4.83965
3.07061 5.91615 -1.22239
0.384101 5.04457 -0.639084
1.69114 6.64005 -4.6417
-1.58555 5.14119 -2.78309
1.78486 7.05084 -2.9908
1.25224 6.88152 0.290237
-2.34542 6.96325 -1.0306
-2.241 4.68691 -2.10959
-1.73814 5.29644 0.19536
-2.65113 5.12649 -2.96678
-0.51925 7.08627 0.569723
-2.4867 5.71798 0.00376977
-1.89518 4.90457 -2.07557
1.7842 5.90314 0.307789
1.029 6.72983 -1.28839
3.32633 5.8861 -2.96809
-2.00307 7.25665 -0.790694
-0.863827 6.95498 -4.68117
0.594573 6.44345 -5.226
0.842487 4.84533 -3.55093
-2.46949 6.26662 -4.30572
-2.18172 6.60928 -4.62599
-1.14492 5.06789 -1.1852
-1.1179 4.88341 -0.572479
0.884302 6.22456 -2.48999
-0.940604 6.06582 0.728989
2.46423 7.05767 -2.42357
0.20349 6.98803 -0.113926
-1.26018 5.67922 -5.04025
0.554709 4.93154 -3.85709
-1.5987 5.44815 0.623102
-2.49308 5.11921 -1.4137
-2.30834 5.10996 -3.88881
3.2027 5.7588 -2.04875
-0.599409 5.00351 -4.28186
-2.75583 5.43177 -3.23799
-0.53056 5.9672 0.835154
2.47086 6.71661 -0.729558
-0.561421 6.06676 -1.26942
0.702827 6.74715 -1.0987
-0.0811966 5.01426 -4.84333
1.29718 7.20646 -1.18184
0.63145 6.99587 -0.234131
-0.510079 7.05747 0.132151
-3.29214 6.29124 -2.91423
-1.02839 4.99634 -4.13155
-1.69452 7.14325 -0.971714
-2.14412 5.70973 -4.41454
1.21336 7.11608 -4.72654
-0.180637 4.94429 -0.853991
1.04959 6.98868 -3.95146
-1.00342 6.67403 -3.13522
-0.11787 6.99303 -4.49019
-2.40012 7.07701 -1.83441
-2.34855 4.71624 -2.82129
2.70096 6.79763 -2.66439
-0.534442 7.02509 -3.45886
-0.911222 5.94772 -2.87909
-0.937189 5.81298 -5.18324
-0.762733 6.24928 -3.19329
-1.26856 5.78012 0.695657
2.42257 6.96345 -3.3386
-1.43174 7.21092 -3.06018
-0.907394 5.37274 -5.15725
0.219959 6.40045 -5.30166
-2.2253 5.54067 0.212885
-2.0771 7.30144 -1.19942
-2.92038 5.53261 -2.87195
-2.72607 6.75111 -1.75426
-0.895886 5.25226 0.784305
