-4.43102 -4.06269 4.41074
-8.10333 -6.09955 -0.6863
10.0975 2.55964 -10.006
-6.64612 -5.09217 -3.15733
-4.56869 -10.0074 8.15827
5.07793 -6.18809 15.3753
-6.04643 -10.013 2.92846
7.10383 -4.59474 -17.1159
11.6464 9.87035 1.84655
-3.27445 -0.589604 -19.0049
-6.256 10.0063 0.602912
9.21395 3.2185 5.06033
-6.28165 -10.0082 -0.903315
8.0495 -9.90192 -9.83712
8.33123 1.95533 18.9037
9.42715 -10.0051 -6.36108
-8.2093 -1.98663 7.83447
-1.88505 -5.94386 -11.8845
-4.78199 -10.015 -4.36065
-8.13279 1.47583 -9.81993
11.6929 2.94453 -9.83997
0.42821 6.87395 -15.4116
11.719 9.87682 -4.56591
7.61716 3.53297 18.8558
6.40628 8.30549 -3.83
4.08804 6.37683 5.54653
11.6867 4.23847 -4.51791
5.0805 5.56326 -5.03239
7.96189 10.0079 7.90795
-8.20875 -8.02503 1.03928
3.93575 -6.67825 17.1708
-4.55975 9.87235 -9.87657
-6.75528 -0.72356 10.0141
-4.44659 -3.19791 17.0756
-2.92075 -9.80555 -3.90077
4.99018 -3.8977 19.0053
7.72687 -8.00675 0.753818
7.52881 10.0036 -5.8891
-8.07532 1.04339 6.06273
-6.36977 0.589952 5.98122
-1.14364 -3.00398 5.285
-6.39228 -9.87061 -9.89057
-1.39501 1.6428 -5.7672
7.69864 5.93769 1.63282
-6.02487 -5.61208 2.10191
-5.764 -10.0079 6.51139
-8.2065 -5.87162 -8.21402
5.70789 -6.16037 -4.55476
11.69 1.08169 6.08256
11.6353 -9.91881 2.15697
-8.12556 -5.55163 2.61251
11.7245 5.22413 -3.26564
9.99877 3.08357 10.0034
-8.21362 7.73851 3.37062
8.65779 0.497193 -18.8586
7.70225 -3.77028 -15.4407
-8.10215 3.72598 -4.96276
-1.55896 -9.84178 5.06295
-6.31157 4.38185 -4.10363
5.27337 -6.07069 11.8806
5.05901 -6.18921 -11.8622
7.17195 4.49179 -15.6969
-8.2165 7.97175 1.47361
11.7064 -5.87819 1.63282
-8.20625 -8.34344 -5.66257
-8.06357 4.89844 -3.75788
7.16507 7.94209 -10.0131
-8.20591 -7.981 5.8238
-4.77632 -2.41015 -13.6823
-4.65066 -10.0114 4.49719
-8.21414 8.22674 5.45097
-5.06554 1.45705 -17.1705
-1.99974 2.82251 19.0068
7.68507 -5.87891 -1.85927
11.7326 -7.7772 9.80406
-4.52936 3.98641 -4.48001
-1.23423 -6.42891 -10.1172
-5.01649 -5.00594 -3.29429
-3.09831 -5.00638 -15.4047
11.8084 7.92495 -1.54034
3.84052 -10.0105 7.70094
-1.80807 -6.01356 17.0797
9.77672 -10.0102 1.37809
-2.42652 9.89133 4.4539
2.50657 -6.80515 18.9134
11.5969 9.79689 9.81759
7.97012 3.3117 -15.035
-3.66922 -5.43522 2.85277
3.26542 6.86009 15.3014
4.29901 -6.54484 13.5874
7.69293 9.79689 9.8848
-2.52432 -7.66733 -4.15903
0.804866 3.6848 5.92745
-8.07593 9.85968 -1.44058
-1.24574 9.87146 9.86045
1.73788 -10.0164 7.98116
-8.20637 -6.49258 -4.4915
-8.08242 -4.57732 9.8783
-8.0993 2.35021 -5.7127
11.8081 2.17231 7.74926
-5.8408 -9.85359 9.909
1.5051 6.98562 11.8348
-1.32188 0.422136 19.003
-0.0116989 7.69859 5.71345
11.6879 9.88739 -6.24349
-5.02274 -1.60962 -15.3862
11.6799 9.83517 6.78708
0.501033 9.90859 -6.07978
1.64833 7.00031 -13.5641
-1.86164 -10.0156 -8.5466
9.97546 4.05999 -4.40562
4.40073 6.50794 -15.2838
7.17295 4.6772 -10.1149
11.6443 -5.18082 3.22693
-2.58315 -4.36305 4.20569
11.6188 4.59636 -9.92742
-8.20536 -7.82151 7.87157
9.48111 -5.45909 2.47007
-8.21505 -7.95241 2.96714
7.70191 3.75768 -11.9115
11.7096 9.8353 -2.90093
11.6954 9.86907 0.00605297
-4.70915 -2.81444 -10.1095
-2.80326 4.62235 -3.97228
9.86111 10.013 7.963
3.49071 6.37428 -5.76372
5.9666 -9.87302 4.55001
0.190209 -6.72021 -18.9218
-8.21032 7.85204 -8.0044
11.6878 -3.87445 -4.82312
-2.57414 5.46633 15.4065
-3.24035 8.21984 -10.0137
11.6706 -9.87347 -1.63282
4.1225 -6.68827 -5.53361
-6.31114 2.95712 -5.23566
8.04552 9.8679 -9.84273
-4.36638 3.01658 18.9281
8.07858 -3.07993 12.0484
-4.34327 3.38697 -17.1227
5.4059 1.36743 -5.87177
-3.56762 -10.0107 -5.92281
5.06558 9.93084 5.18302
-3.51536 4.35071 -18.8224
-1.84222 -10.0081 -6.8654
11.8052 7.47822 6.28032
-6.58379 -10.0148 -4.88654
-8.20513 5.43894 -5.97371
-0.652331 -3.96963 19.0051
-8.20436 -5.61984 5.99872
1.81527 4.76981 -19.0037
-4.86405 -2.15045 15.3874
-8.2079 4.76048 6.27944
0.98767 6.96481 -11.7749
2.53302 1.00014 5.96117
9.86452 9.89324 -9.86681
-8.07533 9.85537 0.253005
-6.31633 9.86676 -9.87662
-6.3962 -1.55381 5.78763
-3.55077 -10.0077 6.21305
-8.07601 4.84508 9.87515
9.73498 -10.0077 -0.73851
10.0945 10.0188 -7.84849
-0.715148 -6.5281 11.8856
5.8205 9.88957 9.83415
-2.68934 -5.57873 -10.1235
11.6497 6.52646 9.89202
7.19309 -4.22433 -18.9238
-8.20749 7.81311 -2.45483
11.8117 -7.95582 -8.19678
4.69046 -6.20911 -18.9081
-8.20333 6.57601 -4.29501
-6.21002 -5.99271 0.378558
7.74818 -3.67816 -11.9501
-5.13369 0.988569 13.6376
-0.331087 4.19475 19.0056
6.77323 7.91819 10.0064
11.8082 -6.94846 3.21341
7.99501 -6.26775 10.0039
-8.07644 -3.32607 -9.85113
3.87524 9.90847 9.84037
-8.08288 3.45089 -9.83597
-1.51941 -1.07766 5.90639
6.9657 2.86655 5.27029
-8.02836 -8.29072 9.85977
11.6915 -2.22965 -5.75581
6.00751 -7.98447 -4.26538
-3.92134 -10.0088 -7.92556
5.86668 -10.0111 8.23512
-2.7132 4.49189 4.15048
-8.21646 8.07046 7.87207
-3.42509 9.87219 -3.24557
10.1881 2.03185 5.63913
9.83345 -9.79697 -9.91678
8.01319 -10.0121 -7.96087
4.30407 0.992288 5.93154
3.54728 4.46687 19.0054
-8.04956 -9.90146 5.94378
0.970835 7.0429 10.1195
-8.20932 -8.30449 -3.69586
6.0191 5.75126 10.1235
11.806 -7.79968 -6.38606
5.48701 5.95641 -13.5673
4.70333 10.0089 -7.96858
11.6069 1.30622 9.9504
9.63748 -4.5824 3.86307
10.0718 6.48645 -10.0103
-4.33078 3.38131 -13.6603
-3.11547 5.00706 -16.6142
11.8086 7.96997 -5.81519
-1.41243 -10.0151 6.64671
5.33814 3.62646 19.0065
11.7152 -9.83451 -3.58203
-2.51395 9.81852 -4.30697
-2.91008 7.39577 -3.7206
-8.06965 9.89376 2.2676
8.72764 -1.029 -13.6728
-6.21261 -10.0076 1.06251
11.7055 2.96079 9.8216
-4.696 2.60521 -11.9137
-8.20656 -3.93367 7.5356
-0.454885 -4.43347 -5.56456
8.36483 -10.0045 -4.08694
-8.21262 0.0301334 8.01674
-8.04702 8.30853 -9.92753
-8.11578 5.86574 1.88891
11.8079 4.37617 -8.28491
0.0745846 0.610185 -5.98882
-6.15283 3.99837 10.0064
-4.50696 3.03064 13.6192
-8.20928 8.00844 -0.502944
-1.77476 6.03262 17.118
8.98436 -0.200756 -10.1199
-1.63513 -9.82576 -5.03953
1.91951 -6.85789 -18.8557
-8.13929 -2.32634 -5.79386
11.804 -3.94119 -7.38627
3.59158 -6.14065 5.7335
-6.09648 7.80761 10.0133
7.11263 -4.30227 18.9407
-1.6102 -9.86563 9.85397
11.8153 -8.57421 3.21812
7.91597 -10.0068 7.59135
10.1347 -10.0105 -4.67474
11.8109 0.258943 8.06189
-8.21319 -8.22181 -0.872871
-4.49561 4.54496 3.89867
0.0663913 2.06491 19.0026
-2.96481 0.964269 -5.9354
7.93093 -3.38481 15.628
9.95396 -10.0118 -8.20706
-3.08536 2.94856 -5.23307
2.7331 -8.13125 -5.92494
11.6713 5.81746 -1.93803
7.13993 -5.2521 3.11465
-6.349 10.0061 -5.89748
11.6695 5.24734 3.15921
-4.8756 -2.08129 11.9922
6.34345 -5.32782 -15.4533
7.35153 9.90001 -2.59926
4.41246 9.90277 -9.82984
0.836695 10.0076 -8.05507
-8.21201 3.78593 7.8497
9.54705 4.62698 -10.002
9.98001 4.44013 4.02488
1.78527 5.42969 -6.01702
11.8023 -5.93225 -7.8201
-4.08886 -3.82263 -4.62269
11.7035 -9.85027 -5.59474
-2.417 5.28497 18.859
-4.03587 3.87095 -15.3837
7.15545 4.50082 11.8708
4.52214 -8.38904 -5.33047
-0.0420761 -9.87484 -5.84622
4.58573 -6.58147 10.1235
-4.73861 -9.84991 -9.89105
-3.75165 -9.89906 -2.58815
-8.20696 -6.83166 4.34902
-8.00915 9.92305 -8.39354
3.53453 4.35184 -5.75417
-4.73134 9.86331 9.87677
8.21971 -2.82611 -17.1769
7.9945 -8.21169 -10.0085
2.08344 6.85781 18.8704
11.646 9.91643 -1.47308
-7.9909 -9.87346 9.79693
9.6645 9.83374 9.878
-6.52038 -2.99859 10.0075
0.131967 -10.0164 -7.8829
-8.02061 9.85829 -9.89041
1.78516 -4.64613 -6.02061
-6.52636 -2.33087 -5.52093
2.83342 10.0118 7.94732
3.59092 6.78614 11.8556
9.93658 -6.52274 10.0068
7.1423 -4.5253 -13.7363
-1.51939 3.46198 -5.03346
-0.814661 6.51431 -11.8355
5.94513 5.65683 17.0435
0.67272 3.01303 -19.0037
11.71 -0.525871 6.13482
7.37892 1.04703 -5.91267
4.60266 8.29883 10.0101
3.26835 -6.70047 -18.9407
-0.837897 9.9193 5.51651
8.52615 -1.98858 -15.4596
-4.90822 -1.64205 -18.9315
11.5969 -0.362638 9.90986
5.94709 -2.68754 5.36002
-8.03131 -9.91407 -8.16411
-4.59555 -6.26695 -10.0055
3.77245 4.64736 -19.0078
6.79659 4.90506 15.3391
-5.05791 -3.81e-05 -18.873
-3.74103 -4.06006 18.8679
2.87865 7.02578 10.1137
-4.87218 1.42149 -18.9303
1.67125 -6.06324 6.00728
-3.30309 4.79031 13.6653
-8.21046 -7.38057 -2.38527
2.53095 -6.96363 -15.3206
10.1239 10.0075 -3.89065
-6.0843 -3.88235 -4.58574
-8.06994 -6.42154 9.88963
4.74072 10.0133 7.88681
9.88914 0.334669 5.99618
8.52091 -1.98823 -11.9094
-4.05489 6.76933 -10.0021
-3.08417 5.01827 -14.3681
2.87486 10.0143 -8.04137
8.78605 -1.61713 -10.1214
4.41487 -6.25732 18.8668
-5.19586 -0.114603 15.3855
-8.21223 2.23598 -7.90625
9.76358 -10.0106 -2.65534
-4.29575 6.08524 -0.951932
5.74602 6.129 4.51804
-8.20955 5.84193 8.19512
-3.81621 7.83066 -2.09128
6.07199 -2.3053 -19.0076
-8.00053 -1.68135 -9.93288
9.81735 -3.17248 5.08259
-3.3148 -4.80299 17.0836
-1.562 7.91285 -4.97414
6.57523 -5.10829 -11.9201
-6.44675 10.0219 -7.87424
2.162 -6.35585 -6.01002
-0.255432 8.31294 10.0051
-8.0783 4.97346 -9.86253
8.44256 -2.23564 14.3111
4.42371 -0.137927 19.0035
6.46876 -2.3388 -5.52728
-6.07062 -5.79902 -1.51912
3.72896 9.90026 5.88273
-2.47565 -5.53566 11.9593
-8.2094 -5.92372 7.91692
-2.57187 -10.0095 8.09139
7.89964 -3.929 4.54551
-1.40375 -8.24168 -10.0088
7.36396 -10.005 -5.98393
0.504535 -6.74757 18.9206
-5.98489 10.0054 4.38581
-2.92919 -9.86445 3.91877
11.5969 -0.590616 -9.90225
-0.00408999 4.49311 -5.71399
-0.237136 -6.70379 -11.8427
8.08223 3.11572 -17.0318
-8.08154 -0.7985 6.11915
11.7113 -0.64873 -6.12812
0.168809 -6.81228 13.6346
-1.37368 6.02603 5.09224
-6.33064 4.06258 4.42227
-4.46874 -3.11229 13.677
-0.254971 6.69863 -13.6422
7.68222 -9.89979 9.83605
-1.38711 10.0091 7.9036
11.6746 -6.85789 -9.90163
-3.97687 3.94957 11.9129
-3.64289 5.53221 -2.6587
4.42978 6.33971 -18.9245
11.808 0.219166 -8.02055
3.6429 6.75966 -13.5287
6.41455 -7.86937 10.0136
5.9257 -0.54793 -5.99204
3.04903 -4.51383 19.0056
3.75402 9.94522 -5.85938
5.49505 5.94026 11.933
-0.362964 9.90696 -9.82259
8.00771 -2.80113 18.9407
-6.316 -7.4357 10.0174
9.57213 10.0079 -2.03166
6.49712 9.82397 3.96148
1.33884 6.82595 -18.8713
8.80939 1.40869 10.1019
-1.73883 5.79899 -4.855
9.86152 -1.54048 5.79776
4.69084 -0.746649 -19.0034
-6.51943 9.80716 9.90303
1.86081 9.90532 -9.82447
6.16434 1.71944 19.0031
3.2035 8.60671 -10.0032
-5.19486 0.367541 -15.3754
8.31595 -2.59566 17.2032
9.93532 -2.90709 -5.25097
-5.55785 -10.003 -6.38556
0.416163 5.61961 5.84424
-8.0408 6.69084 -9.86865
-8.08294 -4.79142 3.89405
-8.10561 0.952129 -6.08232
11.8083 7.65068 2.64001
-4.18494 8.02315 -0.0923631
5.31011 -10.0067 -6.64316
6.73219 2.83739 -5.29284
-6.07244 -10.0184 -8.06735
6.71875 -4.98169 15.3854
11.8027 -4.5263 6.45428
-3.93675 -4.01574 15.3477
11.8077 -1.67095 7.83324
-5.10861 -1.12059 13.6814
-8.20393 6.72202 6.58876
-2.86502 -2.79114 5.31782
8.82941 1.37016 -10.1235
11.6953 9.84032 -7.97159
11.8053 6.41475 4.57904
-5.91818 -5.12814 10.0079
-8.20807 4.05657 -7.52053
8.44738 10.005 -4.11286
2.95788 6.91647 -11.8348
7.3769 7.80446 -2.19666
11.8088 8.02025 8.03052
-3.42248 4.68163 17.0865
-8.00189 6.06369 0.451602
6.69658 -0.304718 -19.0037
6.88873 -4.79932 11.9426
-8.20499 7.57951 -6.21465
7.94494 -6.17797 -0.067101
6.00826 5.43402 -18.9017
-0.0502386 6.43997 -5.70733
11.8102 -5.76535 8.23809
-8.07675 -3.75629 4.91885
1.95173 3.328 -6.00976
11.6141 -9.9127 4.24533
8.33526 2.50444 11.8967
0.250091 8.28835 -5.80103
6.11931 -10.0124 -8.11812
4.31485 -9.83868 5.62488
0.867109 8.47311 -10.0023
-3.84876 -4.13486 -13.6999
8.17664 -2.88852 -13.6887
11.6874 -3.74098 9.84987
-6.53627 -10.022 8.26455
6.01844 5.58865 -15.3289
-3.30312 -5.21702 -3.31024
8.06336 4.3236 4.15222
-8.06859 -9.8758 2.0519
3.98084 -10.0099 -8.06548
11.8083 -7.97319 -0.858648
-8.2045 -5.00288 -6.15766
-4.33234 1.38455 5.83607
9.79191 10.0098 0.0733733
-4.75863 2.78372 10.1235
0.493685 6.64684 18.905
-2.4432 -8.17187 4.24536
-5.05791 -1.42907 -11.8748
-0.720127 -9.80453 -9.86049
-4.12602 -5.94615 1.56335
7.57922 7.91799 1.56946
-8.05956 -4.99207 -9.85272
11.6597 4.22901 4.45083
-2.32382 -6.33086 4.35692
3.94124 -9.91126 9.79693
-8.03961 9.89889 6.00006
4.59 -4.21106 5.31831
2.82189 2.90199 5.90885
-2.78401 1.3828 -19.0049
-8.07908 -9.88902 -2.20571
7.37 -4.52215 10.1235
-6.12826 5.81874 10.0097
-5.18296 -0.596741 -17.0935
-2.84695 -1.02537 19.0042
5.99385 4.17327 4.39867
-8.20366 -6.81586 -6.55943
7.78177 8.05945 -0.355174
-5.20107 -0.0424485 11.9495
8.79455 0.643901 17.1215
-0.29741 4.69005 -19.0046
5.29844 8.05045 -10.0033
-4.47961 3.18476 5.08984
11.8065 -8.09269 5.29111
4.95962 -0.749103 5.96191
-6.61518 1.90982 10.0036
-0.00699552 -6.78604 17.1195
-8.20659 6.26813 4.74132
11.6065 -9.85554 -9.68353
3.69889 8.1438 5.68416
3.20513 0.69225 -19.0018
6.64769 -9.86887 -3.78897
0.187779 6.82822 17.1125
-4.34047 -6.56248 10.0029
6.10057 -4.28712 4.29126
2.95806 6.77754 -18.8908
8.66886 1.35994 15.3906
-8.20817 5.98522 -7.93001
11.8054 -6.01058 4.96982
-0.922574 6.60047 10.1235
-8.08477 -3.633 -4.95766
-7.99699 9.84132 9.74017
9.61274 10.0049 2.16032
11.805 -7.93566 1.21772
-8.20904 8.3156 -4.46528
5.1537 6.14947 15.328
9.78157 5.95087 0.787236
-5.94812 10.0085 -3.6035
-4.15454 -3.38138 -18.8528
-3.69917 -4.3656 -17.2032
9.64706 10.0031 -5.85968
8.06161 6.27126 -10.0013
-1.06987 9.87857 -5.45062
1.57331 4.95049 19.0047
7.85539 -6.38598 -10.0013
6.92312 4.79985 -17.332
5.39537 -9.89242 -4.95494
6.1746 9.87773 -9.89476
-0.475153 -6.65068 -17.1754
3.77756 -2.28665 19.0029
-1.38179 -0.554057 -19.0035
-8.06342 -5.67885 -2.36307
8.15964 -3.19373 10.1235
-3.15408 1.04673 19.0057
-1.9765 5.90053 -13.408
7.9229 -10.0044 5.30464
-8.086 4.22014 4.47419
4.0249 2.10089 19.0029
5.06961 7.64225 -5.01898
6.20984 -5.64489 10.1235
11.8056 6.20993 -7.46168
-0.402105 -1.74347 19.0053
11.6474 0.964721 -9.91866
6.81416 4.75107 18.7591
-4.04328 3.86242 15.3573
0.735694 -4.76076 -19.0036
1.90989 2.99045 19.0022
-8.08765 0.968357 9.86109
-2.44797 5.28207 -18.8361
9.98386 -4.33015 -4.13825
0.47987 -9.88248 9.86582
5.84784 5.87812 -10.1074
-4.33892 -6.14074 -0.224507
7.54734 -3.99584 13.7263
-8.1058 5.73707 -2.34816
1.48378 -2.97082 19.0028
4.2442 -1.56275 -5.79759
3.84418 0.248615 -6.00046
-8.05658 9.87847 4.10791
6.82033 7.5838 3.26981
6.56041 9.87601 -3.91983
8.00466 -9.9068 0.0492319
11.8088 7.99519 -7.93066
11.7277 -3.41779 -9.84032
4.39326 4.57136 5.41965
2.4705 6.97013 -15.2493
2.23633 -6.9912 13.6936
-3.66686 -9.8681 9.85975
-2.48858 -5.53264 -13.6749
0.584517 0.0511493 19.0026
-8.06302 9.90826 7.85693
-8.12784 5.22153 3.19932
-2.5126 5.50984 11.8701
-4.29731 -3.45082 -15.4598
2.81941 -8.00631 5.90149
11.697 -2.32532 5.74254
-8.07782 6.73748 9.90482
-6.42017 1.12411 -5.88855
11.6851 -9.86018 -7.61399
-8.21512 -1.84216 -7.95018
8.7364 1.1625 -17.1644
-2.4687 5.54236 -11.7429
5.87145 -5.48683 18.8842
11.6377 -5.64018 9.88954
9.46001 5.2314 -2.93928
8.41755 10.0071 -7.72799
11.8063 3.97648 7.84849
4.15636 6.6041 17.1176
8.1031 3.30097 10.1235
-4.0487 -5.87047 -1.81313
-4.94528 1.37758 18.9307
-1.38798 -6.01241 -18.9024
-8.07091 6.02775 -0.962455
8.40186 2.35289 13.7388
-2.3342 7.88536 10.0095
0.532739 -1.05567 -5.93476
-1.50778 6.17778 -15.3895
-6.26268 -5.55172 -10.0079
3.61693 6.78057 -17.0386
-4.3042 6.08774 0.931383
5.72576 -9.87455 9.91775
3.0019 2.77437 -19.0032
7.6781 -5.91504 1.6273
2.02718 -2.446 6.00745
-4.30677 -9.87267 0.708076
-3.95626 -3.9736 11.9263
4.57579 -6.42911 -15.3742
7.6781 -9.87443 1.79722
-5.08507 5.29028 -2.83346
9.75119 5.87681 -1.16704
2.4883 -1.01135 -19.0034
-2.92329 -5.34278 10.1235
-5.28514 -1.26901 -10.0758
6.0093 -4.2267 -4.41598
-4.38586 -3.26568 -11.9439
11.6814 -9.8538 0.0706216
2.34517 6.97716 13.5554
-1.66967 6.08279 13.6176
11.6404 -8.49817 -9.90837
-4.58649 2.88804 17.107
-0.336637 -8.32887 10.0057
1.49164 -7.18445 10.0572
-8.05118 -9.88638 0.0112168
1.78506 8.26343 6.01951
-5.18647 -0.47568 -13.6091
3.46684 -9.91932 -5.90958
-1.68875 8.06138 4.88519
7.23643 -7.94114 2.53161
9.2332 10.005 4.0759
7.61641 -9.91573 -1.96586
11.6518 5.9903 1.34258
-4.7446 0.44524 -5.99949
-2.2376 -5.74249 -17.0805
5.39215 5.87812 18.905
-8.0206 -9.47159 -9.8663
8.65779 0.336946 18.9354
-0.893978 -6.46102 -13.6728
7.97687 -2.32814 5.54168
7.19451 4.77158 10.1059
-1.67582 -6.07682 13.6629
6.09618 -10.0051 6.44078
-6.23721 2.40411 5.49563
0.468495 -6.87887 -15.4322
-4.52263 10.0082 -4.86241
-3.0403 8.30443 3.52837
5.45244 -5.98796 -17.1169
-8.08634 8.36201 9.89177
-2.44539 9.89641 -9.85137
4.09281 -6.62008 -13.6129
2.19156 -1.08124 19.0032
-0.741242 -6.52762 15.3969
-2.81832 6.51074 3.82336
-8.20877 1.97212 7.86183
-1.79226 6.19275 -10.0952
-8.20659 0.191423 -8.00294
5.38694 6.02864 -17.1219
7.3837 4.24756 17.0416
1.19129 -6.97539 15.3572
4.06253 -2.40674 5.60384
3.75534 -2.58887 -19.0032
-3.49764 -7.66318 2.81292
4.73902 6.51212 10.099
7.29075 -4.37963 17.2179
0.166529 -6.16459 -5.77142
5.79519 -5.76159 17.0917
2.05912 9.92483 9.80429
9.47085 5.42036 2.59394
9.56907 -9.91724 9.83636
7.9517 6.13455 -0.126971
-0.649246 1.34304 -19.0048
4.73902 -9.87863 -9.8755
4.7714 2.76155 5.36623
-0.925581 -8.00993 5.36286
7.55049 10.0024 5.61592
-8.09019 -4.62142 -4.05992
0.734698 10.0108 7.96412
-8.07063 -7.16963 -9.87692
10.1866 2.43991 -5.48464
6.08502 -5.5361 13.633
0.998077 -2.91001 -5.95228
7.88291 9.8874 -0.959671
8.34716 2.52768 17.1389
-2.56051 -8.05746 10.0069
11.6564 0.934305 -6.0551
11.7419 2.63518 -5.54523
-0.116629 6.75854 -17.1972
6.61886 -0.17983 19.0051
8.54458 1.91245 -11.8439
-2.52616 -5.33281 18.9122
-3.83966 4.32777 10.1235
11.6875 4.88184 9.88381
2.44345 -6.97255 -13.5252
8.73225 -1.08867 16.6123
-4.40621 2.84549 -18.8879
11.7327 -5.2176 -3.3143
8.78186 -0.554361 14.8486
-4.83901 2.23635 -15.4418
9.49883 0.78356 -5.96086
9.41418 -10.0036 3.47286
-6.03471 -4.78875 3.62418
-4.61026 -2.31794 5.54254
-1.80906 -5.97649 -4.79528
-4.05552 9.90926 -1.95758
1.2956 -6.97532 11.9551
-1.29059 8.19954 -10.0091
7.32272 3.97793 -18.9102
0.00116612 6.85781 -10.1053
5.99504 -2.07981 19.0077
11.8102 -8.0693 7.80001
2.23853 8.47588 10.0024
-4.24107 10.0052 5.26089
11.8061 -3.54761 7.97213
-0.224973 -2.43246 -19.0032
4.85038 1.39791 -19.0045
0.894079 -8.00997 5.9529
3.24353 -6.86004 15.3812
2.10971 -10.0141 -7.98096
3.75933 6.57917 18.9246
-5.18667 0.628691 -11.8604
-0.0597128 -6.86261 10.1854
-1.2339 10.0088 -7.77656
9.78803 -10.0102 7.75522
6.71903 10.0096 -8.17292
4.36524 6.52559 13.5926
11.8038 -5.65498 -5.67551
6.49344 -9.85767 -9.83994
6.27636 10.0047 7.18541
-8.03658 9.93215 -4.73272
11.6381 8.15384 9.90374
8.58039 1.7787 -15.3983
1.90549 0.994127 -6.00231
11.6096 -9.81718 9.77642
-4.68194 2.23015 -5.57409
0.16712 -1.88151 5.80025
-3.55155 -0.830853 -5.94853
11.6447 9.91787 8.2847
11.5969 9.84852 -9.80662
2.11817 9.92322 6.11959
7.94122 -3.87375 -4.58478
-3.67367 4.36593 -12.2103
4.84925 -3.12963 -5.26335
11.8058 -7.51969 -4.52219
7.68894 -8.03596 -1.13779
5.3087 3.39647 -19.005
-1.09763 -6.20476 18.8903
-3.17628 5.05789 -10.1235
0.785956 -6.93283 -13.6402
0.604626 -0.630055 -19.0033
8.75422 0.862514 -13.6502
6.58767 -6.51992 3.61965
0.826715 -8.04393 -5.92082
-5.047 -0.624012 18.883
-5.03858 1.52521 -13.6433
-2.78353 10.0058 -6.28691
-1.76875 3.16842 -19.0038
6.08532 -8.1214 4.17588
11.7504 6.42987 -9.80549
2.59763 -9.85963 -9.89363
-8.21368 -8.09187 -8.03217
-8.20815 -3.77995 -7.71048
0.492754 9.88249 9.88536
-4.2767 6.29417 9.99889
-3.82361 5.56597 2.62852
-5.99404 -7.88167 -10.0163
-4.56519 -2.55846 18.9221
8.61272 -5.06543 -3.20394
-3.58827 4.2453 18.9252
9.64244 5.30871 10.0042
-2.6807 2.6703 5.36703
-6.30565 3.74959 -10.0142
-3.50143 -7.81463 -10.0101
5.94671 -7.89039 -10.0067
-8.0853 -2.35018 5.70659
8.52106 2.61248 -5.40514
11.8045 5.06585 6.17524
-6.24528 -3.36583 4.96305
4.01074 6.74003 -10.1113
11.8065 6.11272 -5.23547
11.7059 2.89784 5.50618
-8.08826 -9.82472 7.73547
-5.31589 0.303287 -10.0635
-3.07008 -9.84737 -9.86493
6.23427 -5.25588 -18.7816
-1.68857 -6.27598 10.1384
11.6843 -6.18088 -0.107957
7.87482 9.84866 0.903893
-2.38713 0.827304 5.96133
1.69768 -2.87406 -19.0029
-4.10978 -8.01715 -0.914193
9.62859 -4.57354 10.0046
-1.19529 3.84859 5.20487
6.42765 5.2503 -11.916
10.2688 -8.39552 10.0297
-4.9267 1.95296 15.3625
2.84056 -4.70254 -19.0033
-5.29377 -0.368435 10.1231
-5.98473 5.2843 2.8611
3.57719 -6.7942 -17.0594
-3.3032 -4.79132 13.6043
9.81675 -5.95071 0.792961
5.24679 9.80986 -5.03838
-1.55207 -0.655015 -5.97945
11.8078 8.01832 0.618191
-0.714451 2.35086 5.57378
7.08555 4.59586 -13.6964
1.96088 -7.01721 17.1628
7.26961 -4.54422 -10.1208
2.69905 -4.26537 5.93145
11.7052 -5.04718 -9.81392
8.50575 -1.25067 18.9025
11.6863 -9.85551 6.37093
-6.46069 -10.0084 4.82706
-3.83103 7.75368 1.96467
-4.18048 8.13712 10.0128
6.28843 0.993057 5.92405
-8.07119 -9.89518 -4.23928
9.91285 -0.998612 -5.92169
4.03976 -4.89707 -5.56523
-8.04122 9.88338 -3.1094
11.8066 2.30703 -7.77451
-1.16096 -4.03239 -19.0067
-5.65252 8.08307 -10.0141
7.65284 5.83314 -1.91155
8.29293 -2.30225 -5.54368
6.15501 5.48267 13.6094
3.74963 -8.36997 -10.0065
-3.85512 -4.38129 10.123
11.634 8.21769 -9.89592
8.67147 -1.32602 12.4947
11.8066 7.62539 -3.62841
8.12302 4.19068 -4.28979
-6.04779 10.0184 8.19207
-8.08253 -2.81598 9.83559
-0.457185 0.443488 5.99388
11.6146 9.89294 5.16557
-0.566448 6.59095 11.9163
3.07022 -0.775145 5.96603
-2.28729 -2.86113 19.007
2.33784 -1.11687 -5.9967
2.20208 7.01439 17.0296
9.80752 -10.0073 5.63765
-2.44055 -2.45913 -19.0044
0.55592 9.8493 6.01575
-8.03463 -0.192663 -9.92124
-8.10493 -9.84066 4.14004
7.0687 5.24638 3.15805
-3.66534 9.89343 2.91968
9.59446 10.005 6.04344
0.63452 -4.13373 5.8917
11.6281 9.8669 3.38535
11.654 -3.97551 4.65728
-4.31957 -9.90875 -0.983596
8.49723 -1.54387 -18.9407
11.8067 -1.9543 -7.93055
11.8065 8.27149 4.49788
-2.15603 -3.98987 -4.63385
7.98699 3.293 15.408
9.26569 8.11991 -10.0218
9.7944 -7.47252 -10.0096
9.43883 7.78947 10.0159
8.1884 -0.391778 5.99834
-3.99582 -4.26043 -10.1235
-0.298511 -6.28516 5.62341
8.19237 -3.28097 -10.1235
2.14343 -9.8303 9.91912
-4.35604 9.89415 -0.336037
0.935658 -9.82882 -9.90336
6.12733 4.33568 -4.23779
7.539 4.0062 13.5779
-3.30667 -4.78258 -11.9115
7.03027 5.19369 -3.13287
-5.94373 10.0068 6.38791
2.37405 0.970335 19.0017
1.53056 -7.00231 -11.8429
8.7851 -0.0702884 -11.9117
5.47734 8.08414 4.73652
5.73073 -5.79392 -13.6743
-6.15836 10.0135 -1.53427
1.41957 1.19866 -19.0031
11.6792 -9.88421 8.00837
-6.03365 -10.0085 -2.81464
-5.1612 0.796036 17.1222
-6.73675 1.47645 -10.0134
1.8389 7.53551 -6.01605
0.976242 1.73884 5.94974
-3.05993 9.88612 9.81971
2.95424 -7.0615 10.1052
-4.75688 -2.2545 -5.56386
-8.1228 -1.10683 9.79693
4.60939 -8.03483 5.30285
-1.82527 6.01381 -17.31
4.20149 -6.70568 -10.1111
-6.5876 5.44983 -2.48815
11.8031 -6.65075 6.6581
1.68558 -9.8818 -6.14722
-6.18398 5.87887 1.16885
-8.08757 -6.09585 0.950677
0.305923 6.84291 13.6161
9.66779 -5.92574 -0.977231
-1.12499 -4.85798 5.25089
2.42887 4.79689 5.97542
11.7367 -2.07766 9.83769
-0.777573 6.51453 15.3704
-2.52968 -5.50482 15.3405
7.02265 -9.92398 3.26564
-4.60989 -8.38931 10.012
8.79794 -0.112902 -15.4335
-3.30685 -0.847803 5.95173
4.86862 -4.06378 -19.0063
8.26833 2.28591 -18.8622
11.7108 6.13674 -0.33697
4.2675 -8.35726 10.0078
-3.54811 -7.71543 -2.7148
-5.2032 1.10909 10.1235
8.23521 1.58649 5.78552
-8.10471 9.82967 -6.61098
-3.91798 -9.86994 2.3047
8.73364 -1.63252 10.1578
-3.52458 10.0212 -8.19571
0.423927 -9.89638 5.92347
8.0409 6.46736 10.0017
7.05773 -7.62 -2.88432
-2.44539 5.70407 10.1159
-2.76581 -2.4318 -5.48148
6.44522 6.56052 -3.81088
3.55284 2.05537 -5.7336
5.91753 -5.81568 -10.119
-8.08086 2.70615 5.54183
-5.95533 10.0066 2.56464
-6.30555 -3.37933 -10.0097
6.93689 -5.2301 -3.25812
10.1345 -2.38764 10.0057
-0.294499 -10.0092 8.11689
11.5998 -1.79538 -9.89003
-2.8098 -5.02431 -18.836
2.29489 -9.83693 6.13324
10.1045 -5.40923 -2.5743
-3.95818 10.0086 7.81015
8.19152 3.20878 -10.1229
8.97445 -0.137389 10.0459
11.8065 6.03042 7.9323
-6.42863 6.30706 -10.0137
9.61691 -5.26492 -10.0025
1.16714 6.97349 15.317
8.78125 0.616582 13.4199
0.572927 -7.09579 -10.0881
-5.0315 2.11527 -10.145
-0.947681 -7.89059 -5.32862
1.57457 -7.01289 -17.0698
-5.1424 5.28909 -9.99928
2.99162 -3.11813 -5.87986
8.77672 0.432282 11.6999
7.92484 -0.643662 -5.98211
3.47366 8.31211 -5.74926
-4.10944 -7.96021 0.978687
10.02 -3.18193 -10.0057
-4.21974 9.8397 1.30103
-2.63238 10.0112 6.44753
1.83044 7.02083 -17.0694
7.35153 9.90544 2.61251
-8.08296 3.01558 9.82112
-8.07994 -0.6942 -6.11115
-5.08679 -1.29391 17.1367
-6.13922 5.96253 -0.692152
4.79219 6.32182 -11.8041
0.311988 2.46904 -5.8119
4.94484 3.22019 -5.13909
8.2384 2.73946 -13.4786
1.21571 -0.411626 5.99857
5.79417 10.0047 -6.58347
11.8047 4.33468 -6.49259
3.31785 -6.85329 11.9119
-4.57039 -3.28008 10.1235
2.10711 7.09647 -10.0959
-4.72751 -2.5756 -17.1366
-4.60746 10.0064 -6.81856
-6.11126 -0.689691 -5.97157
-4.90058 2.04815 11.9153
-0.827638 -2.56415 -5.48279
1.05385 -5.01945 19.0052
6.65307 1.70293 -19.0103
2.22448 -7.15875 -10.0802
-0.524013 6.47969 -18.8097
-1.0103 6.23665 18.9154
2.07294 9.89359 -6.08587
11.8051 -7.77427 -2.75331
-5.1228 -1.75719 10.1314
-1.46647 -6.19992 -15.4332
7.90295 -3.15666 -18.911
-8.01318 -9.89577 -6.48153
2.11789 6.59118 6.01492
11.7153 -5.87373 -1.84846
3.3365 -6.84435 -11.7537
6.62322 -0.956457 5.94022
-4.93554 -0.428687 5.99725
5.30315 -6.16718 4.87539
-4.34364 3.60711 -10.1277
8.77505 -0.832809 -17.2029
8.42289 -8.10213 10.0083
