4.60791 5.56511 -5.32933
3.96983 6.63938 -18.9998
-4.66868 1.9997 -5.68804
-4.79301 -9.99963 4.12045
1.05876 9.96834 -5.95934
5.54321 5.9198 -13.6466
11.7994 5.73417 -5.72874
-2.32084 5.67123 17.2187
6.46736 -9.99947 9.95478
-8.19955 -1.23942 8.04618
-6.36723 6.09273 -9.9994
-5.45415 8.24964 9.99944
2.53144 4.9858 5.95424
-4.19666 7.97395 0.113272
7.70326 3.76599 -11.8524
11.7994 1.98923 -7.87315
-8.15394 -9.99942 -5.46296
-2.82189 6.52173 -3.82975
-5.06518 -1.37166 17.16
2.68572 -4.90449 19
11.7995 -6.38198 -4.51467
-6.41128 0.934097 -5.9356
5.80729 6.34805 -4.46246
1.78028 -9.9185 -9.99951
6.24743 9.99951 -4.08991
-8.19929 -6.5665 9.96395
4.66482 -9.99955 -5.36117
11.7996 6.0471 -0.493565
-8.19939 -3.50382 4.95509
1.91359 -6.77623 -6.0209
-0.355836 6.67555 -17.1672
-8.1995 7.79126 2.11872
7.59983 4.06176 -10.0005
8.42582 -9.99934 -9.96386
7.09822 2.63248 5.39052
11.7995 6.35281 4.83821
1.47092 1.00378 19
-4.76381 -8.26026 9.99948
9.97276 6.02309 9.99944
7.23903 4.40331 18.9648
-2.38283 9.99924 4.41053
-4.04254 -7.99444 1.37851
4.16097 -6.59065 15.3499
8.37368 2.41115 15.3315
4.89412 -3.14884 5.15156
11.7995 0.09165 6.0609
5.50667 5.91225 -18.9999
3.8609 -6.73373 -10
2.99223 -6.17667 5.87934
-8.1995 3.27213 -9.94481
7.66234 -3.82743 -17.0903
-8.19954 -7.86072 -2.31765
9.79853 -9.99956 -0.957986
2.14814 6.98374 18.999
7.78087 3.59545 -18.9999
-1.30795 8.20834 5.13727
6.46993 -5.21219 -17.137
-6.46123 -7.4343 9.99938
0.700904 2.88176 19.0001
-8.19915 9.95842 -6.46853
11.7994 7.81344 -5.98972
2.61361 0.715735 -5.98172
1.2099 -7.82061 5.96944
-8.19951 -0.91295 -6.00279
11.7423 -9.93853 -9.99862
-3.47559 -7.97227 -9.99951
4.0047 -6.64162 -15.3229
11.7995 -1.26168 9.95084
-3.12056 8.26611 -3.43511
-8.19951 5.93435 -7.84632
-0.186818 -6.71714 -15.0904
9.87294 -2.16454 -5.60484
7.63523 5.77576 -1.67218
7.62444 5.76089 1.67666
11.7995 -7.84644 3.83933
11.6842 9.99958 9.94026
-4.20322 -9.99963 -0.883862
2.69884 6.9395 -11.8575
7.07632 -4.60354 13.7632
-6.56205 9.99954 -4.09709
4.60746 9.97526 -9.99943
-8.19954 -8.09737 5.62735
6.8652 5.04079 -3.26919
-4.33405 3.39949 11.9728
-4.9872 -1.64157 18.9992
4.98885 6.22856 17.1278
-4.21784 -9.99943 0.702743
-8.19954 -9.96729 2.52844
-6.45956 4.33019 4.15549
-8.19951 -2.51848 -7.93933
11.7995 6.9555 2.9234
-8.19998 5.9725 1.04871
-8.19956 -8.53406 3.65949
-3.49976 2.476 5.47097
-2.24778 -5.7299 -15.4875
11.7994 -6.01617 -0.72831
0.500082 -9.99947 9.95937
-1.16947 -6.34585 -18.9591
8.61681 -1.4526 -18.9998
3.93388 -2.34264 -19.0001
-4.77125 -2.42336 15.3944
-2.11846 3.83714 4.61563
-0.154278 -9.99958 -7.77918
4.01054 6.63877 18.9382
4.04136 6.63521 11.876
9.95967 -3.91096 -4.573
-8.19949 -5.74931 8.31884
11.7998 0.933336 -9.96951
-4.64142 2.74733 17.1058
-4.4284 -3.19808 18.9622
-6.5272 6.69687 9.99946
-4.17593 3.65351 18.9603
-6.09168 -9.99963 -2.15345
11.7483 -4.57717 -3.90492
9.53054 -5.58308 2.24884
-6.07495 4.19808 -9.99956
11.7995 0.0396985 -7.94269
-5.02582 1.58093 11.9312
-1.92576 9.96093 -4.69903
-3.37678 -4.70061 18.964
4.14125 7.89449 -5.52081
-0.519733 9.99897 -5.6069
9.9569 9.99955 -4.41008
-4.42182 6.16959 -9.99953
-1.65695 7.9599 -4.9087
-4.88775 0.886093 5.94803
10.1273 -2.29223 9.9996
0.703525 6.92622 -11.8923
6.34431 8.27615 3.94611
-3.80112 -9.99899 2.33291
0.597134 4.55619 5.91361
6.23528 -8.18903 4.06156
6.26512 -6.31793 4.0233
-8.13553 9.99968 -9.93726
1.83333 -7.01076 18.9674
1.73892 7.00451 -13.6354
8.16874 -9.9997 -4.42856
-4.02107 9.99949 -5.71144
11.7994 -8.0873 -7.91193
-6.33309 2.84177 -5.2946
6.73736 4.97027 -18.9574
8.50784 1.97653 -18.9995
-4.48651 4.18836 4.29703
-8.19948 -3.53325 -9.94376
11.7995 -2.69497 7.7353
8.80301 0.537261 15.3942
-1.23209 5.82675 -5.16939
-4.94301 1.88787 15.3905
8.44468 -9.99957 -6.3812
-8.19949 7.72622 5.98342
-8.19953 8.07173 0.0646063
-8.19952 8.3907 3.99491
11.7782 2.76247 -9.99944
0.147768 -0.83412 -19.0001
4.73126 -6.83258 5.24565
8.20326 -2.83187 13.752
1.7413 9.9995 7.99771
-8.19944 8.35087 7.87041
-5.0608 -1.40565 13.6569
4.82614 8.17089 5.18403
1.99666 -7.02411 -15.2735
9.80512 -5.73941 -1.81401
1.71431 -7.00182 11.907
8.05697 -3.14068 -18.9611
-4.00724 -5.87562 1.57044
5.88222 -5.68724 -15.3298
11.7998 5.92629 1.18026
-4.3163 -3.43206 17.1289
-3.44068 -5.25609 2.97638
9.31951 9.99962 2.91117
-1.19264 -6.33288 13.6413
9.93948 4.00386 -4.47815
-8.19971 5.46826 2.59765
-6.23576 9.9996 0.0616826
3.75575 1.50005 5.81986
-2.76596 2.21955 -18.9998
11.7995 -0.681034 8.01278
-1.61513 -9.99942 9.9549
-0.59713 -8.29483 9.99956
-1.2325 -8.21972 -9.99952
-0.281004 9.99961 -7.85741
0.769362 -4.8343 19
11.7995 -1.79752 -8.1699
0.686873 -3.8383 5.93152
10.3112 -0.0846548 9.99965
-1.91249 -5.94056 18.9546
2.28848 6.9715 -18.9995
-8.16196 9.99929 -0.970155
2.51225 -1.13526 -5.97136
-0.860861 -4.96515 5.39382
-3.80723 -9.9994 -2.37232
-4.22961 3.5798 -15.3584
0.857052 -6.95617 13.6525
8.25205 4.69506 -3.76744
-2.97644 -5.13907 17.1164
9.79165 5.30777 -2.82775
1.66723 9.99965 -7.94986
-4.91601 1.91577 18.9998
8.55163 1.88977 -15.3106
-2.77464 -5.26331 -18.9997
-8.15738 -4.76947 9.99955
4.5138 -0.753863 -5.98313
1.01512 9.96711 -9.99945
8.83407 0.893641 -10.0002
6.59508 -9.99968 3.70754
11.7598 -9.99933 -8.30325
-8.19955 -8.08821 -0.327354
-5.86037 5.35398 2.72497
-0.54718 -6.60387 -16.9301
11.7997 -4.32654 4.24948
0.297121 6.81762 18.9994
-3.64968 4.40968 17.0942
8.31579 2.70816 -9.99986
-8.17358 1.47406 -9.9996
6.59131 -9.99966 -6.09172
9.78646 5.95032 -0.818388
-6.03546 -2.59394 5.40347
-5.93485 -5.28992 2.86088
-1.29346 0.731893 -19
-8.19948 -5.22201 -8.18251
7.38729 -4.22553 -15.3189
0.984278 -5.7128 5.95343
-1.48707 -6.19205 -13.7544
11.7994 -8.35139 9.96376
-3.68927 -9.99964 5.96353
6.38752 -5.28907 16.9526
8.03392 -3.22108 -13.6363
11.765 8.37244 9.99926
-1.9089 -6.02859 -10.0002
11.7262 -0.825292 -9.99948
11.7614 -1.54121 5.79384
-5.19113 -0.11365 -18.9648
5.38829 -5.93269 -4.80557
2.01499 1.27536 6.01428
8.3646 -9.99964 4.19608
4.72147 9.95329 -5.23138
11.7995 4.43859 4.13314
8.69522 -1.20731 -13.5959
-6.02014 -9.9996 1.96984
1.97254 4.78688 -6.02655
7.53557 -9.99948 8.09994
3.8573 6.56344 5.63409
-6.03633 5.91897 -1.07381
-1.5525 6.14759 18.9654
-0.469831 -9.99853 -5.63427
7.65714 9.99909 1.53972
1.86216 -9.9994 -8.04075
11.7773 0.82895 9.99949
-1.58181 -9.99972 5.02409
11.7996 9.9465 -6.72856
5.17391 -3.93102 -18.9999
-2.40888 5.59947 15.3735
2.1389 -9.99996 6.05281
-6.6933 -0.604844 -9.99971
11.7995 8.03141 -0.137484
8.70862 -1.01242 18.9997
11.7995 6.56469 9.95883
-0.730135 -6.52507 -12.1376
-0.994841 9.96527 -9.99929
1.08603 9.9995 9.95394
-5.20401 -0.447628 11.8795
5.77762 5.75381 18.9672
9.8796 2.1313 -5.62109
7.76354 -8.00119 0.706388
11.761 0.526307 -5.97461
11.7995 -7.77016 2.05185
3.50582 9.9996 -8.21852
11.758 -8.23788 -9.99967
11.7995 8.22366 -9.96676
5.22136 -6.11475 13.4898
5.77035 9.99958 -8.30311
3.77263 -4.43602 -5.68288
11.7997 -9.95632 2.73716
-4.83723 5.01025 -3.30349
-8.19955 9.93866 -4.69412
-2.05111 6.46594 4.596
-4.75087 -2.47374 11.8668
1.51285 -9.99962 8.01602
8.87911 -0.649 -10.0001
3.56397 4.83822 18.9999
0.501501 -1.7718 -5.87299
-8.19957 5.65856 -5.68526
-2.96321 5.14948 -11.8052
10.084 -9.9552 -9.99916
-5.71055 2.90739 5.26647
11.7998 2.09626 -5.69417
-8.19949 9.96385 4.90731
-8.17166 -0.232338 5.9994
-6.38795 4.25858 -4.22372
11.7994 -5.52868 -2.52312
-4.24422 3.55957 -11.8101
7.86435 -9.99938 0.442473
-6.30105 -2.89835 -5.26312
0.178216 8.43676 -9.99957
-8.1631 -9.99944 -1.35676
11.7995 -6.71628 -6.48836
1.37735 -5.02532 -19
-2.08173 -5.83346 -17.3251
2.55913 -0.443378 5.99082
-3.61456 4.44916 -17.1541
-0.692707 -6.77931 5.46763
1.94248 -1.16196 -19
-1.43006 -3.2087 5.09727
-6.66598 -0.15564 9.99961
5.46243 -3.75659 -4.74784
-3.02223 9.9995 -3.66339
-5.95816 -7.82477 -9.99943
-3.01092 9.95926 -9.99925
7.76902 9.99954 -7.93236
7.0973 -4.57117 -18.9658
7.13577 9.9994 9.9693
6.0566 7.94414 9.99945
11.7994 5.96237 -7.83701
-4.83003 -6.11803 9.99966
-5.2013 -0.78346 -9.99971
-3.22791 -6.65237 -3.27526
-5.19714 -0.319674 15.4076
9.9556 9.99946 -6.43462
-2.17882 -5.77198 11.87
7.88779 -3.44514 -4.90546
5.12272 -6.1641 -13.6099
9.38917 9.99934 9.97105
5.83857 6.41336 4.43589
-8.19952 0.253098 9.94771
3.86447 -6.67775 18.9997
5.85556 -1.30168 5.85435
-3.81292 -4.19793 -11.8955
-8.19951 -6.65777 6.7682
6.12945 -5.5154 15.2133
-4.64126 2.75388 -17.1688
-8.19954 -6.57514 -4.262
-3.27041 4.82536 13.596
-4.49207 -3.06459 -17.17
-3.01092 5.03175 18.9998
6.00343 4.12848 -4.37984
8.79287 -0.498764 17.0966
9.62465 -9.99961 -3.02021
-6.27644 -5.50849 -2.37916
-0.749129 8.35174 9.99953
-1.60946 -1.28458 -19
3.86681 -9.99943 5.71757
-6.3462 -0.71592 5.98172
-6.22095 -4.8753 9.99951
10.1276 2.59391 -9.9996
8.08845 -3.01311 19
-8.19927 6.74091 -9.95358
-6.39474 -3.22062 -9.99971
-5.17897 0.778677 10.0357
6.64886 1.65862 -19
-4.90931 -2.19602 -10.0003
-1.28663 6.2991 -11.8643
5.9375 -7.8571 9.99939
7.01396 6.97763 -2.97854
2.95111 8.25532 5.88978
-5.1677 0.737645 17.1379
10.0961 9.99947 8.19903
-4.78297 -9.99951 -9.96235
5.96067 4.22255 4.32175
11.7998 5.32786 2.73981
-4.68589 2.66645 -13.5622
6.13566 -5.51364 -11.8598
11.7997 -9.94596 9.93742
8.38458 6.18445 -9.99956
-8.1993 -8.42024 -9.95396
4.10109 -2.44243 -5.54391
-4.2118 -9.99948 -7.74468
2.38312 9.99978 6.04298
8.01015 3.2598 13.5683
6.99814 -4.69356 18.9697
5.92127 5.66102 11.8399
11.7996 9.96172 4.65262
9.89833 -0.0938107 -5.99711
0.0217396 8.03369 -5.73195
-8.1998 -3.77563 -4.73984
6.67353 -4.81009 -3.62765
3.54293 -0.343534 -19.0001
-8.19945 1.61902 5.86848
-8.19946 -8.02539 7.96388
-5.16282 0.820977 -17.164
6.32482 -2.28852 -19
-1.40098 6.24222 13.7231
7.24438 -7.68585 2.52437
-8.19952 1.88823 -7.94414
7.51716 -5.67535 -1.98687
0.695459 -6.90411 10.0446
4.62343 6.41558 -11.8542
6.07018 9.99952 8.30637
-2.37141 5.62445 -10.0292
-5.19512 -0.399157 -11.8515
5.11162 3.75884 18.9998
7.4141 -9.95943 2.14585
9.61385 -7.74344 -9.99945
-8.19966 -6.04275 0.5845
8.56831 1.86559 -11.8156
11.7995 9.9457 8.17827
-8.19943 0.664892 -6.037
10.0161 0.825321 5.96194
-4.1267 9.96394 0.991344
6.6049 2.39398 18.9999
-3.78754 9.99952 8.177
8.22057 0.948908 -5.93509
6.53744 -5.15049 12.0534
7.57559 -9.99947 -8.14587
-3.95924 -4.10104 10.0004
6.47438 5.20729 -10.0405
-3.8325 4.33983 -9.99996
-8.19964 -2.34578 -5.59137
8.43763 -2.26266 -17.2183
8.02945 8.2272 9.99952
-1.79826 3.71535 -4.80215
7.49346 9.97561 -1.89011
11.7995 -6.1874 5.00166
4.73627 -5.05574 5.26299
11.7995 -4.71214 8.31354
11.7994 8.39711 -4.00708
4.72926 -9.99946 9.9453
2.03357 -7.01757 15.3957
8.1015 4.07801 4.41696
8.19445 2.85605 -13.5615
-3.72066 -4.32269 11.8831
-2.8306 -5.25053 10.0389
3.18818 -6.87536 -13.5815
3.51565 4.09212 -5.78106
1.69254 4.84287 19
7.25549 -9.99952 -2.73703
4.08915 9.99921 5.60899
6.73831 -6.57421 -3.39904
6.11409 -9.9719 -4.19355
7.74076 8.02309 0.877622
-6.3262 -4.36866 -4.11817
-5.93174 9.99953 2.11588
6.79058 -4.92265 -13.6074
-4.72219 2.5773 10.0399
9.79502 -9.99934 -7.81259
-1.97119 -3.31604 -18.9999
-8.19952 -0.342605 -8.01347
-3.42883 -4.65236 -17.1622
-4.54128 6.25068 9.99951
5.23134 -0.623943 -19.0001
7.86269 9.9993 -0.207969
2.01215 -5.04513 -6.02461
-8.16075 9.99929 1.01978
-3.94344 7.78574 -1.81125
-2.07636 8.00367 -9.99945
-3.68656 5.41331 2.62244
-8.19952 0.747012 7.86885
-1.94294 -9.96159 -4.71958
-3.65529 4.40743 -13.5913
4.89464 3.14029 -5.14039
11.7995 -7.98869 -3.49207
6.46416 9.99968 -6.24952
1.93641 2.80602 -6.02265
8.2675 2.66751 18.9997
11.7995 7.85655 -2.06509
11.7655 -9.99922 -0.790731
-8.19949 5.84952 9.9666
9.02216 -4.92831 -3.42412
2.44799 -7.09023 -10.0001
11.7994 -4.891 -6.16674
1.93559 7.01827 11.866
-8.1622 -9.99945 0.687234
-8.19952 -6.83793 3.59905
-4.19697 -7.94455 -0.516289
4.4334 -6.50086 -11.8406
8.40703 -2.33578 17.2531
4.99656 6.22596 13.6013
9.93765 7.99082 9.9994
-2.61359 -8.17648 -4.06177
-2.12866 -5.8043 15.3747
-4.94789 1.88476 -18.9672
11.7997 4.57698 9.97228
9.99536 -4.69535 3.74582
11.7994 3.10279 5.20664
-8.19951 3.59882 6.69398
8.00919 3.1556 -5.12195
-3.62068 9.99915 2.71272
3.09063 6.88435 17.1199
-6.25818 -9.99964 -0.108694
-8.15998 -9.99958 6.56202
-2.20243 9.99955 -8.3988
7.67946 -7.88118 -1.21568
2.58599 -6.95386 -11.8693
9.78456 -5.10457 -9.99943
2.92415 9.99958 -5.95469
-8.16606 -4.71756 -3.72607
-8.19957 6.53093 4.13492
-0.106446 -6.7211 18.9996
3.67913 6.74679 -13.6272
9.45988 2.60583 5.40408
8.31531 9.94412 -9.99964
-5.17987 0.675831 -13.5912
0.263025 0.550083 5.99518
-3.83298 -4.16427 -15.3974
-4.67356 -1.91278 -5.71305
11.7994 7.82096 8.11888
-2.97713 2.74232 -5.33235
11.7604 -9.99913 -6.52025
8.42325 -2.2902 -15.3661
-4.32235 -3.41012 13.6384
-2.76662 2.4175 18.9998
3.29835 -9.93374 -9.99944
-2.7588 -9.9995 8.27461
11.7995 -9.96835 8.24493
-3.30836 -1.2095 18.9998
3.73825 -2.0398 5.69555
8.1589 -6.22477 -9.9995
11.7997 -2.72907 -9.95711
-3.97801 8.02721 -9.99936
2.75665 9.92154 -9.99949
11.7995 -5.95237 -8.20399
0.66392 9.99937 5.96882
4.62831 6.40918 -15.416
-4.18727 6.02178 -0.635338
-4.22943 9.99946 -0.633649
-0.487154 -8.50434 5.5683
11.7996 6.45878 -9.96855
11.7995 -8.00073 0.176571
0.645447 -8.22422 -5.91961
-8.19926 -9.95884 8.3031
11.7994 6.62877 -3.93349
-0.791595 1.23741 19
4.93341 2.94119 5.227
3.60425 6.77209 -17.1589
-0.250276 -2.61723 19.0001
-8.19957 7.40296 -3.93323
11.7995 -2.93932 -6.82577
-6.06099 8.01505 -9.99933
5.16652 -6.1404 11.6
6.48786 0.490151 19
-4.62203 9.99955 4.29403
-6.07074 9.99957 5.99032
6.63563 5.0619 17.1265
1.81477 3.14892 6.01427
0.582926 -0.757072 19.0001
-2.42662 -9.99963 -6.49471
6.51414 9.95316 -9.9994
11.7995 1.35605 7.99626
-2.9604 4.69368 3.76514
7.20518 -5.35041 2.76201
-2.62993 5.43574 10.0004
-3.14567 -4.96241 -13.7119
9.59567 -4.24863 9.99954
11.7991 -5.40635 2.75719
6.22263 5.49729 9.99994
-4.38084 -3.29481 -13.6404
2.86448 9.99951 9.95089
4.82408 -6.31158 17.1144
-2.16214 5.7849 -13.6035
10.1258 -9.99939 9.95288
6.86873 -1.31886 18.9999
-2.55791 -8.54489 9.99941
-8.19952 -4.03022 -6.72581
2.10615 -3.16576 -19.0001
4.04578 4.69874 -18.9998
-2.14907 5.79343 -17.1844
8.58501 -1.72482 15.465
8.42642 -9.99941 9.95595
7.75722 -8.20948 9.9995
2.21114 -3.03646 -6.01146
11.7996 -8.30052 -5.56707
-5.17141 0.747767 13.6969
-3.26506 0.259249 -18.9998
5.51847 5.93748 -17.1686
1.64824 7.00406 -17.1582
8.69211 1.22353 13.5359
-8.15526 9.99972 6.61365
11.7995 8.30732 3.97933
0.204991 2.11607 5.78651
11.7995 8.20884 6.03029
9.59926 -9.99944 7.69791
-8.13734 9.91779 9.99982
0.610371 -3.9142 -5.90675
-8.12251 -9.99961 9.93959
5.66585 -5.8225 -18.9992
2.53866 1.20446 -19
4.07256 -6.61903 -18.9607
11.7483 9.99915 2.68627
8.7858 -0.981073 10.0002
10.1545 2.15844 9.99958
-8.19962 2.23466 -5.64246
0.201551 4.18044 -5.7884
-4.80961 -2.30542 -15.3847
5.87573 5.69134 15.3413
-8.19955 -5.85782 5.15276
-8.19945 -8.36948 9.96293
7.85465 -6.01005 -0.347431
7.21701 -7.95945 -9.99937
-2.9426 5.16241 -15.3658
7.72021 -5.85851 1.29351
-3.37882 -7.68385 3.02668
-4.70726 2.70359 -10.0001
-1.73157 -9.99962 6.73793
-8.1606 -4.77627 3.64165
6.03525 -5.64842 9.99982
-8.16379 -1.45184 9.99939
10.1295 9.99952 4.56456
11.7608 9.9992 0.668176
-1.87884 -6.2434 -4.73618
3.20378 6.94432 9.99985
8.47095 2.18168 11.8183
8.14036 9.99949 8.17612
4.8183 -0.908199 19.0001
5.8327 -7.98465 -4.44529
-4.99359 1.73262 -15.3641
2.66607 -9.99948 9.95187
-6.10722 -9.99938 9.96728
-0.958084 -2.66981 -5.36529
3.12171 -6.88589 -17.0843
4.7582 -8.45954 5.22634
-3.28817 4.8058 11.7265
0.922517 -6.96016 -13.5097
-8.19866 -9.92974 -7.71051
-8.16283 9.99963 -8.21587
-5.0668 -1.3632 -13.6098
2.66644 6.94235 -15.3821
8.78531 -0.757835 13.7111
3.09432 -6.88642 13.7247
-6.46668 5.36285 -2.67884
7.37899 4.23534 15.3108
9.7932 -9.99954 5.56902
9.82946 -5.99277 0.32458
8.15478 -1.36083 -5.83872
-5.18268 0.0961919 18.9997
-8.199 8.38966 -9.9607
-8.19952 1.89117 9.96045
6.25451 -2.15901 -5.62746
8.73381 1.06283 -17.0594
-3.87613 9.999 -2.1571
-8.14115 -9.99781 -9.89898
11.7488 9.99935 6.46271
-4.5631 2.91592 13.7183
-8.16114 9.99939 2.80517
-4.81162 -5.00161 -3.32142
0.4898 6.88941 -18.9666
-8.19947 4.49118 4.08694
1.04354 6.96888 17.0891
11.7995 -7.83214 -1.72182
6.3598 5.31595 -11.8581
9.85715 4.94547 -9.99949
-8.19961 7.95914 -2.01751
-8.19946 4.9392 -9.94828
-8.19963 6.04057 -0.58444
-0.308972 9.99953 7.98901
7.7171 3.73924 -15.3436
3.4552 3.33076 5.80162
-1.34238 6.22696 -19
8.08877 9.99965 4.61946
-4.47729 -1.10562 5.90306
11.7996 9.96355 -5.06904
-6.26558 5.95948 0.802416
-0.320892 6.69117 -13.6435
0.335243 -9.99981 5.89478
-6.61576 1.38806 5.83299
11.7995 3.97325 -6.68494
-8.19955 -3.60376 8.39945
-3.06554 7.89662 9.99936
5.4543 9.99962 6.6218
7.01788 8.69574 -2.98704
-8.14259 9.99962 8.35381
0.593073 1.54092 -5.89128
2.5822 -1.02338 19.0001
-8.1995 6.59794 8.0415
11.7994 -8.08524 5.88121
10.0892 9.94436 -9.99967
-0.207038 -6.71429 15.3879
11.7997 -9.95971 0.989582
-6.55359 2.03544 -9.99963
11.781 2.813 9.99943
-8.0966 -1.76255 5.7548
-1.71055 3.96709 -18.9999
-8.1995 -8.38828 -4.29107
-4.05839 -3.81494 -18.9994
-3.97786 -3.02919 5.20156
0.668059 6.21807 -5.93323
-1.38937 3.49662 18.9999
8.01108 -6.27101 9.99953
-5.15441 -1.1444 10.0006
11.7995 3.93298 -8.39421
7.87234 6.00344 0.0623613
-4.13237 3.70647 -18.9663
-6.18961 -9.99957 -6.22344
-4.65544 -9.99945 7.87475
-3.10085 -9.99981 -3.59135
-3.74908 -8.10891 -2.27085
3.64986 -6.36273 -5.72912
11.7995 3.28817 7.77862
-2.92382 5.15183 -18.9987
-1.09107 -8.01655 -5.25244
11.7988 -2.95236 5.31215
7.08879 4.58834 -13.6289
6.58719 -9.99939 -9.96144
-3.32301 -1.77439 -18.9999
7.1764 7.51192 2.67345
11.799 -3.1184 -5.18976
11.7998 1.76932 5.81173
8.11952 0.944736 5.93632
-1.00689 5.01627 5.31173
-8.19946 -8.09361 -6.25318
4.64189 8.29594 -9.99956
11.7555 -4.5958 -9.99934
8.73059 0.833299 18.9998
-5.98281 -9.99957 5.93876
4.91131 -6.26828 -17.0905
10.0581 -3.1497 5.11815
-0.76739 6.51236 17.1185
3.70734 2.05268 -5.70343
1.29311 -9.99982 -6.04643
-0.520275 -4.65568 -18.9999
-8.19963 -5.58963 -2.39631
3.98516 6.64741 15.3521
-8.16133 -9.99942 4.78136
-5.01293 1.67769 -11.7997
9.79161 -1.00802 5.91709
11.7994 -8.06836 8.00118
2.64728 -8.32132 -5.93776
7.10364 4.56981 -17.133
-0.789134 2.49978 -5.46639
-8.15017 -5.64138 2.10383
-4.203 -3.74235 -10.0002
0.854107 -6.96309 -11.6729
-8.19967 4.87701 -3.61978
9.68295 9.99946 -8.2437
-8.16255 -3.0563 9.99953
6.18474 -4.31476 4.17164
-1.2945 6.29145 -15.3906
-0.179545 6.59847 5.66716
5.57086 -9.99955 -7.78342
3.59845 -9.99963 7.9483
4.43926 -8.06678 -5.41976
7.46238 -9.99967 6.05565
8.03261 6.26043 9.9996
-0.680165 9.98027 9.99941
5.62566 -5.85892 18.9554
8.25731 2.83361 9.99982
7.72521 -3.72674 15.522
0.295563 -9.94141 -9.99947
11.7995 6.46464 6.74169
2.95111 6.36912 -5.88919
11.7681 -1.21657 -5.87311
8.79886 -0.277458 -15.3001
-3.85404 9.99961 6.15918
0.0992947 -6.24175 -5.74979
4.61084 4.95147 5.32274
5.79657 9.99956 4.56848
1.71143 -2.89596 19.0001
11.7997 -3.14361 9.95154
-4.16091 5.88141 1.14469
8.77779 1.00126 10
8.25069 -4.235 4.25591
8.06064 9.99965 -3.84498
-3.98313 -5.8365 -1.70238
0.834002 -0.952224 5.95204
-2.05809 9.99958 7.28888
11.7337 9.93524 -9.99755
-2.39278 -6.22186 4.30565
5.01088 9.99946 9.96472
-0.291537 -2.14179 5.64864
2.05672 8.11145 -6.02229
-8.19954 7.83279 -5.89943
0.496796 -6.86819 -18.9991
2.86877 2.80172 18.9999
-4.47815 3.75634 -4.68591
-6.20471 -9.99942 -8.16863
-4.35771 -3.68067 -4.73604
9.75192 -9.99953 1.13576
6.3677 5.30771 -15.4155
3.88483 -8.39746 9.9995
-8.14555 3.16592 5.09589
11.7997 -9.96302 -2.55804
0.139084 4.75752 -19
-1.20326 -6.32938 17.1488
-3.0665 -9.96096 -9.99946
-8.19951 4.72465 8.18478
-6.52734 2.41223 9.99974
-3.1258 -7.01417 9.99965
3.68631 -2.78867 19.0001
-2.32027 -2.86858 19
0.152888 -2.80215 -19
-2.20261 -3.95556 -4.52643
7.40163 4.21222 10.0263
11.7995 -4.55301 6.36893
-2.17023 -8.12571 4.50876
1.62604 -8.50855 9.99964
-1.07148 0.759915 -5.98408
2.97839 6.90289 13.5769
-8.1995 -5.95144 -6.13234
6.77749 -4.98882 -9.99982
-6.62041 -9.9996 3.87729
6.92089 5.189 3.12191
-8.1996 5.68524 -2.15144
11.7995 8.22493 1.72929
11.7997 9.95775 -1.24954
8.61506 1.60314 17.2065
4.40521 -0.346292 5.99315
-2.8701 8.39113 3.77012
-8.19946 -7.51244 -8.05505
-8.1995 -1.81828 -9.9569
-2.51236 -4.24195 4.2413
-6.48505 -4.10749 4.37924
5.74304 8.18553 -4.52847
9.381 5.2463 2.93866
3.08413 -9.99908 -5.95365
-3.96684 -9.9994 9.96158
5.26237 6.17409 -9.9999
-6.49567 9.99955 3.98239
9.47994 9.99958 6.36373
5.42058 -9.99933 4.90339
-8.19952 5.59478 6.07113
9.73704 -7.97272 9.99934
3.51951 -6.79361 11.9253
6.71687 4.98915 13.563
5.98548 0.879398 5.95161
5.55453 3.3655 -18.9998
-3.94367 4.12993 10.0007
7.51522 -4.05745 -11.8536
-4.66959 -4.35307 4.12713
8.80001 -0.672388 -17.1008
11.7561 4.75601 -3.64626
-3.03863 -4.9044 -3.54479
4.80546 1.7636 18.9999
11.7997 -9.96628 -4.38039
7.694 7.90777 -1.12631
-4.77488 -2.40916 -11.8474
2.12043 5.02223 -19
-1.06513 2.90926 5.27609
0.750599 0.962542 -19
4.97796 -8.20784 -9.99949
-8.14651 -6.72544 -9.99958
8.79229 -0.238036 -11.8454
7.321 9.99964 6.35593
-1.33104 -9.99948 -9.95655
-2.82974 -2.41419 -5.49305
0.824178 -0.188306 -5.99185
9.63266 9.99951 -2.46076
-0.836069 -4.75006 -5.40809
3.09394 -8.11516 5.85995
-8.19954 2.59788 8.20413
-2.0816 -9.99952 -8.21468
8.79366 0.125111 11.8236
-6.08974 4.58426 9.99959
-8.17071 9.99928 -2.86112
-0.507297 2.57894 -19
11.747 -4.9101 9.99934
3.45528 0.668477 19
4.93657 -9.99942 -9.94366
-8.19949 3.64308 -4.86672
1.82096 6.59219 6.0131
-5.90379 9.99945 7.94126
-4.26693 -5.99699 -0.0541008
2.60117 -6.95259 10.0395
9.65433 4.19293 9.99955
-4.42381 9.99943 9.96791
-4.90048 -2.02092 -18.9538
-8.15178 -9.9994 -3.33602
9.82451 -9.9995 3.12115
-8.19957 -4.65228 6.63631
11.7599 9.99913 -8.35475
11.7994 7.95837 -7.9884
-2.82442 -9.95669 3.80536
7.55023 -4.00937 17.3479
8.77229 0.818086 -13.5953
-0.478689 -9.99954 8.12246
3.77466 8.42549 9.99956
11.7994 -6.3845 7.34149
0.316062 6.90672 10
-4.20833 9.99951 -7.85106
4.81497 6.38611 9.99975
-8.19963 -2.79806 6.96531
7.64852 -0.764846 5.98511
-4.22079 -9.99964 -5.41235
11.7562 -9.99922 6.49615
1.93615 7.01322 15.3266
8.22329 9.99963 -5.80731
6.52317 2.10243 -5.65276
-1.28589 -0.625743 5.99567
11.7592 -5.90087 1.08037
8.16067 2.92519 -17.1412
9.94776 -6.04781 9.9994
6.97554 7.78782 -9.99949
-6.04675 9.99952 -6.06812
-2.99241 -5.12254 13.6375
-6.15606 -5.99163 -0.737672
8.49429 -2.42285 5.48572
-1.07047 -4.41821 18.9999
-1.93092 5.92086 11.9548
0.793052 -6.94855 17.1668
11.7565 9.99915 -3.06347
-2.8084 4.66701 -3.84818
-2.62011 -1.85328 5.72348
4.6515 9.99968 -6.92597
-0.909166 9.99887 5.42392
11.7602 -9.99918 4.57332
-0.93543 6.50311 -10.0001
-8.19948 8.00492 9.96797
-4.85734 9.99952 -3.91722
-3.13093 0.387264 5.99486
2.91068 -6.90793 17.1259
-6.37547 -0.924582 -5.94057
-8.19955 3.9134 -7.43711
-3.72266 -4.32226 15.3688
11.7996 -6.66508 9.94874
7.35078 -4.36054 10.0005
11.7996 5.68691 -2.07921
-8.19967 -5.96733 -0.93029
-2.25827 9.99967 -6.62727
-0.338096 6.68033 15.3293
-1.1621 -0.901967 -5.95203
-8.15153 -5.08623 -9.99948
-3.76163 5.63125 -2.26207
5.82437 -2.9255 19
10.0713 -9.99951 -5.33721
1.71462 7.10869 9.99984
-3.97804 3.94903 15.3043
10.0702 -2.78165 -9.99956
-6.18996 9.99944 -8.01854
11.7996 -4.0096 -8.20666
11.7996 5.40299 8.25076
7.0146 -8.24082 -2.9708
7.73994 -9.99971 -1.18953
-2.98482 -0.733573 -5.98516
-4.65761 0.135852 -5.99672
11.7997 4.64817 -9.96972
9.84639 5.89939 1.16559
2.00509 -2.48365 6.02444
-2.4343 9.99949 9.95065
3.43821 -4.7787 -19
11.7993 3.63579 -4.88383
0.651401 6.922 -15.4049
-6.12133 -5.39129 -9.99961
-1.40456 -0.800426 19
-3.27458 6.81008 3.19761
-6.50711 -9.99942 -9.97124
3.80363 -9.99954 -7.87439
0.571092 6.89439 -10.0417
7.89361 3.44931 17.1479
4.72079 1.3764 -18.9999
-4.42562 -6.29948 -9.99971
-8.19951 -0.040202 -9.95454
-4.6583 -2.83776 10
8.23805 -2.7387 10.042
-8.19958 -7.90774 1.68817
9.81684 9.99953 1.20199
7.45906 4.1435 11.8425
1.15665 -6.97218 -17.0581
-0.198173 6.71207 11.9253
8.80011 0.297493 -18.9617
-1.36096 6.32347 10.0009
7.74925 -3.68734 11.9223
3.39704 2.97885 -18.9999
3.8314 9.9995 7.96322
7.839 -3.69757 -10.0001
2.33894 -6.99488 -18.9646
-2.82514 1.00207 -5.92631
8.45273 -2.1646 -10.0377
-8.19943 7.9596 -7.90153
-6.46538 -9.99943 7.9478
3.55564 6.8305 -9.9999
8.45582 -2.21657 -11.8839
-0.17143 4.83425 18.9999
-0.296809 -6.69123 11.8665
-1.66912 1.33857 5.84561
-3.12159 -5.0005 -10.0391
-5.19959 -0.296758 -15.3678
4.99062 0.883946 -5.95651
5.56951 -9.99961 7.44294
-4.80927 9.96315 -9.99936
0.738915 8.27822 5.92694
-6.47211 -2.68912 9.99963
5.48376 -6.04511 -10.0006
0.760536 6.94996 13.6459
-5.2106 0.834713 -9.9995
-1.23935 -6.3498 9.99982
6.57766 -0.200838 -5.99448
-3.89751 8.02308 1.89944
-8.1565 3.88664 9.9996
-2.99708 0.66717 18.9998
8.56385 -1.8908 11.9124
9.57563 7.74047 -9.99945
4.56074 -4.47511 19
-6.10295 9.99959 -2.03861
11.7995 4.63748 6.25667
4.38725 -6.56972 10.0004
2.99574 -4.19477 5.87875
-5.86028 -9.9996 -4.08139
-6.52459 9.99945 -9.962
-5.10005 -1.16438 -17.1497
-6.13888 -5.89826 1.08678
6.98832 -0.242408 -18.9999
9.83489 9.99954 -0.687337
-6.40994 9.9995 9.9623
-0.446907 -6.65549 -10.0417
6.97827 9.9571 3.02479
10.0703 4.14023 4.34573
1.41369 3.05057 -19
0.981857 -7.08752 -9.99999
-2.40603 -5.60168 -11.909
11.7453 -6.49149 -9.9993
2.08881 7.103 -9.99997
6.85622 -2.8962 5.25338
