0.36845 -0.568627 -0.858152
0.991511 -0.0942291 -0.638287
-0.0269696 -0.657164 -0.61322
-0.933843 -0.337774 0.348697
-0.548705 -0.486255 0.376006
-0.291771 0.356002 -0.867042
-0.416303 -0.189364 0.453522
-0.0950689 0.00537711 -0.931812
0.563465 -0.39498 -0.915619
-0.506364 -0.460362 0.48549
-0.0185221 0.213746 0.0622725
-0.80798 0.0290707 -0.00398447
0.278285 -0.274492 0.259721
0.418305 -0.344564 0.209193
-0.334649 -0.562154 -0.0724434
-0.565003 -0.574185 -0.837353
-0.369622 -0.153392 0.567093
0.482655 -0.614341 -0.705126
-0.779675 -0.265369 -0.525604
0.0478091 -0.371443 0.196679
-0.52634 -0.602225 -0.315145
-0.422882 -0.0220903 0.315133
-0.026121 -0.647776 -0.679238
-0.122465 -0.56015 -0.0821885
0.01768 -0.427856 -0.931661
-0.535028 0.0446695 -0.613074
-0.763614 -0.410976 -0.483587
-0.233615 -0.58713 -0.187178
-0.421542 -0.536962 -0.808288
-0.252885 0.149914 0.688302
-0.659476 0.147764 0.706877
-0.53699 -0.101497 -0.984456
-0.793973 -0.638734 0.419889
0.425089 -0.661524 -0.246539
-0.140333 0.473174 -0.431678
-0.63274 0.0795218 -0.967309
-0.896261 -0.541819 0.422932
0.35205 0.401362 -0.600355
0.640776 0.187553 -0.142567
0.38382 -0.696391 -0.526023
0.0535319 -0.43008 0.164077
-0.70808 0.18132 -0.256608
0.139527 -0.396063 -0.93398
-0.0772167 -0.278069 0.189808
-0.637114 -0.546207 -0.0577928
0.0642565 0.166634 0.724109
0.20767 -0.256196 0.260822
-0.401681 -0.3629 0.313936
-0.523215 -0.036104 0.584528
-0.92601 -0.638231 0.178334
0.146712 0.108627 0.19185
-0.23029 0.298292 -0.506168
-0.0718988 0.441686 -0.650387
0.235921 -0.598297 -0.92156
-0.116115 0.0387922 0.682847
0.326661 -0.428701 0.177735
0.620433 0.214159 -0.203111
-0.706125 0.101867 0.691809
0.101081 0.286178 0.827742
0.181979 -0.0815964 0.261111
-0.395483 -0.565312 -0.0980356
0.42265 0.372618 -0.728917
-0.471627 -0.42439 0.458573
0.520972 -0.221985 0.185184
-0.056001 0.35446 -0.844258
-0.344305 -0.540597 -0.633069
0.573668 -0.596563 -0.357172
0.818237 -0.0685093 -0.897957
0.290686 0.163824 0.144564
-0.877298 -0.0408767 0.0918872
-0.163337 -0.600278 -0.186968
-0.557887 0.217143 -0.119344
-0.720325 0.000286528 -0.967948
-0.936629 -0.217631 0.352932
-0.721889 -0.0757891 0.605834
-0.709036 -0.203184 -0.606783
-0.0590102 -0.663841 -0.22493
0.410816 -0.699908 -0.460102
-0.732301 -0.140328 -0.587567
0.101378 0.369879 0.877173
-0.0614527 -0.517314 0.0226179
0.155199 0.420879 -0.192799
-0.631253 -0.0832515 -0.811742
-0.861219 0.029884 -0.145155
0.939916 -0.0470641 -0.544449
0.783925 -0.317458 -0.579458
-0.621901 -0.0362655 0.588127
-0.337695 0.0767625 0.757484
0.654835 0.148948 -0.0850776
-0.595103 0.62714 0.812872
-0.328087 -0.237307 0.238494
0.0647039 0.437369 -0.675215
0.108407 -0.573534 -0.0707951
0.664735 0.220823 -0.267963
-0.200924 0.258333 -0.708409
0.594745 0.199149 -0.091545
0.247133 -0.437753 0.173281
0.679859 0.214018 -0.400263
-0.16093 0.0373492 -0.929987
0.245066 -0.557294 -0.00593221
-0.43065 -0.577205 -0.457463
0.0611975 -0.652986 -0.970301
0.45505 -0.271502 0.210852
-0.61448 0.570446 0.640356
0.778494 0.0992797 -0.711551
0.575537 -0.546319 -0.679969
0.058446 0.158177 0.674383
-0.923831 -0.326976 -0.263786
0.522275 -0.461502 -0.930199
-0.833676 -0.242659 0.595922
-0.577742 0.761553 0.844417
-0.709482 0.570553 0.757755
0.81885 0.0723316 -0.652116
-0.830563 0.00373292 0.109456
-0.683904 0.0662398 0.353006
0.401441 0.384479 -0.306173
0.0529747 0.286934 -0.0531163
-0.0692091 0.23445 0.0239783
-0.266493 0.238114 -0.797399
-0.0999405 -0.709924 -0.958808
-0.344273 -0.112631 0.502721
-0.244695 0.291165 -0.203379
0.396317 0.343845 -0.785305
-0.205676 -0.566336 -0.115972
0.953238 -0.0137059 -0.604509
-0.348786 -0.451555 0.0780338
0.719945 -0.441133 -0.455604
0.358328 -0.466882 0.125945
-0.490692 0.2502 -0.360496
-0.0448442 -0.698018 -0.961689
-0.447844 -0.230021 -0.768758
-0.887575 -0.105674 -0.394274
-0.787185 -0.554683 0.000551177
0.834011 -0.146714 -0.894495
-0.395839 0.0565718 0.612175
0.930085 0.0190443 -0.694544
-0.934712 -0.148334 -0.191933
0.0285352 0.271454 0.997737
-0.449892 -0.47106 0.0812083
-0.206558 0.164869 0.813143
0.741103 0.1102 -0.487586
-0.281874 -0.110316 0.244404
0.0436691 0.240561 0.855059
0.740601 0.0589268 -0.642809
-0.720097 -0.552395 0.521884
-0.256232 0.177844 -0.577693
0.43384 -0.0494804 0.223602
-0.62258 -0.15719 -0.832901
-0.611008 -0.344461 -0.897461
-0.840955 -0.0300161 0.371604
-0.549773 0.246526 -0.318571
0.477657 -0.331125 0.179289
0.767455 0.0264434 -0.594018
0.364029 -0.0286988 0.24428
0.150239 -0.565467 -0.00995519
0.806149 -0.0805433 -0.268462
-0.600895 -0.57874 -0.105757
0.731497 -0.353666 -0.14066
-0.389184 0.00250275 0.751538
0.27713 0.155791 -0.946953
0.0818601 -0.740868 -0.258754
0.0292008 -0.6644 -0.728372
0.527957 0.0961825 -0.886192
-0.0696163 -0.587269 -0.697347
-0.411264 -0.0655376 0.438574
-0.729998 0.102334 -0.455499
-0.914224 -0.359604 0.0589288
0.573331 0.109518 -0.839151
0.0942498 0.214832 0.712227
-0.936883 -0.100293 0.218776
0.454251 -0.388123 0.153646
-0.957065 -0.282379 0.320534
0.363788 0.155258 0.14134
0.641944 -0.483161 -0.153473
0.312027 -0.721827 -0.536096
-0.504541 -0.495785 -0.555973
0.181626 -0.167457 0.266103
-0.537854 -0.370968 -0.979186
0.401234 0.239653 -0.966215
-0.108482 -0.604471 -0.479081
0.761467 0.0498836 -0.221985
-0.239773 -0.0437059 0.783098
-0.690408 0.156511 -0.438029
-0.779847 -0.114824 0.591686
0.0813086 -0.584306 -0.130599
-0.215784 0.171558 0.735902
-0.846417 0.0260243 -0.364636
-0.197348 -0.566266 -0.319431
-0.642702 -0.650518 0.328984
-0.0425636 -0.477521 0.0806237
-0.0165081 0.140735 0.737273
-0.474441 0.173797 0.0820488
-0.628871 -0.401161 -0.872735
-0.0290609 -0.0169896 -0.933069
0.303629 -0.687325 -0.704057
-0.388569 0.194609 -0.864125
0.382508 0.0847727 0.180604
-0.282363 0.237896 -0.398285
-0.726234 -0.550193 -0.154964
0.123631 -0.4106 0.19037
-0.0946282 0.127229 0.130388
0.644438 -0.505529 -0.576555
-0.780949 -0.186119 0.604014
-0.589912 0.588157 0.75998
0.893975 -0.352126 -0.716736
-0.962388 -0.291161 0.0708986
0.419449 -0.622477 -0.73847
0.367543 -0.514173 -0.996093
0.402638 0.247337 -0.0649194
-0.0548295 0.212531 -0.930969
0.742651 -0.377864 -0.580716
0.728676 -0.423993 -0.258309
-0.597072 -0.390305 -0.596791
-0.812559 -0.471638 -0.358964
-0.521193 -0.574498 -0.0781893
-0.382916 -0.397138 0.231531
0.208749 0.397117 -0.742744
0.383561 0.29119 -0.924919
0.38117 0.238054 0.0122883
-0.464611 -0.579167 -0.122934
-0.821442 0.0257113 -0.433079
0.5241 0.313484 -0.289117
0.779651 -0.196858 -0.918055
0.936767 -0.309452 -0.69177
-0.0797525 -0.712596 -0.325953
-0.648059 -0.430064 0.591173
-0.254452 0.0630696 0.197024
-0.581598 0.221943 0.65252
0.0162047 -0.733385 -0.258186
-0.193 0.048679 0.173635
0.737348 0.0652124 -0.153303
0.45608 -0.648662 -0.327159
-0.895569 -0.303664 0.0221014
0.122903 0.451936 -0.63417
0.905106 -0.2154 -0.508314
-0.609966 0.199335 -0.0720968
-0.250085 -0.6032 -0.971611
-0.922596 -0.219571 0.444534
-0.647048 0.0791005 0.218469
0.193861 0.446719 -0.604604
-0.612779 -0.527509 0.0200312
-0.123775 0.042021 0.588071
-0.429139 -0.60136 -0.237883
-0.280196 -0.0745884 0.72514
-0.708163 0.0557527 -0.502781
-0.255612 -0.184818 -0.982355
0.0942404 0.214948 0.0571771
0.740334 0.143724 -0.33277
0.267812 -0.166682 -0.997579
-0.806533 0.0147161 0.33881
-0.64507 0.723862 0.738171
-0.0975132 0.084548 -0.929034
0.242713 -0.126591 0.269039
-0.524295 0.0181163 -0.707631
-0.640447 0.741352 0.86714
0.592166 0.215405 -0.718284
-0.377396 0.324899 -0.969159
0.344013 -0.66034 -0.775455
0.642934 -0.539737 -0.276833
-0.846572 -0.083276 -0.453205
-0.101716 -0.470117 0.0483693
-0.864952 -0.360702 -0.00268072
0.666008 -0.490139 -0.634163
0.684549 -0.364695 -0.882154
-0.541649 -0.147387 0.60922
0.637418 -0.537868 -0.463172
-0.910618 -0.0789196 -0.208502
-0.443011 0.0951094 0.186611
-0.345985 -0.344767 0.17609
-0.0264124 0.496618 -0.482801
-0.552928 -0.506831 -0.803532
-0.761156 -0.539822 -0.222578
-0.494929 -0.206759 0.600025
0.756121 -0.0487037 -0.926332
-0.101636 -0.547718 -0.627354
0.335682 0.418793 -0.411392
-0.715301 -0.385024 -0.53659
-0.901039 -0.246763 0.0101366
-0.546308 -0.0119755 -0.645216
0.639638 -0.00290687 0.0611976
-0.25404 -0.60783 -0.899816
-0.686095 -0.123236 -0.84556
-0.955664 -0.470194 0.0961386
0.0870072 0.336758 -0.871831
0.275722 0.264099 -0.991381
0.602215 0.155226 -0.0345876
0.621976 -0.327376 0.0777379
-0.321323 0.0783052 0.207958
0.468419 -0.620653 -0.635823
0.745487 0.1074 -0.4128
-0.290589 -0.0369923 0.239505
-0.896844 -0.29991 -0.0388481
-0.134646 0.387175 -0.678555
-0.618384 0.669782 0.898357
-0.45039 -0.617875 -0.313753
0.800569 -0.02404 -0.313686
0.569892 -0.57502 -0.482235
-0.503778 0.0680179 -0.672429
0.100952 -0.62137 -0.832526
0.448345 0.363963 -0.450606
-0.806355 0.412115 0.761824
-0.770294 0.0498617 -0.472106
-0.00685929 0.453929 -0.667894
-0.91589 -0.279103 0.56295
-0.927803 -0.505772 0.302201
0.627739 -0.188631 0.095081
-0.591279 0.436858 0.622536
0.798755 -0.386085 -0.801653
-0.208133 0.311042 -0.263614
-0.27814 -0.54008 -0.667312
-0.677754 0.66215 0.940381
-0.0886994 -0.0510961 0.20196
0.738851 0.013458 -0.102709
-0.171556 0.37042 -0.869931
0.704677 -0.258006 -0.0156059
-0.747715 -0.724564 0.194678
-0.752247 0.0401939 0.375305
-0.536725 -0.434076 -0.801481
-0.474074 -0.0508592 -0.985707
0.564179 -0.555695 -0.54527
-0.0535116 0.154868 0.802063
0.0442055 0.231498 0.0276098
-0.398211 -0.189907 0.378219
0.7246 -0.0408142 -0.0498033
0.617469 -0.340052 -0.921637
-0.765267 0.19564 0.709945
-0.20704 0.374273 -0.497171
-0.701401 0.0753752 0.163585
0.521207 0.333459 -0.440799
0.887179 -0.190189 -0.85434
-0.721319 0.44599 0.603642
0.350342 -0.70517 -0.591136
0.0183293 -0.507366 0.0597967
-0.219802 -0.0703204 0.223397
0.111759 0.111279 -0.92748
-0.358301 -0.58486 -0.241672
0.0590644 0.486934 -0.465433
-0.395945 -0.0855725 0.317746
0.670309 0.18671 -0.601502
0.0446026 -0.627813 -0.820162
-0.388613 -0.454672 -0.977985
-0.840984 0.030797 -0.072706
-0.760279 0.227624 0.54483
-0.453425 0.105443 -0.828392
0.11862 0.180148 0.112517
-0.596 0.7458 0.9027
-0.210525 -0.5231 -0.621397
-0.811063 0.0777788 -0.11159
-0.514416 -0.438872 -0.976697
-0.328419 -0.106266 0.681409
-0.462802 -0.35501 0.560629
-0.888779 -0.426573 0.0507419
0.635346 0.205464 -0.666075
-0.0786908 0.297578 -0.101836
0.716692 0.162155 -0.273375
0.504535 -0.480392 0.00195385
-0.336488 0.246269 -0.356496
0.215046 -0.660859 -0.807329
-0.348255 0.1357 -0.795484
0.246494 -0.0563271 0.262302
-0.486995 -0.545747 0.190154
0.314587 -0.0791003 0.263036
-0.694901 0.329879 0.800153
0.176407 -0.0392104 -0.938034
-0.901401 -0.181756 -0.377671
0.349023 -0.721845 -0.345562
-0.139592 -0.245229 0.194062
0.541172 0.225637 -0.823336
-0.710636 -0.154333 0.610758
-0.0220293 -0.0906784 0.224382
0.032353 0.102278 0.675958
0.313779 0.103508 0.18663
-0.304141 -0.115254 0.589595
-0.00767039 0.281682 0.822554
-0.224868 -0.360867 -0.980189
-0.586132 0.670834 0.753314
0.34929 0.386143 -0.730937
-0.85815 -0.567996 0.0209645
-0.161908 -0.0240289 0.18944
0.693719 0.135621 -0.147652
0.258125 0.351933 -0.172015
-0.0479002 -0.370029 -0.935073
-0.129311 0.463129 -0.289018
0.219073 -0.704518 -0.195004
-0.289721 -0.0616317 0.516215
0.318472 0.394138 -0.654712
-0.659921 -0.587937 -0.325382
0.236462 0.430836 -0.548146
-0.116896 0.0447087 0.170425
-0.949027 -0.159496 0.0706838
0.565413 0.269388 -0.223816
-0.216338 -0.418948 0.112746
0.409213 -0.679904 -0.362933
-0.972898 -0.221839 0.276297
-0.688263 -0.529216 -0.425706
-0.68475 0.0261762 -0.548704
0.477995 -0.582637 -0.771119
-0.747906 0.174656 0.578524
-0.0639359 -0.6002 -0.618457
-0.804856 0.0054188 0.418808
0.376979 0.396927 -0.460423
-0.313247 0.181521 -0.541027
-0.842622 -0.493922 0.0161427
0.288474 -0.536435 -0.994544
0.372559 -0.295741 0.241739
-0.435001 0.163727 -0.526759
-0.941822 -0.276722 0.390912
-0.301527 -0.570081 -0.19903
-0.145204 -0.512242 -0.580347
-0.0634453 -0.67263 -0.493619
-0.42857 -0.0541172 0.380346
-0.0631549 0.482435 -0.547792
-0.0660252 0.00985096 0.64465
-0.911261 -0.262582 -0.308321
0.0241373 -0.688049 -0.655441
-0.545629 -0.588658 -0.148389
0.374472 -0.70406 -0.408444
-0.890452 -0.130595 0.0136364
-0.0121125 0.194148 0.848253
-0.0231022 -0.215696 -0.9377
-0.824509 -0.665457 0.361734
-0.200803 -0.285915 0.196576
-0.235651 0.202461 -0.929816
-0.490593 0.21359 -0.432428
-0.472567 -0.3989 -0.62939
0.138612 0.422923 -0.706201
0.224377 -0.497941 0.116077
-0.0839824 -0.423543 0.115209
-0.328996 0.366001 -0.9377
-0.881373 -0.0628209 -0.348271
0.093087 0.13597 0.151128
0.142003 0.301761 -0.130561
0.00889692 0.255373 -0.0144211
-0.673456 0.170137 -0.122729
-0.52704 -0.409406 0.584006
0.402759 -0.627711 -0.184077
0.262091 -0.248662 -0.993823
-0.23807 0.380703 -0.894969
0.211031 -0.599636 -0.860374
-0.406732 -0.118049 0.385555
0.15739 -0.752301 -0.403886
-0.957318 -0.373932 0.300266
0.0137724 0.201195 -0.929472
-0.867368 -0.661312 0.311517
-0.667374 -0.648287 0.399078
0.218373 0.409376 -0.198247
0.0142493 -0.695706 -0.20408
-0.741335 0.401561 0.535564
0.437299 0.172075 0.0865279
0.281943 -0.685781 -0.771036
-0.298469 -0.571566 -0.462619
-0.8969 -0.1907 0.0078
-0.222569 0.000495529 -0.931837
0.0015484 0.389514 -0.804149
0.215742 -0.445997 -0.934491
0.0719194 -0.657082 -0.163261
-0.500621 0.113595 -0.880474
-0.384375 0.26188 -0.188889
-0.844468 -0.162276 0.58111
-0.638759 0.0666875 0.41615
0.918804 -0.238638 -0.813988
-0.0343854 0.0616309 -0.929228
-0.741368 -0.237852 0.614176
0.574263 0.298607 -0.454011
0.810471 -0.23884 -0.450075
-0.620863 0.00463095 -0.983091
0.553724 0.0960742 0.0738541
-0.867583 -0.0756545 0.0238516
0.646686 0.0944229 -0.858877
-0.905809 -0.354001 0.551479
0.727012 -0.312117 -0.0761961
-0.443989 -0.191211 -0.973738
-0.690217 0.0429462 -0.971275
-0.0725922 -0.70601 -0.880084
0.256352 -0.20184 0.270138
-0.226586 0.118797 0.130663
-0.681664 -0.0266581 0.623944
-0.356552 -0.567633 -0.496581
0.392829 0.292337 -0.117409
-0.614632 -0.536072 -0.469466
-0.101155 0.487545 -0.491152
0.14119 -0.319948 -0.936809
-0.897485 -0.0205556 -0.17512
0.552444 0.148971 0.01687
-0.609543 -0.112347 -0.643233
-0.698408 -0.53394 -0.0808482
0.807617 -0.333155 -0.849616
0.655977 0.107748 -0.755519
-0.261785 -0.259539 0.220656
-0.625766 0.549726 0.821048
-0.246716 0.148111 -0.644812
-0.442473 0.113035 -0.683278
0.789712 -0.306482 -0.461497
-0.940794 -0.373937 0.490557
0.0485229 0.328564 0.970652
-0.665537 0.00445503 -0.856871
0.985217 -0.227327 -0.603212
0.310833 -0.331327 0.241757
-0.45403 -0.21945 -0.711428
0.480861 -0.526185 -0.813254
-0.475798 -0.41026 0.548902
0.269397 0.424391 -0.598394
0.206932 -0.734204 -0.629201
0.104271 -0.176325 0.255686
-0.883427 -0.392073 -0.280091
0.467742 0.33288 -0.766847
-0.568831 0.0988917 -0.908113
0.585863 -0.498588 -0.748477
-0.4102 -0.00154516 0.490783
-0.0845058 0.456883 -0.593986
0.273249 0.20357 -0.989501
-0.174037 0.220113 -0.928047
0.0259043 0.0488994 -0.929922
0.531109 0.283182 -0.71815
-0.959752 -0.228026 0.0627862
0.142248 0.376235 -0.832269
0.425355 -0.565389 -0.899419
-0.577823 0.0992313 -0.971367
-0.489817 -0.474345 0.330206
0.953058 -0.296651 -0.627596
-0.765579 0.367045 0.800298
0.694435 -0.374929 -0.0847406
-0.607454 -0.00124679 -0.824425
-0.0793934 0.496587 -0.423558
-0.464962 -0.252059 -0.820159
-0.516178 -0.0810148 0.636716
-0.213006 0.413053 -0.421319
-0.174458 -0.338855 -0.942092
-0.311382 0.198687 -0.978231
0.480256 -0.00374853 0.185902
0.823608 -0.128079 -0.498966
-0.152727 0.406063 -0.24214
-0.447661 -0.433379 -0.698344
-0.303646 0.211167 -0.465517
-0.655122 -0.467213 -0.959252
0.756685 0.104263 -0.278065
-0.491174 -0.339083 -0.809734
-0.174062 -0.489074 0.0172216
-0.701398 0.254991 0.771055
-0.734832 0.338031 0.590786
0.132242 -0.753938 -0.502941
-0.747345 0.0405126 0.456157
-0.0779394 0.349707 -0.966069
-0.877727 -0.141854 0.538543
0.469396 0.354335 -0.392099
0.0600454 -0.297175 -0.937702
-0.638538 -0.60385 -0.259738
-0.805462 -0.686843 0.16216
-0.194761 -0.408565 -0.940615
-0.426935 0.190533 -0.462841
-0.807107 0.469887 0.789891
0.668094 -0.146138 0.046928
0.839056 0.0906306 -0.714086
-0.793916 -0.729944 0.234094
0.162597 -0.461874 -0.93523
-0.499606 0.171944 -0.498727
-0.914641 -0.15279 -0.0575245
-0.138212 0.200029 0.0436931
-0.706757 0.267078 0.493124
-0.152733 -0.387031 0.12595
-0.836701 -0.0907746 0.550951
-0.907479 -0.126254 -0.329968
0.140817 0.404148 -0.774119
-0.682662 0.104701 0.034624
-0.725775 0.637437 0.869493
0.135237 0.46086 -0.258139
-0.0142427 -0.0901486 -0.934972
-0.109937 0.1071 0.832664
0.344221 0.34732 -0.819584
0.453876 0.0616685 0.165467
-0.578989 -0.632592 0.124187
-0.658314 0.112854 -0.500832
-0.664328 -0.57028 -0.133859
-0.385773 0.266187 -0.883514
-0.325412 -0.402363 0.128658
0.0661905 -0.56864 -0.985694
0.308519 0.410889 -0.549222
-0.820037 0.0780605 -0.345549
0.401936 -0.23535 0.243373
0.411172 -0.642539 -0.67004
0.202708 -0.0761173 -0.983114
-0.588812 0.368999 0.584391
-0.725682 -0.0331906 -0.899558
-0.122347 0.363535 -0.74398
-0.207201 0.224362 -0.0018998
0.666778 -0.29436 0.0373946
0.154142 0.0389497 -0.929462
0.346787 -0.568999 -0.981599
-0.670932 -0.498445 0.559492
-0.597252 0.725921 0.718217
-0.5257 -0.129182 -0.73327
0.643092 0.254036 -0.352791
-0.592422 0.0364461 0.56236
-0.209571 -0.596111 -0.249711
-0.612253 0.457497 0.772551
0.276133 -0.74501 -0.342789
-0.547792 0.16346 0.0653706
0.419382 -0.163077 0.23898
-0.859302 -0.152255 -0.439557
0.861562 -0.332818 -0.797194
0.17864 -0.735491 -0.552635
0.0392703 0.178036 0.105393
0.809044 -0.201903 -0.38026
-0.785682 0.121431 -0.152672
-0.673348 -0.501212 -0.481714
0.801411 -0.275835 -0.387405
0.428356 -0.449895 0.111998
-0.777157 0.0217309 0.0639461
-0.225099 -0.593801 -0.836142
-0.112855 0.224636 -0.934026
-0.502499 0.127768 0.133346
-0.174263 0.437091 -0.485984
0.400263 -0.412291 0.171565
-0.919343 -0.0691443 -0.2853
0.472896 0.363157 -0.57388
-0.575301 0.38465 0.663438
-0.582826 -0.542399 0.410041
-0.656806 0.0830289 0.100693
-0.819235 -0.142053 -0.496271
0.44978 0.337984 -0.264362
-0.13559 -0.139308 -0.937999
-0.900484 -0.256076 -0.376636
0.408653 -0.606568 -0.118541
-0.78527 -0.504666 -0.157674
0.48246 -0.521857 -0.941291
0.0387556 -0.0279263 -0.933285
0.17134 -0.699207 -0.69109
-0.9125 -0.4034 0.3684
0.417432 -0.27068 -0.993933
-0.934918 -0.156407 -0.114536
-0.830591 -0.213007 -0.491484
-0.37307 -0.377156 -0.984821
-0.135936 -0.53209 -0.956669
0.147433 -0.614303 -0.844078
0.533461 0.167928 -0.850851
-0.780636 0.0859519 -0.404652
-0.886737 -0.330198 -0.330417
0.541823 0.197226 -0.0449992
-0.65041 0.556605 0.573309
-0.544466 -0.581407 0.17148
-0.699605 0.591398 0.592747
-0.106278 -0.656343 -0.283734
-0.85988 -0.403842 -0.0686271
0.422651 0.124148 0.139577
-0.543275 -0.267379 0.607361
-0.498025 -0.184724 -0.788844
-0.740896 0.254813 0.608023
-0.752 0.0551794 0.304463
-0.376252 0.169103 -0.573092
0.524082 -0.371967 0.138659
-0.469962 -0.277427 0.580027
0.109643 -0.750896 -0.447903
0.0420094 -0.748662 -0.323661
-0.671991 -0.523488 -0.0061405
-0.5993 -0.5804 -0.898167
-0.238655 0.343241 -0.438806
-0.493146 0.0987403 -0.611672
-0.10409 -0.597652 -0.215429
0.11428 0.486366 -0.410898
0.412196 -0.550572 -0.0618582
0.917049 -0.300323 -0.767309
-0.171206 -0.0131195 0.580386
-0.459557 -0.363518 0.487021
0.184199 0.146118 0.142207
-0.772557 0.0511504 0.139236
0.641358 -0.449102 -0.752498
0.80901 -0.0828432 -0.34483
0.616833 0.108666 -0.795788
0.63334 -0.498414 -0.689573
-0.212193 -0.662911 -0.897294
-0.797231 -0.363838 0.593672
-0.195737 0.293525 -0.638194
0.409837 -0.331098 -0.994491
-0.570176 -0.0839234 0.594122
-0.317698 0.148021 -0.613834
0.652598 -0.437276 -0.0934921
0.717377 -0.172831 -0.948909
0.213951 0.176886 -0.936747
-0.435891 0.208033 0.0265202
0.312641 0.25063 0.0276383
0.627813 0.255374 -0.424249
-0.460482 -0.493757 0.25248
0.0690462 -0.096208 -0.935122
0.359905 0.0294051 -0.996878
-0.205378 -0.353715 0.163108
-0.640235 0.362492 0.5198
0.145701 -0.500249 0.108019
-0.0874874 -0.0746543 -0.9339
0.347046 0.282846 -0.976606
-0.804241 -0.626563 0.0275388
-0.956239 -0.15691 0.291663
-0.830267 0.0846616 -0.1847
0.756843 -0.37765 -0.455221
-0.754086 0.300844 0.539291
-0.955959 -0.574338 0.213727
-0.857787 -0.521032 0.486549
0.497562 0.349987 -0.507391
0.671704 -0.219253 0.0401682
-0.0251158 0.234035 0.748912
-0.695748 -0.689178 0.339153
0.411877 0.31367 -0.199462
-0.352981 -0.562484 -0.844986
0.503108 -0.0707553 0.189325
-0.112539 -0.527468 -0.694603
0.0212672 0.194677 0.784528
0.0829581 0.30203 0.893289
0.632292 0.16006 -0.725394
-0.0251468 -0.167175 0.228089
-0.613234 -0.518028 -0.854197
0.339913 0.406896 -0.340593
0.895609 -0.347578 -0.636477
0.543507 0.0473765 -0.947256
0.0841564 -0.722962 -0.628279
0.734657 -0.253668 -0.927083
0.156458 -0.622625 -0.908423
0.655413 -0.0706402 0.058476
-0.449843 -0.45149 -0.605455
0.63675 -0.369617 0.0292954
-0.490863 -0.535587 -0.798961
-0.896944 -0.0109188 -0.24868
-0.473084 -0.00688243 0.372474
0.754514 -0.280642 -0.13611
-0.620407 0.194382 -0.143044
-0.574102 0.0310502 0.492907
-0.771295 0.11055 0.58895
-0.170128 -0.587963 -0.981789
-0.442911 -0.305039 0.435915
-0.374588 0.223174 -0.0116928
-0.475457 -0.0428428 0.669751
0.759985 -0.0536924 -0.11374
-0.110295 0.0715654 0.91215
0.410985 0.0187322 0.210095
0.431789 0.385735 -0.51741
0.524942 0.23917 -0.10204
-0.315746 0.111167 0.697875
-0.510836 0.067794 -0.815252
0.70622 -0.0938003 -0.95592
-0.558523 -0.180397 -0.825288
0.614534 0.111205 0.0126615
-0.755067 -0.507737 -0.0892174
-0.487269 0.120158 -0.558435
0.684264 -0.0271789 0.00779562
0.803252 -0.243588 -0.322674
-0.498304 -0.250014 -0.984258
-0.067532 0.248719 0.819143
-0.0616531 0.387815 -0.775456
-0.608859 0.158364 0.65912
0.501975 0.155724 0.0622645
-0.25127 -0.500938 -0.00464024
-0.28964 0.0247326 -0.951316
-0.253442 -0.589623 -0.322471
-0.37007 -0.223445 0.309108
-0.776761 0.143223 -0.213716
0.270231 -0.42361 -0.936351
-0.945701 -0.271206 -0.225257
-0.728244 -0.647049 0.428427
-0.883426 -0.0219657 -0.0961167
-0.189545 -0.532277 -0.0494069
-0.21455 0.19752 -0.76234
-0.752438 0.0691732 0.0203187
0.769362 -0.343474 -0.518323
-0.648341 0.296816 0.497866
-0.627699 0.0647269 -0.881001
-0.530535 -0.503033 0.516008
-0.142683 0.236017 0.00248369
0.542535 -0.0223484 0.148781
0.821547 -0.0682715 -0.512786
0.161069 -0.738731 -0.248714
-0.835691 -0.580029 0.450018
0.168139 0.277818 -0.989259
0.0821869 0.189707 -0.929858
0.211764 -0.707447 -0.75256
-0.619807 -0.151233 0.605647
-0.9146 -0.506819 0.043999
0.322404 0.360043 -0.199066
0.896402 -0.0857876 -0.511715
-0.572411 -0.621241 -0.267817
-0.138932 0.207046 0.822892
0.0232722 0.102981 0.148331
-0.341858 0.0202799 0.789672
0.385501 -0.0992456 0.248559
-0.467372 -0.359501 -0.722662
-0.449289 -0.510931 0.0135763
0.57831 -0.238979 0.139037
0.698427 -0.100413 -0.00044302
0.23513 -0.747076 -0.403822
-0.115569 0.349297 -0.815909
-0.758058 0.53708 0.888582
0.2834 -0.5564 -0.0856
0.460461 -0.678859 -0.412659
0.286214 0.379941 -0.782759
-0.264906 -0.386171 0.15674
-0.560247 -0.36018 -0.842536
-0.836332 -0.406594 -0.396232
-0.88835 -0.00834692 -0.319255
-0.249836 -0.529193 -0.81133
0.294868 -0.670322 -0.182479
-0.349179 0.256294 -0.132306
0.768911 -0.00329438 -0.169077
-0.793832 -0.543834 0.509785
0.238276 -0.335622 0.243326
-0.342452 0.212437 -0.81716
-0.213942 0.189558 0.0670747
-0.636373 0.73759 0.798505
0.559723 -0.481603 -0.0291052
-0.27358 0.202744 0.0514257
-0.447975 -0.484582 -0.976698
-0.0493455 0.275765 -0.0307059
0.559038 0.255578 -0.765579
-0.228209 0.373109 -0.360705
0.688369 -0.463377 -0.204115
0.11804 -0.633106 -0.97447
0.52075 -0.58562 -0.58555
-0.659002 0.207409 -0.29945
-0.431757 -0.33747 0.372457
0.174355 -0.324508 0.245945
-0.868463 -0.676165 0.199135
-0.421071 -0.535487 -0.505034
-0.25851 0.212392 -0.513595
0.343221 -0.6307 -0.169676
0.278815 0.446535 -0.43263
-0.600724 -0.604511 -0.342626
-0.40372 -0.605827 -0.187959
-0.737741 -0.25314 -0.578096
-0.153807 0.0331131 0.874934
0.539616 -0.43889 0.0464363
-0.761662 -0.600764 0.475332
0.0717959 0.383956 -0.827079
0.0468427 0.336904 -0.925069
0.0852783 -0.757177 -0.385718
0.445102 0.209039 -0.924995
-0.782736 0.441078 0.822729
0.253962 0.26139 -0.0339229
0.784051 -0.244848 -0.197729
0.0451421 -0.495996 -0.931051
-0.533108 -0.140218 -0.675334
-0.612514 -0.0396343 -0.628363
-0.2848 0.157828 0.105954
-0.140274 -0.46321 -0.930306
-0.0791755 0.269294 -0.988407
-0.435153 -0.0959746 0.6885
-0.0164226 -0.396923 0.158676
-0.6466 -0.470921 -0.897379
0.00697469 0.425146 -0.732801
0.802588 -0.0280439 -0.398376
-0.199983 0.0938495 0.588076
0.608522 0.0607011 0.0572266
-0.41597 0.0105734 -0.984725
-0.4387 -0.491764 0.162393
0.00446927 -0.542037 0.000648003
-0.294723 0.0680364 0.820088
-0.407165 0.253486 -0.33122
-0.616642 -0.704006 0.127253
0.87519 -0.102181 -0.860931
-0.617187 0.0812456 0.14571
-0.6649 -0.154913 -0.629707
0.429775 0.0585954 -0.986846
0.262369 0.0910208 -0.93664
0.371072 -0.672067 -0.717844
0.580592 -0.562138 -0.210189
-0.734115 0.173629 -0.331437
-0.739598 -0.609929 0.0102043
-0.0460421 -0.710669 -0.270499
-0.954036 -0.550923 0.088231
0.275461 -0.712051 -0.229971
-0.579074 0.162045 0.599577
0.801597 -0.137818 -0.242809
-0.773066 -0.194717 -0.541383
-0.929733 -0.0711545 0.151295
-0.618347 -0.564897 -0.959717
0.95812 -0.248904 -0.747625
-0.627134 -0.569253 -0.403716
-0.536547 0.0474352 0.336639
0.598145 -0.483379 -0.0962557
-0.630806 0.210669 0.717152
-0.608473 0.166982 0.477963
-0.51338 -0.508012 -0.9767
-0.275293 0.151015 -0.927046
-0.0158977 0.17827 0.674921
-0.662329 -0.704232 0.0739743
-0.65684 -0.358303 0.610744
-0.299947 0.101895 -0.932176
0.795801 -0.0115703 -0.548196
-0.53296 -0.628417 -0.900282
-0.137999 0.115999 0.615227
0.657331 0.0458623 0.00970264
0.123313 -0.750084 -0.320248
-0.378134 0.0625086 0.696442
-0.293363 0.232991 -0.0041728
0.00101031 0.491645 -0.420485
-0.953359 -0.284463 0.451521
0.724417 0.0669118 -0.871029
-0.466163 0.0255175 0.307126
-0.0980826 -0.318975 -0.937655
-0.430444 0.146932 0.137253
-0.396442 0.250771 -0.0776403
0.481792 0.0860669 -0.937646
0.491725 0.339866 -0.705545
-0.863156 -0.641674 0.0570163
-0.273811 -0.582872 -0.256528
-0.504534 -0.599133 -0.839822
-0.647213 0.398705 0.797446
-0.0472194 0.0859239 0.162089
0.176984 0.328755 -0.868745
0.882833 0.0526425 -0.753667
-0.600539 0.096594 0.606815
0.953234 -0.249483 -0.553178
0.333459 -0.194198 -0.991264
0.699106 0.0842521 -0.0978481
0.620298 -0.381511 -0.862163
-0.600231 -0.583379 0.305411
-0.403695 -0.0642816 -0.987892
-0.54764 -0.300587 -0.981171
-0.628167 -0.480029 -0.527251
0.308166 -0.148813 0.269134
-0.678488 0.155858 -0.0687266
-0.598551 0.107755 0.461435
-0.668725 -0.00665443 -0.59447
0.195051 0.428645 -0.66787
-0.214387 0.188178 -0.695513
0.309074 -0.474716 -0.990186
-0.836547 -0.474323 0.53517
-0.653331 -0.410809 -0.956219
-0.12472 -0.028265 0.640245
0.690474 -0.390491 -0.748729
-0.639684 0.207706 -0.221774
-0.203073 0.26721 -0.982584
-0.0091879 -0.618029 -0.79369
-0.719067 0.346494 0.511343
0.456274 -0.616139 -0.211783
0.27136 0.340276 -0.842358
0.0244094 0.493496 -0.300209
0.203161 -0.140811 -0.989242
-0.201269 0.14758 -0.92433
-0.382547 -0.491503 0.0350961
-0.99672 -0.311495 0.182098
-0.393129 -0.612942 -0.289288
0.435803 -0.507156 -0.00142002
0.111958 0.351461 0.820637
0.806233 -0.155998 -0.314509
-0.487247 -0.178833 -0.704523
-0.576342 -0.459642 -0.56478
-0.612902 -0.640993 0.263074
-0.224006 0.254421 -0.569524
0.522587 -0.605829 -0.224911
0.700568 0.104267 -0.814778
-0.00647823 -0.0240681 0.213642
-0.00742926 0.290237 0.947984
-0.274116 0.0793488 0.572081
0.520577 0.274926 -0.164757
-0.156151 0.168485 0.87723
-0.516129 -0.334238 0.594956
-0.253578 -0.0262421 0.683914
-0.838226 -0.056427 0.432273
-0.932676 -0.324826 -0.168284
0.611616 -0.551615 -0.342469
0.813277 -0.166047 -0.446143
0.366119 -0.437698 -0.993703
-0.521935 0.249615 -0.170857
-0.691301 -0.604934 0.475115
0.654274 -0.143641 -0.979197
0.681691 0.148618 -0.664923
-0.121926 -0.523022 -0.0192114
0.274695 -0.387331 0.211165
-0.687848 0.541284 0.870798
-0.919641 -0.0811203 0.282071
-0.406036 0.178275 0.0796169
-0.0122617 -0.509564 -0.929737
-0.199884 0.375139 -0.969286
0.123935 0.333041 -0.916764
0.281002 0.430716 -0.289893
-0.603579 -0.51645 0.541684
-0.5579 -0.570631 0.24638
0.286938 -0.00610854 0.249287
-0.658083 -0.692163 0.26194
0.203088 0.442881 -0.259386
-0.579525 0.751855 0.786138
-0.209099 0.020275 0.732303
0.386038 0.357863 -0.236389
-0.717468 0.190564 0.483021
-0.287765 -0.558456 -0.12804
-0.582015 0.182121 -0.00212622
0.0326772 0.301623 -0.987294
-0.265753 -0.52893 -0.0668011
0.0823695 -0.648718 -0.890437
0.967007 -0.02984 -0.672803
-0.636353 0.0300443 0.619664
-0.59332 -0.183679 -0.658539
0.243083 0.249519 0.0487993
0.527232 0.324602 -0.36293
-0.866618 -0.678283 0.126581
0.511773 -0.385827 -0.962185
0.682047 -0.493638 -0.442469
0.669386 0.049209 -0.919388
-0.148886 -0.493242 -0.657658
-0.859997 -0.112906 0.474302
0.0406382 0.272694 0.758798
0.497801 0.19193 0.000280587
0.881913 0.0685319 -0.676093
-0.465272 -0.565749 -0.978011
-0.584828 0.686901 0.840711
0.348542 -0.577805 -0.916357
0.368845 0.412503 -0.528999
0.82446 -0.354245 -0.622262
-0.140562 -0.316436 0.159701
0.236756 0.116462 0.17442
0.682533 -0.481815 -0.514312
-0.574698 0.237058 0.587545
0.713369 0.123228 -0.611688
-0.628151 0.33502 0.762106
-0.618828 0.135871 0.0527534
-0.793587 -0.514053 -0.283948
-0.0577586 -0.641486 -0.984389
0.781584 0.0238579 -0.36865
0.445519 0.288674 -0.829821
-0.686361 0.7063 0.937511
-0.525366 -0.428177 -0.597743
-0.666416 0.135829 0.453587
-0.135667 -0.70411 -0.892818
0.509504 0.318005 -0.594745
-0.139458 0.264046 -0.983078
0.00772437 0.483664 -0.539625
-0.714865 0.0760669 0.245432
-0.909524 -0.0357603 0.233675
-0.68878 -0.658829 0.0342513
-0.783335 -0.00327027 0.503846
0.413657 0.384294 -0.592105
-0.307847 0.127851 -0.681523
0.117191 -0.107037 0.2546
-0.583903 0.0481752 0.428369
-0.40118 -0.176795 0.512058
-0.159757 0.0618469 0.792921
0.79086 -0.279121 -0.26082
-0.454909 -0.413678 0.357923
0.230724 -0.58068 -0.12514
-0.0191718 0.334692 -0.967041
0.324679 -0.715529 -0.284421
0.539511 -0.0176841 -0.985227
-0.729699 0.476329 0.857248
0.743601 -0.170845 -0.0743995
-0.0809732 -0.204094 0.210584
-0.842716 -0.454626 -0.29325
-0.649928 -0.230752 -0.6365
-0.820734 -0.286248 -0.480621
-0.694058 -0.734583 0.135286
-0.214474 -0.544557 -0.552436
-0.933662 -0.283686 -0.109522
-0.490498 -0.528926 0.118229
0.693218 -0.420047 -0.146862
0.0582195 -0.716685 -0.520553
-0.582508 0.176869 0.537252
-0.624309 0.0781782 -0.54683
0.809701 -0.0850571 -0.437641
-0.608694 -0.0779432 -0.982073
0.678411 -0.301863 -0.932293
0.688908 -0.332703 -0.0186751
0.610111 0.2604 -0.499529
-0.667744 -0.212421 0.614796
-0.49561 0.0194963 -0.98439
-0.460123 -0.0224278 0.451323
-0.489446 0.0654722 -0.746458
-0.572522 0.304267 0.629848
-0.434042 -0.24267 0.476435
-0.28942 0.119657 0.166896
-0.0308505 0.352661 -0.902427
0.68063 -0.444516 -0.694054
-0.589153 -0.418988 -0.976399
-0.158518 0.196313 0.750046
-0.638859 0.273591 0.749913
-0.119605 -0.392652 -0.934678
-0.851874 -0.400714 0.564454
-0.424798 0.227696 -0.394879
0.412593 -0.673073 -0.598264
-0.176667 0.271731 -0.0522331
-0.920796 -0.0885797 -0.142486
0.740541 0.0964021 -0.557361
-0.680363 -0.083517 -0.608738
-0.0655499 0.0751091 0.610882
-0.251285 0.110272 0.834104
-0.160787 -0.657225 -0.839724
-0.712921 -0.443711 0.584701
0.0676927 0.0117639 0.222621
0.789832 -0.0813083 -0.187495
-0.0629851 0.0141847 0.190887
-0.577844 0.0768272 0.217394
0.488341 0.108321 0.113856
0.338745 0.0396398 0.222704
-0.891532 -0.396109 -0.146775
-0.722922 0.115732 0.467058
0.466159 0.223675 -0.0577862
-0.924923 -0.446358 0.326405
0.569618 0.274351 -0.575161
-0.278689 -0.57644 -0.397945
0.917952 -0.301999 -0.571071
-0.450111 -0.399309 -0.978193
-0.574025 -0.529176 0.336691
0.644977 0.22599 -0.549888
-0.714916 0.518456 0.711158
0.995215 -0.16835 -0.649444
-0.729422 0.469726 0.54187
0.0872253 -0.530795 0.0482803
0.766335 -0.318858 -0.199226
0.816804 0.0881745 -0.773849
-0.180907 -0.555275 -0.373423
-0.934753 -0.347633 0.422678
-0.93794 -0.130893 -0.26113
-0.628424 -0.597889 0.444953
-0.768325 0.155223 -0.275433
-0.271816 0.272849 -0.348568
-0.706264 -0.723002 0.239751
-0.182855 0.00172426 0.671836
-0.209657 0.0365322 0.554006
-0.522391 0.108506 -0.981037
-0.443104 -0.501855 -0.554212
-0.89192 -0.0658338 0.341897
-0.677011 0.681832 0.839138
-0.727546 -0.372409 0.605172
-0.40562 -0.123418 -0.965525
-0.314354 -0.14837 -0.965569
0.289318 -0.600536 -0.140186
-0.988649 -0.240188 0.202995
-0.689254 0.177529 -0.190956
0.178335 0.358892 -0.158222
0.112243 -0.512495 -0.958852
-0.854762 -0.694406 0.257473
0.627397 -0.261184 0.0918864
0.582387 0.259478 -0.658031
-0.169478 0.461372 -0.372332
-0.0330351 -0.684075 -0.554366
-0.557812 -0.585607 -0.390229
-0.206623 -0.50146 -0.76429
0.178321 -0.46002 0.161065
-0.586266 -0.25387 -0.65209
-0.66358 0.0770553 0.289641
-0.69671 -0.445837 -0.514048
-0.39496 -0.509503 -0.588163
0.322908 0.320963 -0.892011
0.691761 -0.486729 -0.26786
0.0162946 0.342116 -0.860563
-0.365459 -0.0524125 0.257877
-0.433126 -0.0246355 0.711422
-0.461154 -0.298578 -0.763696
0.181188 -0.252082 -0.94345
0.612461 -0.276946 -0.96173
0.409451 -0.204934 -0.984209
-0.762688 0.141874 0.530019
0.303711 -0.722344 -0.411869
-0.233755 -0.0391444 0.549204
-0.35961 -0.0512868 0.470823
0.369818 -0.514712 -0.0155714
0.242899 -0.733281 -0.530552
0.0872091 0.432025 -0.20018
-0.651444 -0.557968 0.515194
0.47891 0.151679 -0.891553
-0.0381706 0.399726 -0.18787
0.330435 0.269891 -0.09669
0.44024 0.279007 -0.890134
-0.970721 -0.517221 0.152751
0.5942 -0.574376 -0.41538
-0.073275 0.109292 0.944956
0.305748 -0.0251694 -0.994174
-0.243347 0.248532 -0.0529369
0.276069 0.0388717 -0.98617
0.208898 -0.541253 0.0483564
0.22097 0.0292315 -0.938672
0.0885616 0.235159 0.781792
0.778931 0.0809243 -0.830954
0.97729 -0.245003 -0.678338
-0.481886 -0.347984 -0.65235
-0.16849 0.317175 -0.211467
0.555303 0.311442 -0.52349
0.151486 -0.53123 0.0565649
0.555901 -0.326566 -0.95666
0.500163 -0.425879 0.109488
0.253743 0.28343 -0.0889486
-0.522671 0.0529083 0.265239
-0.41983 -0.61581 -0.955781
-0.275161 0.0182357 0.523474
0.343878 -0.267947 -0.993514
-0.525073 -0.22607 -0.676703
0.181844 0.325099 -0.951273
-0.340777 -0.531159 -0.710036
-0.30777 -0.367088 -0.983246
0.717251 -0.448203 -0.324824
-0.275694 -0.556036 -0.60221
-0.533737 -0.298198 -0.657417
-0.193137 -0.477844 -0.958312
-0.434624 -0.587834 -0.848031
-0.10038 0.169399 0.935158
0.163473 0.229949 0.0477956
-0.163342 -0.0354565 -0.931303
-0.403804 0.262024 -0.261683
0.642328 -0.0685729 -0.974897
-0.085681 -0.667981 -0.81736
0.33124 -0.230316 0.262992
0.58328 -0.52914 -0.147642
0.697239 -0.471007 -0.386164
-0.662541 -0.593631 0.0205934
0.730371 0.00795982 -0.916058
0.354107 -0.371097 0.214522
-0.409725 0.221371 -0.981558
-0.86529 -0.609864 0.390136
0.0883756 0.0374295 -0.929996
0.0976183 -0.464479 -0.930188
-0.743541 -0.676911 0.0485554
-0.402606 -0.13392 0.448239
0.720017 0.167128 -0.386292
-0.980296 -0.199122 0.131524
0.0845131 0.360033 0.932694
0.920379 -0.0600465 -0.811644
-0.746971 -0.00576247 -0.511257
-0.211731 -0.506612 -0.691461
0.37468 0.20431 0.0773551
-0.129229 -0.619714 -0.792216
-0.692 -0.0571 -0.8457
-0.644626 -0.182397 -0.977143
-0.43491 -0.213994 0.547593
-0.730551 -0.117694 -0.893638
-0.397071 -0.546597 -0.978001
-0.501737 -0.497329 0.0533776
-0.141508 0.366848 -0.961798
0.536485 -0.49599 -0.800182
0.431407 -0.490958 -0.991264
-0.322729 0.279664 -0.827359
-0.567769 -0.0550325 -0.790949
0.439462 0.131074 -0.963126
-0.747691 -0.717202 0.107699
-0.955521 -0.506364 0.231857
-0.33642 -0.110085 0.617773
0.831521 -0.381723 -0.674929
0.478881 -0.565744 -0.0957685
-0.804194 -0.711655 0.307063
0.704452 0.166031 -0.538443
-0.506687 -0.453273 0.411687
-0.912743 -0.582035 0.0516954
0.110204 0.314115 -0.973885
0.0965826 0.488359 -0.328988
-0.553592 -0.556554 0.101301
-0.084979 0.180109 0.0784717
-0.544315 -0.566584 -0.976094
0.703825 -0.451748 -0.575983
0.438693 -0.0886394 -0.982748
-0.576486 -0.623903 0.206924
-0.270987 -0.522058 -0.735319
0.438837 0.209894 0.0192001
-0.716013 -0.566097 -0.282188
-0.148768 -0.170814 0.204182
-0.512196 0.201644 0.0153376
0.482886 -0.0520519 -0.99729
-0.758225 0.0746301 0.642043
0.463012 0.352897 -0.330933
0.209839 -0.210753 -0.986544
0.200709 0.221681 -0.987721
-0.135619 -0.199909 -0.941083
-0.681768 0.189428 -0.373768
-0.742948 -0.725406 0.29324
-0.659786 0.699022 0.686788
0.388877 0.377279 -0.661937
-0.825282 -0.0481045 0.495236
0.37361 -0.383339 -0.990762
0.323372 -0.398783 -0.948646
0.221719 0.448414 -0.329761
-0.284223 0.174632 -0.789262
0.308119 0.208971 0.0919061
-0.231964 0.046408 0.858879
-0.920858 -0.629503 0.100647
-0.0992356 0.222298 0.76681
0.145427 0.180527 -0.929398
-0.0955115 0.492962 -0.357635
-0.980405 -0.378107 0.231729
0.050322 0.323247 0.821055
0.196661 0.258212 0.00587473
-0.589756 -0.32627 0.609996
-0.232811 -0.460788 0.0489686
-0.249548 0.330112 -0.986891
-0.835049 -0.412209 0.00988911
-0.0818393 -0.356743 0.157355
0.29518 0.308275 -0.962179
-0.817869 -0.481375 -0.222947
0.579357 0.281057 -0.384922
0.527924 -0.498316 -0.878181
0.0416919 0.26297 0.93482
-0.0733306 -0.627585 -0.548824
-0.984216 -0.37472 0.162998
-0.0204048 -0.291364 -0.9377
-0.865781 -0.0162438 0.298892
-0.658147 0.476256 0.824145
-0.0186645 -0.668729 -0.833179
-0.366497 -0.339664 0.251779
0.688646 0.0934442 -0.715611
0.682543 -0.0161775 -0.951326
0.0328766 0.220083 0.706441
0.793338 0.0145894 -0.878414
-0.584747 -0.213243 0.611326
-0.154915 -0.271246 -0.944274
-0.75704 -0.686621 0.371178
-0.429529 0.13549 -0.903748
0.0699708 -0.559852 -0.0141251
-0.0807226 -0.501049 -0.929184
0.861822 -0.0243842 -0.539574
-0.856358 -0.0316049 -0.405531
0.991363 -0.15952 -0.577119
-0.752656 0.391337 0.699283
-0.391539 0.128023 -0.830368
-0.166555 0.100415 -0.927368
-0.314655 -0.531624 -0.789975
0.476982 -0.241618 -0.99319
0.612843 0.0163186 -0.95701
0.233672 0.308136 -0.976287
0.732323 -0.414053 -0.518882
0.000114441 -0.71805 -0.506762
0.272373 -0.522776 0.0675468
0.671609 -0.5154 -0.331314
-0.388654 -0.140734 0.645217
-0.947236 -0.409516 0.105101
0.297428 0.435527 -0.485747
-0.318749 -0.57394 -0.29632
0.468912 -0.600826 -0.148784
-0.279474 0.0022514 0.819848
0.200419 -0.577548 -0.0615167
-0.816543 0.0959677 -0.254185
-0.911866 -0.37169 -0.211816
-0.695695 -0.578364 -0.210699
-0.506824 0.137573 -0.948846
-0.702317 -0.181369 -0.956174
-0.107407 -0.596704 -0.982238
0.47944 -0.163236 -0.979061
0.752007 -0.358162 -0.648662
-0.57968 0.116158 0.107044
-0.914919 -0.548345 0.357456
-0.55303 0.0933332 -0.558033
-0.1481 -0.590322 -0.264168
0.661282 0.096165 -0.039236
-0.436173 0.262143 -0.141008
-0.463156 -0.550816 -0.0435704
0.293161 -0.584685 -0.975339
-0.588738 -0.148233 -0.981638
0.00730298 -0.67029 -0.973429
0.243102 -0.504292 -0.990041
-0.883121 -0.087868 0.406467
-0.594418 0.5168 0.753249
-0.206059 0.334482 -0.570829
-0.237347 0.313851 -0.322557
0.0569552 -0.05711 0.237701
0.351425 0.307322 -0.1686
-0.6038 -0.298723 -0.966874
-0.340276 0.0081916 0.499232
0.0111021 0.0439391 0.1906
0.843009 0.0383395 -0.823502
-0.346328 -0.547908 -0.556823
-0.0122753 -0.752372 -0.334849
-0.54526 -0.359208 -0.624799
0.392202 0.318606 -0.862062
0.8036 -0.264328 -0.531586
0.138752 0.0391616 0.22687
-0.745554 0.573566 0.828008
-0.274483 0.129543 0.765553
0.0736023 0.422134 -0.751614
-0.34813 -0.111491 0.264045
-0.630794 -0.274567 0.615717
0.540214 -0.513295 -0.0893165
-0.289117 -0.0640043 0.646921
-0.0994393 0.109179 0.757164
0.53022 -0.550085 -0.736293
0.342401 0.399512 -0.259097
-0.59337 0.307826 0.546445
0.649824 -0.53257 -0.394495
-0.0479442 0.314253 -0.158506
-0.475467 -0.124939 -0.984552
-0.961078 -0.589146 0.148515
-0.325559 0.0165709 0.23335
0.697648 0.0271836 -0.0456481
-0.160533 -0.441217 0.0786742
-0.0072316 0.203898 0.920706
0.369775 -0.0483798 -0.985901
-0.734407 -0.474624 -0.459705
-0.481886 -0.325288 -0.983054
0.659258 0.198337 -0.483454
0.294107 -0.723202 -0.645272
-0.215141 -0.141036 0.226619
-0.354996 -0.591392 -0.955394
0.921994 -0.136503 -0.824414
-0.309575 -0.232534 -0.965129
0.20552 0.000833824 0.245616
-0.640363 0.730333 0.936299
0.277182 -0.64027 -0.834472
0.191992 0.462391 -0.406705
-0.176784 0.360726 -0.633031
-0.348354 -0.293694 -0.971143
-0.526285 0.257075 -0.250681
-0.801659 -0.670102 0.0907231
-0.492468 -0.622428 -0.95882
0.324708 -0.110542 -0.990741
-0.607264 0.0637925 0.355142
-0.904681 -0.631974 0.252098
-0.228358 -0.561313 -0.413858
-0.759847 -0.526561 -0.332313
-0.24947 -0.0892593 0.619223
-0.157384 0.0972325 0.144433
-0.895512 -0.0866625 -0.0585943
-0.219587 0.220839 -0.635464
-0.776429 -0.484347 -0.0231094
-0.783246 -0.431923 0.577528
0.241861 0.192071 0.108978
-0.56682 -0.51269 0.0470956
0.723141 0.110879 -0.209454
0.674954 0.167768 -0.211446
-0.607475 -0.452123 -0.832242
-0.806269 -0.0259197 -0.473062
0.399237 -0.484409 0.0550432
0.0722298 -0.665513 -0.772911
-0.0878851 -0.126604 0.211152
-0.0654052 -0.15571 -0.936437
-0.787291 0.127035 -0.325419
-0.697661 0.575234 0.667256
0.949598 -0.0452774 -0.742918
-0.469982 -0.59578 -0.181959
0.570422 -0.381732 0.0848745
-0.0541101 0.225895 0.952485
0.328584 0.258682 -0.0385707
-0.115947 0.156627 -0.926129
-0.885543 -0.153095 0.447878
-0.14772 -0.603799 -0.33111
-0.333781 0.26719 -0.984394
-0.428565 0.0231891 0.669767
-0.915453 -0.197848 -0.313462
-0.051934 -0.563362 -0.964538
-0.317011 0.245321 -0.0720949
-0.985144 -0.309184 0.257893
0.461418 0.352809 -0.64655
0.190208 0.109186 -0.92651
-0.74716 0.126517 -0.0896733
-0.0613258 0.147098 0.882054
-0.506013 -0.45967 0.55068
0.0774956 0.315001 -0.137277
0.836705 -0.221837 -0.88564
-0.595343 0.220687 -0.27116
-0.578172 0.150079 -0.516979
-0.195871 -0.00585831 0.828943
0.400781 -0.601312 -0.79382
0.142284 -0.699478 -0.185803
0.102448 0.373136 -0.16154
-0.897226 -0.0169421 0.167241
-0.268326 -0.326068 0.193514
-0.264869 0.255157 -0.98233
0.7411 -0.330076 -0.891907
-0.358935 0.317932 -0.896794
-0.162677 -0.0927029 -0.935357
-0.420893 -0.260002 -0.97404
-0.345642 -0.101523 -0.986781
-0.241138 0.0694447 -0.92606
-0.54301 0.0114674 -0.786825
0.655554 -0.390199 -0.808701
-0.476942 -0.135675 0.640698
0.906092 0.00134726 -0.78939
-0.564697 -0.614581 -0.953023
0.431111 -0.551579 -0.830925
0.458033 0.274027 -0.107272
-0.850723 0.0470293 -0.290723
-0.645285 0.605699 0.877036
0.200308 0.0667732 0.213772
-0.38335 0.0586339 0.224673
-0.453735 -0.381288 0.418271
0.0964692 -0.694201 -0.702959
0.952571 -0.187018 -0.783439
-0.0486545 0.487207 -0.291862
-0.870939 0.0411057 -0.221244
0.580956 0.281603 -0.311238
-0.892629 -0.430095 0.518565
-0.598082 0.61978 0.692664
-0.710453 0.51421 0.633979
-0.621573 -0.586403 -0.185306
0.341197 -0.618228 -0.834974
-0.262165 0.307785 -0.812569
-0.620989 -0.650628 0.0636218
0.700892 0.157926 -0.451705
0.621102 -0.521783 -0.521758
-0.384974 -0.593333 -0.892316
0.291889 0.291483 -0.143232
-0.485707 -0.611909 -0.367324
-0.422956 -0.434145 0.288317
-0.655675 -0.726685 0.18448
-0.775758 -0.298353 0.608036
-0.764965 0.0711233 0.513252
-0.64464 0.62111 0.607189
-0.738755 -0.059002 -0.964416
0.866813 -0.27448 -0.843938
-0.0182783 0.0485744 0.657716
-0.0262275 -0.722322 -0.444395
-0.379012 -0.392575 0.146809
-0.0875764 0.444301 -0.229086
-0.373357 -0.595967 -0.349262
-0.149883 0.110056 0.911992
-0.74993 0.458314 0.740613
0.614268 0.249597 -0.608132
-0.402964 -0.535605 -0.0261446
0.57603 -0.582801 -0.27265
0.595023 -0.542257 -0.612869
-0.610905 -0.227273 -0.884305
0.470226 -0.619859 -0.268045
-0.574976 -0.548868 -0.0388061
0.460732 0.298943 -0.160129
-0.273746 0.269322 -0.127181
-0.00653537 0.211758 0.996175
-0.247312 -0.252608 -0.985019
-0.867847 -0.427929 -0.219381
-0.0107443 0.474389 -0.602073
0.764429 -0.205182 -0.133469
0.636626 -0.521985 -0.214153
0.396276 -0.695092 -0.2977
-0.192567 0.287851 -0.156552
0.570355 -0.451832 -0.864174
-0.129899 0.450576 -0.541623
0.786057 -0.317937 -0.323722
0.111019 -0.244776 -0.938993
-0.570177 -0.285807 -0.90118
0.122711 0.230124 -0.984024
-0.239551 0.124497 -0.706666
-0.184186 0.433645 -0.319836
0.413686 -0.554218 -0.970985
-0.773373 0.0575514 0.217963
-0.357514 -0.58146 -0.156444
0.0187259 -0.587003 -0.146068
0.467096 -0.199721 0.215578
0.353032 -0.676499 -0.228276
0.9783 -0.0877275 -0.574874
0.0506549 0.490513 -0.374256
0.334224 -0.507805 0.0608083
0.669845 -0.22551 -0.959166
-0.200406 0.269124 -0.775966
-0.733856 -0.0553839 -0.56046
-0.34447 -0.0112034 -0.985679
-0.787299 -0.435637 -0.426418
-0.715381 0.114634 -0.0247016
-0.0508362 -0.585198 -0.108529
-0.721638 0.0597719 0.0860238
-0.972284 -0.161367 0.206324
-0.20833 -0.470831 -0.96335
-0.785189 0.20493 0.635756
-0.351953 0.158187 0.127518
-0.622513 0.199758 -0.417104
-0.599655 -0.587762 0.0595601
-0.646615 -0.239887 -0.956681
0.154848 -0.18331 -0.943175
0.796635 -0.0160195 -0.470924
-0.857874 -0.229825 -0.428062
-0.0678449 0.413141 -0.713366
-0.406167 -0.00303023 0.256637
0.762936 -0.354287 -0.262359
-0.486247 0.248715 -0.103074
-0.669881 0.66929 0.763589
-0.551176 -0.0766231 -0.664388
-0.144579 0.16835 0.674468
0.0278558 -0.701129 -0.59571
-0.0892208 -0.67974 -0.435782
-0.91038 -0.169451 0.389679
0.0606209 0.468116 -0.53165
-0.450944 -0.475526 -0.772455
-0.203526 -0.147368 -0.974768
0.744267 -0.413461 -0.391015
-0.360267 0.224806 -0.421144
0.291196 -0.584622 -0.879661
-0.698939 0.0614806 0.42218
0.578494 0.0253969 0.102297
0.403493 0.177996 -0.985141
-0.746107 -0.130985 -0.949164
-0.398535 -0.434677 0.107641
-0.646192 0.0914225 0.663962
-0.862269 0.00932652 0.235221
-0.265627 -0.116206 -0.988678
0.980785 -0.180683 -0.713989
0.327912 0.155908 -0.9902
-0.250293 -0.422609 -0.981015
0.0570463 0.239852 -0.984216
-0.00383523 0.107234 0.636468
-0.7698 0.0378397 0.565362
-0.202963 0.102251 0.878447
-0.108091 0.274225 -0.0386505
-0.402801 0.275794 -0.970325
0.955105 -0.1205 -0.526817
-0.455701 0.0704548 -0.984702
-0.261641 -0.491698 -0.983126
-0.752214 -0.499855 -0.395584
-0.728166 0.668945 0.934002
0.595735 0.073167 -0.903418
-0.699483 -0.297926 0.616394
-0.930821 -0.416256 0.43674
-0.47866 -0.404112 -0.775358
0.265132 -0.729776 -0.587882
-0.365271 -0.291647 0.288178
0.769829 -0.124873 -0.129344
-0.106594 0.377749 -0.197542
0.116999 -0.357253 0.224117
0.838787 -0.3801 -0.746841
0.111468 -0.0356454 -0.933104
-0.45374 0.0356461 0.237226
-0.859374 -0.340698 -0.389663
0.266148 0.0555125 0.220093
-0.595806 0.397687 0.73457
0.148368 -0.682138 -0.772648
-0.574585 -0.224162 -0.981931
-0.283301 -0.560681 -0.530592
0.585298 0.176329 -0.786774
-0.433651 0.137857 -0.605037
-0.373187 0.117157 0.178587
-0.619867 -0.343793 -0.970387
