-4.43656 -4.0818 4.39204
-8.10809 -6.11752 -0.616557
10.114 2.67995 -10.0075
-6.62536 -5.13409 -3.08911
-4.38898 -10.0079 8.14449
5.13403 -6.1579 15.3471
-6.08655 -10.013 2.93692
7.07054 -4.63306 -17.1061
11.6495 9.85636 1.78627
-3.28598 -0.552793 -19.0048
-6.23282 10.0066 0.576643
9.24607 3.24132 5.04608
-6.27936 -10.0084 -0.890399
8.16026 -9.87963 -9.83268
8.33123 1.95935 18.903
9.60195 -10.0056 -6.35362
-8.20939 -1.97337 7.87936
-1.83849 -5.97252 -11.9006
-4.76786 -10.0155 -4.35452
-8.13557 1.35613 -9.83207
11.7268 2.93904 -9.80326
0.663975 6.91599 -15.3118
11.7121 9.85632 -4.67541
7.58351 3.57385 18.8701
6.42358 8.34338 -3.8074
4.10546 6.36198 5.53909
11.6785 4.16961 -4.5719
5.1735 5.65415 -4.97077
8.06509 10.0068 7.8687
-8.20813 -8.00112 0.977632
3.9454 -6.6738 17.088
-4.25508 9.85831 -9.87771
-6.72993 -0.669856 10.0145
-4.45631 -3.17655 17.0861
-2.89631 -9.79697 -3.91877
4.97661 -3.83102 19.0051
7.73128 -7.99981 0.719968
7.55713 10.0035 -5.881
-8.06615 1.14275 6.03899
-6.27513 0.55993 5.98256
-1.18372 -3.07934 5.26094
-6.50124 -9.8647 -9.90386
-1.44257 1.71242 -5.74858
7.70567 5.95049 1.61596
-6.00666 -5.61502 2.09328
-5.72482 -10.008 6.49972
-8.20709 -5.8355 -8.15235
5.75041 -6.16373 -4.51493
11.6959 1.08606 6.08969
11.6395 -9.91474 2.13274
-8.12575 -5.55163 2.61375
11.7147 5.21536 -3.28148
10.0346 3.03073 10.0044
-8.21361 7.74205 3.39991
8.65779 0.469549 -18.8581
7.69611 -3.77983 -15.4635
-8.11297 3.6995 -5.00276
-1.60164 -9.84583 5.04401
-6.32624 4.33649 -4.15063
5.38148 -6.01412 11.9198
5.0681 -6.18447 -11.8554
7.14975 4.52099 -15.5278
-8.2166 8.00374 1.49394
11.7129 -5.88081 1.68953
-8.20664 -8.31797 -5.61404
-8.07783 4.88147 -3.81066
7.11543 7.97321 -10.0134
-8.20708 -7.89421 6.0615
-4.77053 -2.42265 -13.563
-4.69812 -10.0111 4.4544
-8.21414 8.22486 5.53781
-5.10257 1.22838 -17.1436
-2.01484 2.78358 19.0065
7.68654 -5.9293 -1.80492
11.7402 -7.77499 9.79693
-4.53008 3.94498 -4.52
-1.20159 -6.45504 -10.1114
-4.96905 -5.00651 -3.29195
-3.0475 -5.05436 -15.3799
11.8078 7.9388 -1.62172
3.87296 -10.0106 7.69893
-1.83775 -5.99603 17.0805
9.758 -10.0121 1.29926
-2.4398 9.9009 4.45699
2.55842 -6.80876 18.9049
11.5969 9.79689 9.81759
7.97426 3.30435 -15.0976
-3.64505 -5.40276 2.91594
3.34786 6.84417 15.3344
4.36889 -6.51917 13.5962
7.78428 9.79689 9.85871
-2.49245 -7.61141 -4.19382
0.809071 3.67135 5.92859
-8.07732 9.85837 -1.43854
-1.27166 9.86357 9.86631
1.81828 -10.0151 8.03207
-8.20724 -6.47779 -4.41893
-8.09662 -4.56371 9.86179
-8.11183 2.34255 -5.73243
11.8086 2.09258 7.84174
-5.72755 -9.8698 9.9079
1.62635 6.99158 11.8366
-1.2867 0.406531 19.0028
-0.012064 7.67262 5.71357
11.6796 9.86969 -6.36675
-5.01753 -1.63589 -15.3111
11.6871 9.82135 6.71661
0.504597 9.91438 -6.08785
1.72962 7.0031 -13.5613
-1.81402 -10.017 -8.54718
9.92321 4.09232 -4.37479
4.46385 6.47985 -15.365
7.2167 4.6153 -10.1235
11.5969 -5.08449 3.33294
-2.56403 -4.35817 4.21896
11.603 4.64947 -9.9336
-8.20666 -7.88204 8.00508
9.51699 -5.47808 2.42914
-8.21093 -7.90368 2.88203
7.74625 3.68305 -11.8897
11.7149 9.82679 -2.95464
11.7062 9.84579 0.0685272
-4.74387 -2.74125 -10.1219
-2.77071 4.56537 -4.01855
9.93564 10.0122 8.00102
3.52373 6.36069 -5.75253
5.94916 -9.87358 4.57719
0.141687 -6.69798 -18.9407
-8.20952 8.21482 -8.0985
11.697 -3.84593 -4.86187
-2.56564 5.47232 15.2713
-3.15653 8.1761 -10.0127
11.649 -9.8612 -1.80635
4.21811 -6.69311 -5.49297
-6.29529 2.89026 -5.26978
7.99448 9.86337 -9.84596
-4.41746 2.85334 18.931
8.12215 -2.98948 11.9921
-4.42071 3.24108 -17.2469
5.39933 1.34501 -5.87831
-3.56259 -10.0107 -5.92843
5.18454 9.93019 5.18091
-3.51269 4.33603 -18.8329
-1.84863 -10.0081 -6.86884
11.8051 7.50565 6.25502
-6.57709 -10.0133 -4.94035
-8.20529 5.5083 -5.96333
-0.590289 -3.99159 19.0049
-8.20424 -5.59252 6.02902
1.80745 4.78733 -19.0037
-4.85482 -2.17855 15.3559
-8.2072 4.69071 6.32852
0.949983 6.96204 -11.8579
2.57311 0.944599 5.96214
9.84696 9.89716 -9.8632
-8.06945 9.85225 0.303673
-6.31986 9.86209 -9.88181
-6.42202 -1.55442 5.78753
-3.56029 -10.0075 6.16469
-8.06675 4.81845 9.8849
9.78167 -10.007 -0.792716
10.0528 10.0181 -7.87086
-0.599734 -6.5733 11.9479
5.92499 9.88825 9.8211
-2.65924 -5.61092 -10.1167
11.6416 6.52669 9.89964
7.18139 -4.24441 -18.9223
-8.20757 7.8567 -2.42242
11.8114 -7.92732 -8.20406
4.69277 -6.20786 -18.9088
-8.20358 6.62739 -4.26006
-6.24019 -5.99196 0.38658
7.72603 -3.71351 -11.9647
-5.13821 0.955594 13.6693
-0.430782 4.17752 19.0056
6.91914 7.89717 10.0085
11.8068 -6.89438 3.44829
7.96968 -6.28003 10.0039
-8.08861 -3.3358 -9.8371
3.92297 9.8878 9.85245
-8.05185 3.33212 -9.84166
-1.45373 -1.16318 5.887
7.00753 2.87535 5.26565
-8.0292 -8.27217 9.85929
11.6984 -2.24668 -5.76087
5.94506 -8.06326 -4.32116
-3.90434 -10.0091 -7.93475
5.90122 -10.0114 8.24779
-2.71502 4.54087 4.11812
-8.21706 8.04316 7.89817
-3.43649 9.8604 -3.21851
10.1336 1.99763 5.65262
9.88764 -9.79697 -9.91955
8.10904 -10.0109 -7.74685
4.30199 1.03226 5.92192
3.47965 4.43071 19.0051
-8.05171 -9.89343 5.97966
0.963247 7.06807 10.1044
-8.20928 -8.30339 -3.63235
6.03757 5.76333 10.1116
11.8059 -7.78755 -6.39029
5.6125 5.87718 -13.6339
4.66732 10.0089 -7.96923
11.5969 1.19979 9.94803
9.63748 -4.60419 3.83596
10.0625 6.51195 -10.0101
-4.34297 3.35855 -13.784
-3.15796 4.9674 -16.776
11.8083 7.94495 -5.83431
-1.59053 -10.0139 6.73981
5.34161 3.59584 19.0064
11.7081 -9.8396 -3.65925
-2.4305 9.79869 -4.39642
-2.9185 7.47092 -3.71137
-8.07356 9.88763 2.21707
8.71735 -1.08578 -13.6401
-6.18271 -10.0077 1.08496
11.7122 2.92308 9.8194
-4.6876 2.62581 -11.9697
-8.20688 -3.89933 7.54651
-0.335636 -4.40475 -5.604
8.34996 -10.0047 -4.46977
-8.21431 0.0886707 8.0256
-8.02499 8.24433 -9.94491
-8.11026 5.85356 1.93312
11.8079 4.38704 -8.27718
-0.0645712 0.632858 -5.98666
-6.14898 3.99634 10.0063
-4.52009 3.00331 13.6064
-8.20907 8.01627 -0.477998
-1.78475 6.02549 17.0371
9.05447 -0.0125436 -10.1036
-1.67043 -9.83032 -5.02991
1.73506 -6.8196 -18.8585
-8.15923 -2.31683 -5.82265
11.8037 -3.92464 -7.38676
3.55574 -6.11662 5.7456
-6.11484 7.79621 10.0134
7.14522 -4.26049 18.9407
-1.38326 -9.87232 9.86336
11.8075 -8.41701 3.03398
7.93091 -10.0068 7.62923
10.1482 -10.0117 -4.58853
11.8108 0.190823 8.05373
-8.21324 -8.2555 -0.858243
-4.47658 4.59732 3.8364
0.070626 2.09033 19.0026
-2.95418 0.887425 -5.94706
7.86827 -3.49574 15.5932
9.93291 -10.0123 -8.24442
-3.08161 2.85084 -5.28248
2.75337 -8.15691 -5.92169
11.6789 5.82222 -1.95236
7.19441 -5.27079 3.0649
-6.3587 10.0074 -5.82512
11.6347 5.25434 3.09633
-4.84655 -2.16276 11.9606
6.33957 -5.33068 -15.4277
7.36204 9.89352 -2.5906
4.1849 9.87645 -9.79693
0.851061 10.0079 -8.05101
-8.21331 3.89216 7.98584
9.483 4.66758 -10.0017
10.0163 4.46687 3.99515
1.7836 5.41124 -6.01678
11.8024 -5.89076 -7.84175
-4.1 -3.79656 -4.64341
11.7088 -9.84377 -5.60093
-2.43708 5.27931 18.8489
-4.06828 3.82367 -15.5789
7.24844 4.38601 11.8809
4.48787 -8.43535 -5.34674
-0.104829 -9.86939 -5.82487
4.62634 -6.57045 10.1235
-4.74827 -9.85375 -9.88607
-3.75165 -9.88477 -2.56389
-8.20738 -6.99511 4.42616
-7.99699 9.93492 -8.18203
3.62869 4.38392 -5.72306
-4.7324 9.8719 9.86689
8.20519 -2.85875 -17.1544
8.01782 -8.22913 -10.0087
2.16916 6.82031 18.8852
11.6515 9.90751 -1.43453
-7.97615 -9.87576 9.79693
9.67709 9.8401 9.8689
-6.37684 -3.36588 10.0052
0.165088 -10.0168 -7.88205
-8.04989 9.86257 -9.85022
1.85486 -4.66492 -6.02182
-6.60914 -2.43271 -5.47244
2.89982 10.0121 7.93807
3.72017 6.75098 11.8979
9.82579 -6.54055 10.0062
7.15132 -4.51429 -13.7473
-1.49178 3.48858 -5.04326
-0.858671 6.49313 -11.895
5.90056 5.68851 17.0667
0.663562 2.96746 -19.0036
11.7063 -0.627002 6.13002
7.3958 0.982618 -5.92455
4.77314 8.26822 10.0115
3.21646 -6.7223 -18.9146
-0.928007 9.91883 5.51168
8.5298 -1.97831 -15.4476
-4.87315 -1.71779 -18.9107
11.5969 -0.525549 9.89909
5.89973 -2.76524 5.31774
-8.03924 -9.90525 -8.16411
-4.50108 -6.32618 -10.0053
3.78929 4.66028 -19.0078
6.83538 4.86493 15.3716
-5.05791 0.00856101 -18.8711
-3.75165 -4.0522 18.864
2.9742 7.03528 10.1097
-4.84122 1.57763 -18.906
1.64926 -6.09827 6.00573
-3.29826 4.79424 13.5458
-8.21191 -7.3896 -2.31252
2.55316 -6.96073 -15.3083
10.155 10.0077 -3.92653
-6.08766 -3.91651 -4.55803
-8.07677 -6.44814 9.88207
4.74489 10.0132 7.88901
9.90796 0.262933 5.99782
8.50253 -2.04436 -11.8852
-4.03656 6.78747 -10.0022
-3.18229 4.91877 -14.4803
2.8309 10.0157 -7.97948
8.84203 -1.50755 -10.1085
4.4165 -6.26673 18.8554
-5.19564 -0.135275 15.3832
-8.21229 2.19946 -7.88931
9.60784 -10.0084 -2.72017
-4.28223 6.08185 -1.03188
5.78484 6.12374 4.47942
-8.21038 5.90552 8.17751
-3.81698 7.84143 -2.08919
6.05008 -2.35119 -19.0072
-7.99699 -1.73242 -9.9306
9.82458 -3.20624 5.05889
-3.32729 -4.78845 17.0549
-1.54492 7.92457 -4.9853
6.56746 -5.1156 -11.9226
-5.55288 10.0115 -8.22257
2.27108 -6.3738 -5.99711
-0.226765 8.31474 10.0051
-8.08569 4.96955 -9.85663
8.45276 -2.20521 14.4717
4.40769 -0.17799 19.0037
6.53015 -2.3559 -5.51827
-6.06576 -5.81714 -1.44728
3.78763 9.91511 5.87658
-2.4519 -5.55417 11.9156
-8.20917 -5.90957 7.98156
-2.3995 -10.0116 8.21212
7.94193 -3.95648 4.51724
-1.44124 -8.24331 -10.0094
7.18976 -10.0055 -6.0277
0.573161 -6.7515 18.9014
-5.92297 10.0054 4.3493
-2.96589 -9.8692 3.88873
11.5969 -0.445138 -9.87762
-0.0090042 4.52358 -5.71259
-0.206664 -6.71421 -11.8662
8.09236 3.09386 -17.0208
-8.07186 -0.615589 6.15373
11.7142 -0.64816 -6.13126
0.379327 -6.85859 13.7389
-1.38217 6.06705 5.0869
-6.28005 4.11438 4.3727
-4.4283 -3.19638 13.639
-0.319271 6.67734 -13.7625
7.67939 -9.9003 9.83544
-1.21763 10.0111 7.91524
11.6568 -6.7338 -9.88935
-3.97488 3.95248 11.8815
-3.58291 5.5244 -2.76956
4.51009 6.28266 -18.9175
11.8078 0.244145 -8.01207
3.7566 6.72851 -13.5624
6.33525 -7.85131 10.0134
5.93238 -0.544363 -5.99245
3.07043 -4.53257 19.0057
3.81725 9.9413 -5.8507
5.63597 5.84812 11.9196
-0.288968 9.90933 -9.8189
8.00466 -2.83298 18.9208
-6.3638 -7.68044 10.0151
9.58315 10.0078 -2.04013
6.53882 9.83182 3.91877
1.14757 6.75838 -18.8874
8.80351 1.4909 10.1054
-1.7965 5.83801 -4.81022
9.81976 -1.58183 5.78935
4.67639 -0.75064 -19.0035
-6.47832 9.82393 9.87483
1.88817 9.89109 -9.83279
6.18142 1.69807 19.003
3.13837 8.42438 -9.99826
-5.19741 0.311924 -15.363
8.29817 -2.63233 17.1123
9.97978 -2.90542 -5.25068
-5.5286 -10.0031 -6.40776
0.429665 5.60665 5.84823
-8.05654 6.66033 -9.84818
-8.09966 -4.78422 3.9388
-8.11233 0.871777 -6.10718
11.8087 7.62917 2.5622
-4.18523 8.01369 -0.106434
5.21637 -10.0062 -6.68627
6.71797 2.76099 -5.33242
-6.06956 -10.0182 -8.06909
6.73503 -4.96602 15.3815
11.8026 -4.50891 6.51451
-3.93074 -4.02399 15.331
11.808 -1.7372 7.8349
-5.09786 -1.18449 13.6634
-8.20386 6.66583 6.5437
-2.9542 -2.70453 5.36171
8.82012 1.42569 -10.1235
11.6672 9.84979 -8.13583
11.8066 6.42773 4.49852
-6.20451 -5.39405 10.007
-8.20774 4.10624 -7.53045
8.47701 10.0053 -4.10253
2.97787 6.91385 -11.8194
7.38455 7.82576 -2.17437
11.807 7.94303 8.06668
-3.38083 4.7264 17.0201
-8.1326 6.19198 0.453861
6.68644 -0.321697 -19.0037
6.96381 -4.71868 11.9679
-8.20513 7.65999 -6.23243
7.93802 -6.18581 -0.106946
6.08674 5.33853 -18.9221
-0.0962327 6.44177 -5.69264
11.8109 -5.8285 8.23779
-8.09223 -3.66039 5.02903
1.95525 3.35793 -6.01006
11.6266 -9.89778 4.20242
8.35448 2.45684 11.9517
0.263794 8.29079 -5.80507
6.24601 -10.0113 -8.14219
4.23857 -9.83072 5.65358
0.830964 8.48769 -10.0027
-3.82808 -4.16348 -13.6315
8.16591 -2.91334 -13.7152
11.5969 -4.02093 9.91087
-6.41954 -10.0171 8.2497
5.99919 5.60225 -15.4365
-3.24189 -5.21248 -3.38287
8.07959 4.34085 4.13367
-8.06775 -9.87558 2.06481
4.02729 -10.0103 -8.11976
11.8089 -7.99484 -0.917102
-8.20367 -4.85989 -6.17905
-4.29216 1.39524 5.8338
9.80804 10.0094 0.0797288
-4.75179 2.82485 10.1208
0.506034 6.65837 18.89
-2.44819 -8.19929 4.23933
-5.06593 -1.3843 -11.8076
-0.60795 -9.79697 -9.8634
-4.1306 -5.9605 1.54192
7.58156 7.95634 1.55679
-8.04929 -5.04276 -9.85597
11.6651 4.24923 4.44212
-2.34019 -6.37017 4.34147
4.15867 -9.90514 9.78775
-8.02068 9.91886 5.83194
4.51282 -4.24363 5.3563
2.86792 2.88634 5.90028
-2.74691 1.40108 -19.0047
-8.07245 -9.8887 -2.13357
7.40282 -4.4801 10.1392
-6.09396 5.78994 10.0093
-5.16347 -0.766201 -17.0864
-2.84061 -1.05341 19.0041
6.0124 4.19148 4.37802
-8.2037 -6.67784 -6.41688
7.78094 8.0421 -0.354307
-5.20074 -0.108411 11.9684
8.79392 0.649704 17.1862
-0.290934 4.69629 -19.0047
5.25681 8.03323 -10.0028
-4.49459 3.20622 5.07607
11.8064 -8.11994 5.26335
4.89495 -0.741397 5.9627
-6.57983 1.94163 10.0026
-0.0488718 -6.77658 17.1503
-8.20661 6.25512 4.75226
11.6139 -9.87681 -9.63747
3.69341 8.15669 5.68614
3.2712 0.829959 -19.0018
6.71429 -9.86321 -3.70634
0.140169 6.81695 17.0457
-4.59821 -6.37256 10.0019
6.12479 -4.33476 4.26672
2.90868 6.7817 -18.8841
8.66873 1.35678 15.4642
-8.2051 6.189 -7.90966
11.8057 -5.92992 5.07541
-0.951463 6.58478 10.1235
-8.07923 -3.59972 -4.98288
-8.05186 9.79689 9.73505
9.63686 10.0048 2.17156
11.8051 -7.92668 1.12354
-8.20923 8.34005 -4.37878
5.26661 6.08749 15.3506
9.7853 5.94887 0.804155
-5.92667 10.0074 -3.5179
-4.14176 -3.42447 -18.8319
-3.72299 -4.3369 -17.0676
9.65361 10.0034 -5.90329
8.06702 6.31921 -10.0016
-1.02637 9.88166 -5.47758
1.47414 4.88262 19.0055
7.87811 -6.39724 -10.0013
6.95739 4.76375 -17.2648
5.39066 -9.89476 -4.97108
6.01612 9.87681 -9.89496
-0.47611 -6.65008 -17.1629
3.71367 -2.30549 19.0029
-1.41497 -0.589903 -19.0034
-8.06431 -5.67821 -2.37927
8.23054 -3.11238 10.1169
-3.14243 1.01751 19.0056
-2.10749 5.82018 -13.4104
7.93324 -10.0044 5.34426
-8.08508 4.19743 4.49905
4.06023 2.08887 19.0028
5.06863 7.69697 -5.01917
6.18945 -5.66691 10.1235
11.8055 6.19662 -7.44082
-0.406802 -1.69719 19.0049
11.6222 1.12928 -9.91973
6.62191 4.89843 18.7452
-4.01392 3.90437 15.2833
0.732472 -4.71272 -19.0036
1.9151 2.92132 19.0021
-8.09503 0.994107 9.85548
-2.44481 5.28345 -18.8365
9.95981 -4.30932 -4.16113
0.6059 -9.82375 9.91077
5.87382 5.87812 -10.097
-4.35083 -6.14642 -0.156016
7.61207 -3.905 13.6853
-8.112 5.75199 -2.32767
1.44566 -2.92808 19.0028
4.27272 -1.52293 -5.80572
3.79499 0.25674 -5.99989
-8.05006 9.87899 4.01642
6.82944 7.60835 3.256
6.57661 9.89563 -3.94832
7.99161 -9.89168 -0.0809001
11.8088 7.972 -7.9363
11.7414 -3.41137 -9.82733
4.39639 4.55004 5.418
2.65153 6.94796 -15.3013
2.35744 -6.981 13.6159
-3.37505 -9.84805 9.88032
-2.50196 -5.52203 -13.6463
0.652217 0.108782 19.0024
-8.06365 9.90025 7.70201
-8.13305 5.21416 3.21537
-2.46994 5.54393 11.8699
-4.29351 -3.45601 -15.3263
2.85978 -8.01597 5.89437
11.6933 -2.36003 5.72674
-8.0642 6.64439 9.90898
-6.46045 1.02009 -5.91015
11.6894 -9.85004 -7.56723
-8.21465 -1.80669 -7.96284
8.73838 1.13825 -17.1004
-2.47552 5.53639 -11.6823
5.91441 -5.4454 18.8886
11.5976 -5.81329 9.90653
9.42943 5.23979 -2.9249
8.37913 10.0086 -7.76257
11.8053 3.90828 7.70088
4.12808 6.61491 17.1169
8.12739 3.2999 10.1166
-4.04915 -5.8626 -1.82708
-4.9657 1.28594 18.9109
-1.43117 -5.99181 -18.8979
-8.0817 6.05165 -0.91119
8.39538 2.3672 13.8413
-2.34211 7.89092 10.0096
0.492299 -1.02769 -5.93375
-1.65428 6.09415 -15.3662
-6.19124 -5.56312 -10.0068
3.60327 6.7871 -17.1139
-4.32178 6.12029 0.822422
5.88072 -9.85159 9.91998
2.94186 2.82439 -19.0031
7.68046 -5.93041 1.6042
1.9757 -2.52674 6.00649
-4.3168 -9.8642 0.629935
-3.91182 -4.03581 11.9241
4.57677 -6.42865 -15.3359
7.6781 -9.86157 1.733
-5.04441 5.23724 -2.93098
9.75096 5.88138 -1.14481
2.53469 -0.957521 -19.0032
-2.87708 -5.40893 10.1235
-5.34515 -1.23235 -10.0467
5.98808 -4.21288 -4.43707
-4.38364 -3.26923 -11.8917
11.6799 -9.85323 0.0778388
2.43189 6.97148 13.5688
-1.60884 6.11829 13.5749
11.6211 -8.45546 -9.91681
-4.5476 2.9733 17.0915
-0.839926 -8.2808 10.0075
1.5615 -7.20102 10.0522
-8.04693 -9.892 0.0440452
1.73693 8.28269 6.0168
-5.18489 -0.501786 -13.5631
3.4215 -9.91038 -5.93094
-1.6897 8.05164 4.88454
7.2483 -7.85294 2.50232
9.2222 10.005 4.08859
7.60539 -9.90294 -2.02078
11.6438 5.97662 1.4054
-4.75405 0.458654 -5.99853
-2.2668 -5.72124 -17.1399
5.36092 5.87812 18.9081
-8.05061 -9.4704 -9.82616
8.65779 0.342131 18.9339
-0.920425 -6.44958 -13.7082
7.94172 -2.35751 5.52814
7.22408 4.70754 10.1235
-1.57165 -6.13586 13.6253
6.06286 -10.005 6.48488
-6.24428 2.43809 5.48112
0.4877 -6.88312 -15.4584
-4.44381 10.0082 -4.84255
-3.04351 8.29568 3.52376
5.44206 -5.99358 -17.067
-8.06501 8.27129 9.90505
-2.26792 9.88512 -9.80831
4.11168 -6.61312 -13.5606
2.18558 -1.06653 19.0032
-0.709395 -6.54045 15.3721
-2.84732 6.51601 3.78698
-8.20804 2.07163 7.82099
-1.79226 6.20235 -10.0897
-8.20654 0.172386 -8.04933
5.3944 6.02462 -17.1909
7.3592 4.27993 17.1031
1.26743 -6.97949 15.5214
4.02094 -2.43578 5.61575
3.75252 -2.60278 -19.0031
-3.49783 -7.66428 2.81255
4.71165 6.52358 10.1064
7.25169 -4.42951 17.2426
0.240815 -6.16981 -5.7937
5.75505 -5.78979 17.0958
2.1298 9.92779 9.79693
9.42186 5.42206 2.58843
9.55146 -9.90759 9.84372
7.94684 6.13876 -0.146876
-0.642571 1.29435 -19.0048
4.84086 -9.86811 -9.87478
4.84432 2.75518 5.36603
-0.953703 -8.02904 5.34806
7.57931 10.0023 5.61781
-8.07902 -4.677 -4.00582
0.865331 10.0102 7.95285
-8.06624 -7.20696 -9.87883
10.1996 2.48558 -5.46286
6.15501 -5.47902 13.6518
1.09868 -2.88845 -5.96365
7.88995 9.88901 -0.927379
8.33753 2.55412 17.1692
-2.85747 -7.75577 10.004
11.6549 0.979654 -6.05051
11.749 2.62839 -5.55952
-0.188027 6.73476 -16.8444
6.56819 -0.182302 19.0046
8.56097 1.84578 -11.8595
-2.54054 -5.32595 18.9072
-3.83322 4.36861 10.1171
11.6799 4.7631 9.8649
2.45244 -6.972 -13.4761
8.7387 -1.05636 16.6173
-4.3352 2.91777 -18.8958
11.7435 -5.19925 -3.42947
8.78616 -0.477988 14.8198
-4.85637 2.18408 -15.5034
9.51361 0.774073 -5.96206
9.38312 -10.0033 3.3756
-6.03299 -4.81032 3.59604
-4.70363 -2.38651 5.5101
-1.71534 -5.88766 -4.87032
-4.07821 9.9024 -1.9068
1.35607 -6.97864 11.9174
-1.2584 8.18901 -10.0084
7.40306 3.86965 -18.9015
0.00117249 6.86692 -10.1037
6.00159 -2.05814 19.0077
11.8104 -8.09422 7.75023
2.27235 8.44806 10.0013
-4.20409 10.0052 5.34385
11.8047 -3.59572 8.01123
-0.260716 -2.44177 -19.0033
4.9585 1.34452 -19.0044
0.922365 -8.04752 5.95577
3.24429 -6.86008 15.3399
2.15302 -10.0141 -7.96259
3.75933 6.58491 18.912
-5.18521 0.653117 -11.8771
0.114321 -6.9144 10.1235
-1.14489 10.0085 -7.73472
9.79939 -10.0103 7.60853
6.67881 10.0098 -8.19481
4.44609 6.48973 13.6355
11.8039 -5.66963 -5.72471
6.57496 -9.84824 -9.84904
6.30773 10.0047 7.25223
-8.04202 9.93538 -4.8942
11.6322 8.16408 9.90899
8.58891 1.74059 -15.3172
1.80865 0.991893 -6.00442
11.5969 -9.81992 9.7825
-4.68232 2.17665 -5.59423
0.202471 -1.96965 5.80434
-3.62627 -0.874017 -5.93992
11.7663 9.80672 8.30939
11.5969 9.80659 -9.85618
2.14092 9.92217 6.11983
7.93986 -3.89936 -4.56479
-3.68783 4.3481 -12.2394
4.86278 -3.10537 -5.26596
11.8056 -7.51139 -4.53935
7.67212 -8.03997 -1.22261
5.23006 3.34583 -19.0046
-1.06828 -6.20476 18.9022
-3.25923 4.99284 -10.1194
0.772419 -6.93051 -13.6795
0.593173 -0.657826 -19.0034
8.76309 0.788142 -13.6074
6.51258 -6.53212 3.71798
0.84133 -8.02147 -5.92317
-5.03831 -0.586799 18.8887
-5.0437 1.50048 -13.6707
-2.83845 10.0069 -6.29175
-1.709 3.18289 -19.0037
6.13925 -8.17899 4.11445
11.7472 6.37677 -9.79693
2.81456 -9.84525 -9.88264
-8.21264 -8.01706 -7.93266
-8.20929 -3.73236 -7.76858
0.492902 9.89529 9.87136
-4.27312 6.37244 9.99974
-3.90623 5.66239 2.49015
-5.99009 -7.87299 -10.0163
-4.59338 -2.48879 18.9034
8.62398 -5.1011 -3.14464
-3.6333 4.18744 18.909
9.66382 5.20833 10.0046
-2.65914 2.82272 5.2865
-6.30596 4.04801 -10.0126
-3.52076 -7.90182 -10.0096
5.98184 -7.88121 -10.0067
-8.09735 -2.30272 5.75073
8.51404 2.58067 -5.41958
11.8042 5.1753 6.11614
-6.30667 -3.41323 4.93131
4.03449 6.73528 -10.1092
11.807 6.08448 -5.23374
11.7014 2.93 5.47826
-8.07005 -9.8414 7.76138
-5.34607 0.270315 -10.0473
-2.97979 -9.83592 -9.85367
6.15624 -5.29107 -18.7957
-1.57934 -6.33997 10.1474
11.6815 -6.1788 -0.0987758
7.88137 9.8519 0.892135
-2.32445 0.932764 5.94256
1.69145 -2.84043 -19.0029
-4.10339 -7.99637 -0.949351
9.61298 -4.57202 10.0045
-1.13311 4.06864 5.23749
6.48557 5.19634 -11.9151
10.2274 -8.34214 10.0283
-4.92251 1.96707 15.3864
2.83455 -4.70772 -19.0033
-5.28201 -0.4142 10.1235
-6.04889 5.33242 2.76456
3.57833 -6.79391 -17.0583
-3.22081 -4.87958 13.6043
9.80838 -5.95888 0.745548
5.30299 9.80023 -4.99406
-1.5801 -0.65418 -5.98011
11.808 7.9888 0.53438
-0.73637 2.35271 5.57074
7.14652 4.5216 -13.6324
1.99779 -7.01859 17.2456
7.28046 -4.55296 -10.1136
2.63112 -4.2803 5.94244
11.7033 -4.99118 -9.82014
8.50999 -1.24311 18.8973
11.6844 -9.84802 6.30768
-6.50568 -10.0088 4.84222
-3.84398 7.7987 1.92612
-4.19971 8.19937 10.0137
6.27976 0.984399 5.92591
-8.06936 -9.89578 -4.18177
9.9482 -1.03572 -5.91326
4.06846 -4.88041 -5.55418
-8.038 9.89328 -3.17451
11.8066 2.33601 -7.77189
-1.18938 -4.07323 -19.0068
-5.545 8.1882 -10.0151
7.64959 5.83174 -1.91686
8.37938 -2.37154 -5.51289
6.22083 5.42847 13.6087
3.80157 -8.35507 -10.0057
-3.94341 -4.31729 10.0991
11.6313 8.13615 -9.89162
8.67019 -1.34003 12.6236
11.8065 7.60247 -3.67308
8.05742 4.14742 -4.33147
-6.10935 10.0198 8.17634
-8.05928 -2.73149 9.87245
-0.456413 0.392638 5.99658
11.5969 9.90853 5.10443
-0.539 6.60112 11.7937
3.02059 -0.864053 5.9601
-2.2106 -2.9166 19.007
2.32307 -1.08951 -5.9983
2.1305 7.02002 17.0127
9.84281 -10.0084 5.47295
-2.46616 -2.4736 -19.0043
0.495538 9.85453 6.01785
-8.0122 -0.227907 -9.94375
-8.09563 -9.84447 4.10114
7.09716 5.30614 3.10341
-3.67835 9.90798 2.93362
9.62269 10.0052 6.05848
0.581208 -4.20203 5.88299
11.6265 9.86941 3.3634
11.6414 -3.93285 4.67321
-4.31625 -9.90407 -1.0215
8.50138 -1.47811 -18.9425
11.8065 -1.93189 -7.92789
11.8078 8.27869 4.41976
-2.13041 -3.97994 -4.64267
7.98534 3.29581 15.4746
9.24036 8.17017 -10.0231
9.79918 -7.44623 -10.0092
9.48343 7.75261 10.0147
8.15845 -0.388044 5.99832
-4.01039 -4.24598 -10.1216
-0.290128 -6.35486 5.62696
8.2134 -3.24301 -10.1235
2.38836 -9.8243 9.89011
-4.36147 9.8994 -0.333603
1.09269 -9.7998 -9.91314
6.00899 4.21449 -4.34782
7.5563 3.98171 13.6298
-3.28637 -4.80481 -11.853
6.97407 5.12639 -3.23801
-5.99479 10.007 6.3497
2.44481 0.966299 19.0016
1.53804 -7.00251 -11.8293
8.78348 -0.13915 -11.8532
5.48385 8.03103 4.73064
5.7515 -5.77916 -13.661
-6.17049 10.0137 -1.51162
1.43509 1.14016 -19.0029
11.6688 -9.88483 8.09888
-6.05025 -10.0085 -2.82891
-5.15042 0.869523 17.115
-6.6355 1.94313 -10.0129
1.81657 7.47969 -6.01607
1.01099 1.74462 5.95406
-2.9892 9.8721 9.81722
2.9679 -7.04867 10.11
-4.78938 -2.29796 -5.54658
-8.10966 -1.04317 9.79693
4.66997 -7.94987 5.2702
-1.76552 6.05032 -17.3371
4.26146 -6.69594 -10.1134
-6.61406 5.40283 -2.59499
11.803 -6.69024 6.64725
1.61675 -9.87514 -6.14177
-6.19281 5.90578 1.02501
-8.08751 -6.09731 1.04498
0.318913 6.84559 13.4505
9.68899 -5.90775 -1.04829
-1.15166 -4.9503 5.23552
2.44721 4.79051 5.97318
11.7309 -2.27111 9.82434
-0.715491 6.53938 15.3064
-2.50289 -5.52674 15.3042
7.02497 -9.9267 3.26564
-4.62141 -8.36208 10.0118
8.79837 -0.141261 -15.4394
-3.18798 -0.761197 5.96419
4.84153 -4.09506 -19.0068
8.28566 2.28591 -18.8347
11.7071 6.13306 -0.321394
4.24807 -8.3544 10.0078
-3.52272 -7.66836 -2.76049
-5.20289 1.09424 10.1314
8.22065 1.55281 5.79418
-8.06139 9.86251 -6.53054
-3.92911 -9.8766 2.30029
8.76222 -1.51574 10.1795
-3.18879 10.0144 -8.13748
0.26353 -9.88416 5.90455
8.12473 6.39068 10.002
7.02311 -7.57429 -2.94757
-2.47653 5.69586 10.1143
-2.72246 -2.37889 -5.50547
6.49017 6.63486 -3.75308
3.44463 2.06068 -5.75613
5.93797 -5.8155 -10.1135
-8.09721 2.76487 5.55159
-5.96183 10.0066 2.53978
-6.31394 -3.40833 -10.0098
6.93584 -5.24918 -3.25767
10.1586 -2.40816 10.0059
-0.130985 -10.0096 8.01028
11.5969 -1.78204 -9.89484
-2.86444 -4.96648 -18.8302
2.21177 -9.85081 6.15052
10.1741 -5.37924 -2.63206
-4.07273 10.0069 7.81769
8.22226 3.16546 -10.1235
9.01804 -0.0502968 10.0444
11.8062 5.93663 7.93925
-6.40684 6.47998 -10.0093
9.59728 -5.22623 -10.0025
1.24766 6.97819 15.2043
8.77755 0.669269 13.4104
0.567012 -7.12471 -10.0703
-5.05791 1.97323 -10.1594
-0.956265 -7.86861 -5.32423
1.56562 -7.01201 -17.0969
-5.06587 5.35176 -9.99964
3.03971 -3.08772 -5.87214
8.7792 0.352632 11.6977
7.96672 -0.706527 -5.97266
3.44296 8.28939 -5.76081
-4.1056 -7.99309 0.996351
10.0479 -3.14651 -10.0063
-4.23029 9.84397 1.28348
-2.62617 10.0053 6.69341
1.72202 7.0165 -17.1069
7.36531 9.90347 2.60454
-8.08332 2.98028 9.81857
-8.0784 -0.708616 -6.10704
-5.09271 -1.25716 17.1236
-6.10767 5.93739 -0.880554
4.86671 6.2843 -11.856
0.310418 2.50404 -5.81133
4.85186 3.12124 -5.20028
8.25514 2.70111 -13.4785
1.21108 -0.408603 5.99845
5.82201 10.0047 -6.58576
11.8046 4.33272 -6.49073
3.43072 -6.82473 11.873
-4.61874 -3.19331 10.1366
2.00857 7.09502 -10.1086
-4.69972 -2.64017 -17.1057
-4.83377 10.0063 -6.73113
-6.0568 -0.807838 -5.95068
-4.9135 2.00755 11.9341
-0.78634 -2.55079 -5.49754
1.12626 -4.98106 19.0055
6.69856 1.77897 -19.0121
2.24766 -7.16328 -10.0741
-0.525983 6.47702 -18.8109
-1.02911 6.23575 18.901
2.09351 9.89422 -6.08632
11.8056 -7.73405 -2.80787
-5.12277 -1.78995 10.1235
-1.44336 -6.21136 -15.4628
7.93335 -3.05967 -18.8954
-8.01779 -9.88557 -6.45291
2.12303 6.60307 6.01461
11.7275 -5.88957 -1.85139
3.34986 -6.84079 -11.7142
6.55813 -1.01551 5.92693
-4.82863 -0.516697 5.99261
5.26724 -6.07985 4.90144
-4.35885 3.54232 -10.134
8.7692 -0.875224 -17.2321
8.31531 -8.15818 10.0085
