-4.25132 -3.96068 4.5123
-8.09371 -6.1584 -0.4628
10.13 2.90242 -10.0073
-6.56672 -5.11219 -3.12655
-4.18922 -10.0117 7.96356
4.94222 -6.25422 15.4642
-6.12216 -10.0127 2.86332
7.14987 -4.54056 -17.1527
11.6713 9.83346 1.80526
-3.2814 -0.587762 -19.005
-6.21735 10.0067 0.580817
9.33484 3.15761 5.09623
-6.27219 -10.0079 -0.922924
8.25858 -9.91769 -9.73475
8.33123 1.92017 18.9094
9.90619 -10.0111 -6.16632
-8.21135 -1.7005 7.95097
-1.80193 -5.99449 -11.8874
-4.7578 -10.0151 -4.37608
-8.00686 1.42037 -9.94485
11.75 3.03517 -9.77937
1.00644 6.95815 -14.7343
11.691 9.81954 -4.87131
7.5841 3.53374 18.887
6.37939 8.28331 -3.8646
4.054 6.37764 5.55929
11.6659 4.14209 -4.61278
5.36974 5.88218 -4.83669
8.16815 10.0058 7.80071
-8.20808 -7.99564 0.97794
3.78896 -6.72499 17.2066
-4.10841 9.83722 -9.89473
-6.7051 -0.420309 10.0106
-4.47858 -3.12726 17.0419
-2.91458 -9.81019 -3.95226
5.08182 -3.79866 19.005
7.73343 -8.0967 0.716959
7.66498 10.0034 -5.92423
-8.05968 1.21504 6.01683
-6.14616 0.457712 5.98958
-1.51125 -3.19906 5.1177
-6.74786 -9.88814 -9.89293
-1.55755 1.7377 -5.74107
7.70593 5.90773 1.70374
-6.10179 -5.57913 2.18519
-5.71997 -10.008 6.40564
-8.20652 -5.89221 -8.036
5.90798 -6.16711 -4.36157
11.7246 0.96067 6.11617
11.6601 -9.89274 2.11192
-8.15662 -5.55163 2.81468
11.6583 5.1734 -3.29593
10.0869 3.01039 10.0073
-8.21236 7.96461 3.54745
8.61722 0.472243 -18.8739
7.6482 -3.85442 -15.4288
-8.128 3.66967 -5.05247
-1.68466 -9.87291 5.05233
-6.32258 4.34679 -4.14006
5.70606 -5.80402 11.8994
4.98224 -6.22791 -12.0783
7.25629 4.38945 -15.4435
-8.21446 7.89588 1.696
11.7385 -5.92435 1.82227
-8.20673 -8.27407 -5.63768
-8.09009 4.82298 -3.91436
6.93489 7.98903 -10.0121
-8.20758 -7.84402 6.41613
-4.7626 -2.4447 -13.5551
-4.78456 -10.0103 4.30117
-8.21272 8.2119 5.66713
-5.15922 0.833023 -17.044
-2.13018 2.70746 19.0059
7.70319 -5.97477 -1.73871
11.715 -7.74634 9.81174
-4.54848 4.01445 -4.45281
-1.07305 -6.53779 -10.1069
-4.75669 -5.03953 -3.23215
-3.16594 -4.9362 -15.3362
11.808 7.95897 -1.48404
4.03213 -10.0095 7.61013
-1.7391 -6.05465 17.1136
9.75137 -10.0098 1.07571
-2.42068 9.91472 4.49632
2.59041 -6.79411 18.9086
11.3429 9.79689 9.88289
8.098 3.05454 -15.0481
-3.64509 -5.40669 2.91141
3.16043 6.87693 15.3617
4.73423 -6.35474 13.63
7.49154 9.88506 9.81167
-2.33469 -7.76785 -4.34582
0.895135 3.55495 5.94013
-8.08701 9.85618 -1.30132
-1.41026 9.86341 9.85364
2.01853 -10.0125 8.06385
-8.2092 -6.65602 -4.17787
-8.13365 -4.34597 9.79693
-8.12873 2.37007 -5.7598
11.8091 2.11134 7.87031
-5.53618 -9.88862 9.85711
1.96446 7.0001 11.8303
-1.31877 0.576621 19.0029
-0.001727 7.61745 5.71705
11.6767 9.83664 -6.70018
-5.00181 -1.69454 -15.2359
11.6637 9.84677 6.76211
0.463307 9.93509 -6.114
2.48523 6.96917 -13.544
-1.83653 -10.0165 -8.58447
9.89692 4.20272 -4.26904
4.59141 6.42088 -15.4603
7.07326 4.70909 -10.1351
11.5901 -5.0856 3.31535
-2.5885 -4.41603 4.18545
11.5626 4.77098 -9.93075
-8.2083 -7.47143 8.14476
9.54086 -5.47386 2.43978
-8.21192 -7.74543 2.80923
7.74697 3.68272 -11.8078
11.7362 9.78827 -3.06606
11.6547 9.89207 0.144762
-4.76849 -2.76013 -10.1131
-2.78055 4.54967 -4.02834
10.0249 10.0124 8.05731
3.59673 6.39713 -5.727
5.8522 -9.84362 4.70572
0.106177 -6.69595 -18.9098
-8.20917 8.1803 -8.15393
11.7089 -3.88311 -4.85087
-2.49014 5.5339 14.9778
-3.16783 8.1019 -10.0117
11.6336 -9.86051 -1.9329
4.47901 -6.73997 -5.37908
-6.31708 2.90554 -5.26228
7.64195 9.84638 -9.86051
-4.44912 2.71858 18.9408
8.25641 -2.6916 12.1644
-4.69132 2.66731 -17.3312
5.38456 1.21064 -5.90343
-3.53703 -10.0111 -5.98476
5.33797 9.91327 5.13139
-3.66857 4.17075 -18.7765
-1.85726 -10.0085 -6.92396
11.807 7.86835 6.01108
-6.54883 -10.0112 -4.97071
-8.20524 5.45237 -6.06433
-0.464066 -4.01263 19.0046
-8.21128 -5.7379 5.62864
1.65324 4.82248 -19.0031
-4.84947 -2.19527 15.3169
-8.20568 4.56577 6.42936
0.922249 6.95977 -12.3124
2.52754 0.791644 5.97728
9.47018 9.90792 -9.84809
-8.07007 9.82526 0.436771
-6.31761 9.84637 -9.89912
-6.52289 -1.57368 5.78122
-3.64109 -10.0054 5.94612
-8.03523 4.90083 9.91437
9.82886 -10.0077 -1.12722
10.111 10.0196 -7.95657
-0.0347919 -6.75187 11.4997
5.84834 9.92432 9.79474
-2.63741 -5.7045 -10.0871
11.6162 6.43636 9.91633
7.10602 -4.30348 -18.9234
-8.20686 7.82742 -2.25148
11.812 -7.98153 -8.18492
4.65619 -6.23081 -18.8939
-8.20455 6.57386 -4.48437
-6.18563 -5.99164 0.395081
7.67825 -3.78851 -11.9366
-5.14277 0.918937 13.7116
-0.63455 4.21975 19.0053
7.33858 8.03423 10.0125
11.8041 -6.8441 3.90232
8.15191 -6.09551 10.003
-8.10926 -3.37875 -9.81239
3.94236 9.79689 9.92894
-8.08463 3.28054 -9.78341
-1.68383 -1.14751 5.88993
7.10695 2.82842 5.29085
-8.07072 -8.08801 9.82869
11.7124 -2.33747 -5.77534
5.8832 -8.1204 -4.37717
-3.93956 -10.0109 -7.98415
6.01469 -10.0118 8.23904
-2.79495 4.53906 4.07341
-8.21699 8.01081 7.90912
-3.46417 9.88865 -3.24964
10.2038 1.86607 5.69764
9.95499 -9.74923 -9.93363
8.25607 -10.0068 -7.47335
4.3134 0.979093 5.93462
3.4009 4.52652 19.0055
-8.06332 -9.87119 6.04109
0.932377 7.02987 10.1686
-8.21163 -8.45264 -3.6
6.12865 5.90022 10.0496
11.8064 -7.82014 -6.32329
6.01159 5.59395 -13.8341
4.61202 10.0087 -7.92817
11.5674 1.12735 9.94672
9.46877 -4.59419 3.84911
10.0653 6.56413 -10.0096
-4.35366 3.33902 -13.9625
-3.10412 5.02743 -16.9119
11.8081 7.96985 -5.76142
-1.83765 -10.0097 6.81822
5.27232 3.66214 19.0065
11.761 -9.74038 -3.69804
-2.42826 9.79689 -4.39525
-2.92975 7.55877 -3.69758
-8.06685 9.89058 2.1297
8.69964 -1.18263 -13.6278
-6.21771 -10.0074 1.03852
11.7442 2.90146 9.76858
-4.6781 2.64679 -11.9529
-8.20677 -3.61285 7.58593
-0.121489 -4.43025 -5.67653
8.43284 -10.0036 -4.89601
-8.21895 0.355678 8.01543
-7.96883 8.27172 -9.98014
-8.10644 5.79899 2.25504
11.8079 4.47027 -8.25953
-0.194058 0.646342 -5.98538
-6.17778 3.98232 10.0067
-4.53887 2.96393 13.6672
-8.20779 8.00833 -0.274648
-1.77435 6.03053 16.7883
9.15197 0.191507 -10.0619
-1.68143 -9.83687 -5.0372
1.75774 -6.76907 -18.8866
-8.15621 -2.32843 -5.81627
11.8048 -3.99694 -7.3886
3.45958 -6.2843 5.78208
-6.13586 7.73441 10.0135
7.11091 -4.2958 18.9432
-0.949317 -9.85543 9.88944
11.8079 -8.16695 2.9293
8.00111 -10.0067 7.70915
10.2211 -10.0101 -3.96545
11.8102 0.17506 8.0751
-8.21385 -8.26078 -0.799187
-5.38935 4.78033 3.63226
0.147785 2.28124 19.0031
-3.06042 0.82408 -5.95606
7.76779 -3.6658 15.5556
9.97338 -10.012 -8.18412
-3.10231 2.89654 -5.25968
2.64006 -7.96348 -5.94007
11.6894 5.85429 -1.89601
7.21869 -5.30579 3.02533
-6.34332 10.0118 -5.63142
11.663 5.19778 3.19545
-4.81328 -2.26183 11.9119
6.29892 -5.36575 -15.5777
7.41086 9.86956 -2.5564
3.82902 9.83605 -9.78504
0.792988 10.0076 -8.04719
-8.21405 4.0418 8.15639
9.3776 4.80004 -10.0016
10.0462 4.44086 4.02146
1.86213 5.41693 -6.01603
11.8023 -5.9911 -7.80955
-3.57254 -4.13945 -4.32574
11.7406 -9.81301 -5.48029
-2.50894 5.26638 18.7946
-4.08934 3.79395 -16.1311
7.39216 4.20246 11.8629
4.31177 -8.48746 -5.43311
-0.134419 -9.88671 -5.83814
4.76438 -6.52441 10.1311
-4.86539 -9.84708 -9.88207
-3.79824 -9.8862 -2.54663
-8.20841 -7.55872 4.55323
-6.71731 10.0172 -7.80223
3.82511 4.46324 -5.65337
-4.8365 9.87073 9.8434
8.24749 -2.76182 -17.1525
8.19628 -8.2206 -10.0083
1.79994 6.85781 18.9057
11.6485 9.91276 -1.46082
-7.84012 -9.89696 9.79693
9.28821 9.78677 9.86264
-6.20928 -4.00653 10.0055
0.138601 -10.0164 -7.90188
-8.07049 9.87456 -9.55864
1.93354 -4.5651 -6.02334
-6.38759 -2.57281 -5.41387
2.88027 10.0122 7.97423
3.99863 6.66509 11.8604
9.94269 -6.52015 10.0069
7.06949 -4.61276 -13.7558
-1.45033 3.57181 -5.04759
-0.897105 6.4742 -11.9669
5.89467 5.69234 16.9782
0.566712 2.99411 -19.004
11.7005 -0.727878 6.12093
7.44135 0.895826 -5.94082
5.19652 8.15607 10.0089
3.21686 -6.6684 -18.956
-1.01771 9.89962 5.48133
8.48462 -2.11192 -15.4265
-4.75373 -1.99032 -18.8542
11.577 -0.618976 9.89931
5.85835 -2.75978 5.32062
-8.04918 -9.88922 -8.34116
-4.68863 -6.12328 -10.005
3.73157 4.7037 -19.008
6.75384 4.94714 15.2797
-5.03355 -0.34789 -18.8059
-3.84854 -3.91881 18.8394
3.1195 7.07023 10.0875
-4.92905 1.26677 -18.893
1.55141 -6.18547 6.00013
-3.34955 4.73908 13.4553
-8.21409 -7.46842 -2.23385
2.48354 -6.9699 -15.3264
10.1295 10.0073 -3.91112
-5.88503 -4.03813 -4.44141
-8.1658 -6.16143 9.78613
4.68949 10.0135 7.85269
9.88877 0.162126 5.99996
8.49029 -2.08165 -11.8678
-4.09745 6.63578 -10.0017
-3.31448 4.77836 -14.6533
2.75607 10.0164 -7.93134
8.8918 -1.43742 -10.0936
4.41232 -6.24782 18.8786
-5.19567 -0.122592 15.3924
-8.2126 2.17347 -7.92792
8.96332 -10.0045 -2.87821
-4.25643 6.10358 -1.06173
5.74593 6.10316 4.51793
-8.2117 5.97016 8.17155
-3.8502 7.8462 -2.00385
5.98698 -2.37592 -19.0064
-7.91928 -1.81679 -9.94074
9.72779 -3.23399 5.04212
-3.3242 -4.79247 17.0929
-1.53602 7.9218 -4.9913
6.47232 -5.20514 -11.9661
-5.08769 10.0204 -8.50032
2.66901 -6.16525 -5.93833
-0.34791 8.30349 10.0051
-8.17487 4.92301 -9.69122
8.455 -2.1978 14.5758
4.31182 -0.0329974 19.003
6.55728 -2.4325 -5.48134
-6.05917 -5.80868 -1.4813
3.8957 9.92646 5.85825
-1.98238 -5.88882 11.9962
-8.20584 -5.5041 7.6192
-2.1677 -10.0141 8.48875
7.77441 -3.91116 4.5645
-1.61311 -8.20367 -10.0092
6.96666 -10.0043 -6.0382
0.695552 -6.77645 18.8313
-5.79318 10.0046 4.38522
-3.05903 -9.84705 3.74957
11.5415 -0.367153 -9.88799
0.0315481 4.54953 -5.72577
-0.143731 -6.73421 -11.8799
8.09651 3.08488 -16.9935
-8.06494 -0.459603 6.16077
11.7175 -0.658176 -6.1338
0.211774 -6.81877 13.1927
-1.35062 6.01318 5.10641
-6.44591 3.81203 4.64301
-4.40324 -3.24784 13.5471
-0.571813 6.59179 -13.994
7.72286 -9.88684 9.84945
-1.16297 10.0115 7.91488
11.6642 -6.6387 -9.85857
-4.1166 3.73666 11.8917
-3.51495 5.58571 -2.82824
4.51836 6.28592 -18.8841
11.8082 0.192729 -8.01234
4.32459 6.53273 -13.6255
6.10094 -7.90617 10.0125
5.97962 -0.617942 -5.98939
3.23639 -4.40286 19.0064
3.90825 9.93932 -5.84393
5.89494 5.66327 11.7548
-0.293471 9.88674 -9.83802
7.9701 -2.90355 18.8826
-6.31789 -8.06818 10.0192
9.61198 10.0078 -2.05047
6.58857 9.84069 3.88322
0.920175 6.73908 -18.8478
8.81847 1.49279 10.0973
-1.80719 5.89401 -4.79996
9.81252 -1.6173 5.78159
4.60207 -0.824965 -19.0043
-6.49058 9.78648 9.91774
1.80464 9.89186 -9.84575
6.17194 1.72471 19.0031
2.894 8.42438 -9.99858
-5.19754 0.245645 -15.2174
8.2724 -2.68784 17.0623
10.0964 -2.84514 -5.27722
-5.50201 -10.0032 -6.42924
0.430107 5.5162 5.84816
-8.06067 6.60908 -9.84427
-8.02694 -4.62219 4.05361
-8.12554 0.864712 -6.12537
11.8086 7.59935 2.50473
-4.18225 8.0163 0.0191604
5.18539 -10.0041 -6.84457
6.69848 2.65976 -5.38487
-6.10841 -10.0203 -8.07005
6.52846 -5.16094 15.3372
11.803 -4.41894 6.49138
-3.90971 -4.05285 15.2739
11.8082 -1.77684 7.8201
-5.09098 -1.22577 13.6628
-8.20456 6.49115 6.43881
-3.2096 -2.33606 5.52962
8.83292 1.66049 -10.0991
11.6961 9.79689 -8.51388
11.8069 6.40513 4.49187
-6.57853 -6.03104 10.0128
-8.20813 4.04323 -7.52072
8.46133 10.005 -4.14086
2.97188 6.91464 -11.8238
7.40133 7.92522 -2.12315
11.8061 7.70867 7.88137
-3.31276 4.80112 16.9374
-8.12223 6.16699 0.653128
6.66319 -0.468702 -19.004
7.2418 -4.38221 11.8901
-8.20553 7.78288 -6.17392
7.94292 -6.18132 -0.0989449
6.07761 5.3105 -18.943
-0.0686072 6.42682 -5.70156
11.8084 -5.82962 8.09155
-8.16039 -3.5475 5.22658
1.96806 3.42893 -6.01074
11.5969 -9.91949 4.0612
8.39509 2.35581 12.0213
0.251261 8.29408 -5.80136
6.40246 -10.0117 -8.19346
4.28322 -9.84963 5.66703
0.735098 8.50578 -10.0036
-3.82681 -4.16559 -13.5686
8.12305 -3.00577 -13.6498
11.5969 -4.10504 9.90115
-6.35544 -10.0145 8.14428
6.08532 5.53886 -15.7137
-2.94104 -5.63738 -3.65685
8.09529 4.29127 4.18711
-8.08676 -9.85527 2.08617
4.00082 -10.01 -8.1879
11.8088 -8.03479 -0.887235
-8.20428 -4.62903 -6.25889
-4.25924 1.59897 5.78756
9.81239 10.0098 0.0162975
-4.74777 2.78842 10.1467
0.294651 6.61432 18.8625
-2.39606 -8.18457 4.28939
-5.05866 -1.425 -11.777
-0.586867 -9.78869 -9.86605
-4.19155 -6.0025 1.42535
7.56433 7.9305 1.62356
-8.08359 -5.06075 -9.81659
11.6745 4.04582 4.73353
-2.30066 -6.39368 4.37656
4.19128 -9.93554 9.69242
-7.97787 9.95516 5.57101
4.4878 -4.3216 5.36966
2.90783 2.77047 5.89261
-2.79449 1.30694 -19.0052
-8.08069 -9.87692 -2.09048
7.45498 -4.43447 10.1362
-6.07303 5.75925 10.0081
-5.12925 -1.00914 -16.9783
-2.63892 -1.15787 19.0034
5.98164 4.14125 4.4231
-8.20453 -6.40652 -6.0798
7.78151 8.01644 -0.299412
-5.20073 -0.167496 12.0225
8.80157 0.529261 17.3722
-0.434811 4.60451 -19.0044
5.02736 8.10062 -10.0009
-4.43254 3.56382 4.8243
11.8079 -8.26717 5.28498
4.80398 -0.855078 5.94435
-6.55122 1.97899 10.002
0.0582149 -6.79973 16.9585
-8.20798 6.34216 4.55762
11.6534 -9.88333 -9.55986
3.59305 8.18135 5.72071
3.37392 1.04917 -19.0019
6.74162 -9.88678 -3.71954
-0.0158646 6.77674 16.9556
-4.86993 -6.14647 10.0029
6.08699 -4.39942 4.25902
2.7122 6.80211 -18.8767
8.69685 1.20853 15.6946
-8.20394 6.1589 -7.849
11.8063 -5.64272 5.15997
-0.922313 6.56452 10.2094
-8.07563 -3.64064 -4.92967
-8.07589 9.83593 9.53674
9.67423 10.0056 2.12265
11.8055 -7.97966 1.09275
-8.20732 8.25192 -4.10487
5.06983 6.19519 15.2469
9.79279 5.94379 0.845445
-5.92927 10.0071 -3.49777
-4.05251 -3.51329 -18.8408
-3.63766 -4.44395 -17.1628
9.73776 10.0043 -5.95126
7.96445 6.37932 -10.0015
-1.01652 9.8842 -5.48618
1.29345 4.79221 19.006
7.8923 -6.37542 -10.0013
6.98747 4.73293 -17.3039
5.31455 -9.87243 -5.0601
5.67195 9.87349 -9.87747
-0.456156 -6.65594 -17.1606
3.88236 -2.15803 19.0028
-1.3864 -0.530998 -19.0036
-8.05651 -5.71847 -2.27879
8.246 -3.05939 10.1404
-3.23496 0.827612 19.0044
-2.26595 5.7029 -13.4692
8.05373 -10.0034 5.34501
-8.11283 4.16715 4.60056
4.03468 2.12699 19.0029
4.9744 7.82706 -5.07817
6.22645 -5.66077 10.1136
11.8053 6.23555 -7.31293
-0.346203 -1.76611 19.0053
11.6047 1.29557 -9.91773
6.54421 4.9686 18.7424
-3.96758 3.97011 15.2828
0.696074 -4.71041 -19.0035
2.06755 2.95843 19.0022
-8.10264 1.10877 9.85708
-2.40376 5.30357 -18.8286
9.87183 -4.2561 -4.21752
0.766652 -9.79697 9.92132
5.69379 6.05551 -10.1091
-4.32188 -6.13548 -0.375189
7.67131 -3.81424 13.717
-8.15927 5.74793 -2.61251
1.59964 -2.96551 19.0031
4.30597 -1.44495 -5.82267
3.726 0.304387 -5.99906
-8.03682 9.88276 3.87874
6.7766 7.59168 3.33481
6.58774 9.88993 -3.91294
8.01678 -9.90839 -0.202896
11.8078 7.97173 -7.89635
11.7671 -3.51975 -9.75594
4.33875 4.51291 5.44169
2.80742 6.92822 -15.3625
2.71126 -6.93947 13.6118
-3.37449 -9.85965 9.86813
-2.41435 -5.58922 -13.6749
0.472421 0.128595 19.0025
-8.06825 9.88212 7.43018
-7.97019 4.98223 3.4099
-2.74129 5.32302 11.6712
-4.28103 -3.47868 -15.3396
3.10156 -8.13231 5.84667
11.6934 -2.43766 5.71901
-8.0514 6.64803 9.92231
-6.45211 1.04509 -5.90494
11.6865 -9.83148 -7.44795
-8.2144 -1.79017 -7.9626
8.73686 1.15347 -17.1336
-2.5091 5.50963 -11.7113
5.93064 -5.45081 18.8649
11.6366 -5.84083 9.86428
9.34947 5.25471 -2.90053
8.38851 10.009 -7.81826
11.803 3.9538 7.45071
4.13043 6.61371 17.0783
8.21139 3.16533 10.1235
-3.96358 -5.8452 -2.00239
-4.98946 1.24141 18.8626
-1.42996 -6.01077 -18.8709
-8.08863 6.05097 -0.969512
8.48333 2.11126 14.1285
-2.40925 7.90735 10.0095
0.429988 -0.949131 -5.9437
-1.86865 5.96687 -15.4355
-6.39092 -5.70658 -10.0112
3.55062 6.80466 -17.1633
-4.33518 6.10356 0.827665
5.94651 -9.84063 9.92214
2.81846 2.94432 -19.0029
7.77317 -5.96279 1.47282
1.83626 -2.6491 6.00701
-4.34942 -9.84429 0.463023
-3.72164 -4.29533 11.8693
4.5779 -6.42793 -15.6041
7.72479 -9.8683 1.66842
-5.05752 5.27197 -2.86712
9.78065 5.88538 -1.12727
2.49705 -0.771148 -19.0026
-2.71024 -5.55676 10.1814
-5.42289 -1.2888 -10.0111
5.9568 -4.22166 -4.45024
-4.37354 -3.28755 -11.8586
11.6699 -9.85573 0.104831
2.98755 6.90151 13.5755
-1.64697 6.09513 12.9616
11.5899 -8.34911 -9.91527
-4.51385 3.04471 17.0891
-1.85515 -8.39815 10.0062
1.66603 -7.26828 10.0381
-8.04266 -9.89734 0.0662601
1.65984 8.30093 6.01222
-5.18585 -0.503684 -13.4657
3.3784 -9.89841 -5.99898
-1.62812 8.03945 4.9272
7.30054 -7.58751 2.37728
9.19697 10.0041 4.04561
7.54004 -9.84258 -2.05974
11.6534 5.90713 1.71517
-4.7874 0.446297 -5.99931
-2.22366 -5.75302 -17.044
5.12827 5.92409 18.8485
-8.09038 -8.82232 -9.83321
8.5237 0.326527 18.9637
-0.783314 -6.50913 -13.7074
7.89017 -2.31251 5.54823
7.35085 4.60592 10.1397
-1.56522 -6.14058 13.7355
6.24804 -10.0053 6.44246
-6.07772 2.26556 5.55362
0.386678 -6.86083 -15.4194
-4.39539 10.0083 -4.84559
-2.9806 8.31633 3.60429
5.47795 -5.97392 -17.2171
-8.13194 8.287 9.83663
-2.17735 9.87454 -9.79693
4.06803 -6.62722 -13.9087
2.10622 -1.05638 19.0032
-0.645608 -6.56578 15.2593
-2.77387 6.53767 3.87985
-8.20656 2.30681 7.72298
-1.85346 6.17838 -10.0895
-8.20672 0.202273 -8.08867
5.38755 6.02922 -17.2822
7.34579 4.29665 17.0828
1.19166 -6.97565 14.8686
3.89246 -2.57378 5.64738
3.54768 -2.54494 -19.0027
-3.50657 -7.65951 2.79593
4.69972 6.50853 10.1356
7.19148 -4.49968 17.1862
0.616201 -6.25535 -5.89636
5.66882 -5.84803 17.1233
2.13513 9.93234 9.78053
9.41983 5.39468 2.64382
9.59889 -9.97125 9.7395
7.95353 6.14109 -0.00743326
-0.658505 1.3381 -19.0049
4.94554 -9.87816 -9.85202
4.92782 2.70411 5.37641
-0.836363 -8.17759 5.40809
7.58004 10.0026 5.64357
-8.09915 -4.79184 -3.95541
0.880378 10.0101 7.95817
-8.08421 -7.01911 -9.85653
10.1752 2.63044 -5.39442
6.40691 -5.27142 13.565
1.103 -2.77956 -5.96348
7.89206 9.89244 -0.93891
8.34979 2.5232 17.1794
-3.18772 -7.20693 10.0017
11.6551 1.01322 -6.05329
11.7592 2.61944 -5.63254
-0.155994 6.7399 -16.3952
6.44613 -0.2442 19.0042
8.57452 1.78624 -11.7803
-2.55826 -5.2425 18.913
-3.87696 4.40586 10.0954
11.669 4.58584 9.83533
2.6065 -6.95408 -13.3223
8.73558 -1.0698 16.5117
-4.33115 2.80702 -18.9427
11.7749 -5.25556 -3.45901
8.79326 -0.372312 14.6872
-4.87189 2.13633 -15.4318
9.59582 0.776763 -5.9613
9.43237 -10.0033 3.24192
-5.76415 -4.78705 3.62294
-4.99291 -2.55216 5.43314
-1.38033 -6.00085 -5.0931
-4.17259 9.84569 -1.73767
1.91014 -6.99815 11.9599
-1.29238 8.1369 -10.0082
7.38978 3.88947 -18.8992
0.0379994 6.83667 -10.1793
6.11594 -2.06903 19.0079
11.8099 -8.04826 7.80066
2.10715 8.40912 10.0003
-4.12712 10.0047 5.45906
11.8041 -3.6343 8.02982
-0.312882 -2.44633 -19.0033
5.09595 1.1648 -19.0046
1.09865 -8.09191 5.97678
3.17698 -6.87071 15.3753
2.09654 -10.0142 -7.98126
3.43276 6.62478 18.8862
-5.18749 0.609305 -11.7907
0.117342 -7.23423 10.0122
-1.17124 10.0087 -7.73332
9.80975 -10.01 7.39559
6.61102 10.0097 -8.21295
4.87317 6.2864 13.4735
11.8038 -5.6854 -5.72963
6.67059 -9.81091 -9.88295
6.33374 10.0052 7.36434
-8.0662 9.8838 -5.02572
11.6832 8.15323 9.86105
8.63416 1.52726 -15.3506
1.73681 1.00243 -6.0034
11.5294 -9.74135 9.84642
-4.69192 2.23828 -5.571
-0.103202 -2.2627 5.70561
-3.96233 -1.11458 -5.89679
11.78 9.77066 8.37706
11.257 9.77312 -10.0077
2.2193 9.925 6.13548
7.86425 -4.00836 -4.46434
-3.72412 4.30235 -12.3205
4.83687 -3.06466 -5.2824
11.8056 -7.46624 -4.49334
7.68091 -8.01846 -1.17744
5.12834 3.232 -19.0036
-0.95341 -6.23653 18.9004
-3.3058 4.90977 -10.1569
0.972747 -6.95553 -13.6568
0.575156 -0.639864 -19.0035
8.7737 0.729055 -13.527
6.32428 -6.61145 3.95262
0.875609 -8.10968 -5.92461
-5.02007 -0.523023 18.9011
-5.04213 1.50369 -13.5448
-2.78118 10.0058 -6.28203
-1.87056 3.11958 -19.0038
6.50287 -8.38989 3.6928
11.7918 6.41977 -9.68545
2.87187 -9.8197 -9.91076
-8.21012 -7.93425 -7.77032
-8.20961 -3.70814 -7.86761
0.37552 9.91348 9.84454
-4.23343 6.35699 9.99935
-3.82646 5.55155 2.63573
-5.94075 -7.89039 -10.0164
-4.61376 -2.32199 18.905
8.73527 -5.18454 -3.00848
-3.69287 4.12851 18.8695
9.68899 5.15974 10.0051
-2.6413 2.86221 5.26545
-6.67794 4.75865 -10.014
-3.68342 -7.8314 -10.0093
6.14294 -7.85358 -10.0065
-8.12496 -2.12754 5.87077
8.50814 2.47297 -5.46851
11.8029 5.67581 6.2437
-6.42616 -3.50739 4.86583
3.82754 6.77365 -10.1599
11.8067 6.11014 -5.17396
11.7017 2.72553 5.63672
-8.09655 -9.776 7.92607
-5.5063 0.317211 -10.0049
-2.98655 -9.80308 -9.88508
6.02318 -5.36681 -18.8025
-1.33296 -6.45356 10.1624
11.6739 -6.1729 0.0305749
7.8995 9.85827 0.832007
-2.16022 1.10138 5.90385
1.58894 -2.79303 -19.0031
-4.0803 -7.98238 -1.06283
9.66041 -4.50708 10.0051
-1.08848 4.07579 5.26257
6.45065 5.23004 -11.9685
9.81072 -8.33717 10.0141
-4.90707 2.01491 15.4031
2.86709 -4.65912 -19.0033
-5.21602 -0.613441 10.2038
-6.01451 5.56374 2.24299
3.50379 -6.8129 -17.1299
-3.15573 -4.94786 13.5591
9.85067 -5.95508 0.769375
5.34351 9.80591 -4.9822
-1.76925 -0.670575 -5.98107
11.8081 7.9752 0.59061
-0.654914 2.30624 5.59627
7.36159 4.25166 -13.5355
1.86129 -7.01505 16.8932
7.25731 -4.55241 -10.1235
2.63821 -4.42571 5.94205
11.6768 -5.05965 -9.83245
8.52375 -1.31558 18.8398
11.6806 -9.84675 6.2736
-6.57177 -10.0092 4.80063
-3.79888 7.73236 2.05683
-4.26799 8.1953 10.0132
6.29675 1.00932 5.92057
-8.0569 -9.90972 -4.22997
9.88643 -1.07796 -5.90442
4.19175 -4.85538 -5.50143
-8.02914 9.89531 -3.07573
11.8066 2.34373 -7.79591
-1.2518 -4.07248 -19.0067
-5.36676 8.31148 -10.0133
7.69321 5.89077 -1.78317
8.40956 -2.56331 -5.42835
6.4671 5.21811 13.5085
3.97288 -8.33055 -10.004
-3.86095 -4.5166 10.0991
11.6015 8.10367 -9.92459
8.70384 -1.16356 12.7592
11.8065 7.60505 -3.57326
8.03489 4.04932 -4.4279
-6.2398 10.0229 8.20682
-7.96797 -2.54931 9.96323
-0.463746 0.249491 6.0003
11.5962 9.90771 5.08461
-0.146604 6.72954 12.0568
2.94298 -0.961354 5.95565
-2.17669 -3.04795 19.008
2.31654 -1.08364 -5.99869
2.12115 7.02318 17.1544
9.96433 -10.0117 5.2467
-2.42493 -2.41898 -19.0042
0.445893 9.86609 6.03294
-8.00526 -0.248956 -9.95079
-8.12827 -9.79697 4.0103
7.05204 5.30851 3.13462
-3.67231 9.90596 3.07469
9.64297 10.0053 6.04198
0.57073 -4.29676 5.88108
11.585 9.89512 3.41023
11.5841 -3.89261 4.63137
-4.32678 -9.90892 -1.14753
8.50759 -1.38191 -18.9451
11.8069 -1.97243 -7.9239
11.8112 8.27151 4.13802
-1.89658 -4.00278 -4.76775
7.96997 3.32269 15.4965
9.18209 8.17204 -10.0213
9.83516 -7.3085 -10.0078
9.70239 7.68024 10.0126
8.11302 -0.397276 5.9977
-3.98737 -4.29803 -10.1171
-0.374947 -6.47723 5.59803
8.23125 -3.2065 -10.1276
2.46061 -9.78461 9.91471
-4.37151 9.90984 -0.215486
1.16601 -9.76017 -9.91845
5.87816 4.11654 -4.47543
7.72053 3.73648 13.6319
-3.24987 -4.84378 -11.9069
6.9556 5.06544 -3.33094
-5.98512 10.007 6.36915
2.28025 0.995464 19.0019
1.58674 -7.00384 -11.7442
8.78272 -0.200484 -11.8087
5.42574 8.03841 4.77886
5.67688 -5.82937 -13.8298
-6.17007 10.0139 -1.49761
1.42229 1.22565 -19.0031
11.6623 -9.88375 8.17098
-6.10055 -10.0082 -2.89171
-5.13967 0.943282 17.0912
-6.39128 2.76605 -10.0077
1.78539 7.42695 -6.01462
1.02102 1.55814 5.95794
-3.04227 9.93442 9.74067
3.11813 -6.96993 10.1625
-4.58832 -2.81261 -5.30603
-8.09366 -0.847902 9.74946
4.99169 -8.00833 5.07124
-1.63174 6.12748 -17.3208
4.40738 -6.66069 -10.1309
-6.70191 5.3978 -2.60259
11.8029 -6.77764 6.44072
1.59692 -9.88085 -6.14777
-6.37484 5.97113 0.602294
-8.0518 -6.02887 1.30626
0.974996 6.95666 13.6275
9.68984 -5.90608 -1.05487
-1.09385 -4.94008 5.26779
2.47772 4.75183 5.96871
11.7443 -2.39041 9.78314
-0.716024 6.53898 14.7818
-2.49787 -5.53073 15.3908
7.12088 -9.94984 3.27442
-4.49995 -8.27747 10.0133
8.80076 -0.259782 -15.3246
-3.31735 -0.195277 6.0037
4.79991 -3.97723 -19.0072
8.30619 2.2892 -18.7993
11.698 6.14177 -0.128221
4.01185 -8.37347 10.0072
-3.46361 -7.78809 -2.87406
-5.19785 1.00942 10.19
8.30399 1.48494 5.80984
-8.1678 9.79206 -6.98187
-4.00579 -9.87616 2.15757
8.74842 -1.47228 10.265
-3.15112 10.0132 -8.13035
0.181274 -9.89598 5.94236
8.19484 6.38045 10.0026
7.0237 -7.65531 -2.94629
-2.3852 5.80937 10.1066
-2.70116 -2.454 -5.47256
6.65521 6.69219 -3.53779
3.34061 2.12954 -5.77473
5.93877 -5.76767 -10.1563
-8.08864 2.76969 5.54378
-6.00559 10.0063 2.57346
-6.22605 -3.65211 -10.01
7.01511 -5.32737 -3.19766
10.1586 -2.40222 10.006
-0.000688761 -10.0095 7.94306
11.5969 -1.84843 -9.88585
-2.89389 -4.94821 -18.8193
2.23195 -9.84962 6.14894
10.3285 -5.34705 -2.67931
-4.17648 10.007 7.82862
8.16799 3.31877 -10.1073
9.22165 -0.0466241 10.0181
11.8073 5.74954 8.17335
-6.26301 6.79479 -10.0149
9.56942 -5.14593 -10.0027
1.17984 6.97519 15.4541
8.77243 0.732467 13.2258
0.575018 -7.20776 -10.0261
-5.09179 1.8241 -10.1474
-0.813156 -7.90661 -5.40372
1.52066 -7.00944 -17.0888
-5.1486 5.10281 -9.99944
3.05619 -3.04263 -5.86952
8.77831 0.251533 11.5394
7.98834 -0.829718 -5.952
3.28382 8.33357 -5.80167
-4.11732 -7.97428 0.931505
10.0608 -3.14151 -10.0065
-4.1838 9.84001 1.47328
-2.61121 10.0046 6.84136
1.59221 7.01047 -16.9848
7.47185 9.87412 2.52273
-8.08327 3.00776 9.82034
-8.10441 -0.712946 -6.13844
-5.10502 -1.18117 17.1053
-6.01986 5.90673 -1.06288
4.86161 6.28675 -11.8713
0.286369 2.51974 -5.80466
4.80465 2.93193 -5.2565
8.32211 2.53842 -13.3934
1.05353 -0.718748 5.98397
5.9366 10.0045 -6.56541
11.8047 4.35471 -6.48935
3.86907 -6.69431 11.9359
-4.54341 -3.29058 10.1702
1.85497 7.0839 -10.1739
-4.63601 -2.7772 -17.058
-4.74056 10.0063 -6.74536
-6.11741 -0.933108 -5.92965
-4.94712 1.89213 11.9806
-0.765215 -2.48888 -5.52484
1.27459 -5.02202 19.0046
6.73943 1.71334 -19.0111
2.34045 -7.21199 -10.0405
-0.62311 6.44287 -18.7711
-1.20449 6.20397 18.8136
2.07232 9.89593 -6.08856
11.8055 -7.70874 -2.74876
-5.27047 -1.99703 10.0451
-1.52433 -6.16628 -15.4347
7.94769 -2.96369 -18.8914
-7.98279 -9.91444 -6.46519
2.06459 6.59094 6.01598
11.6986 -5.95393 -1.7252
3.41776 -6.8245 -11.671
6.47648 -0.962585 5.93691
-4.79417 -0.765098 5.96898
5.04721 -6.07792 5.04726
-4.41847 3.46987 -10.1038
8.77797 -0.809191 -17.1389
7.91487 -7.89576 10.0074
