-4.71145 -3.75766 4.68068
-8.12181 -6.23076 -0.279911
10.2073 3.99626 -10.0094
-6.7294 -4.94261 -3.38123
-4.20018 -10.0097 7.71768
4.83437 -6.3101 16.5936
-5.10702 -10.0122 2.81435
7.26925 -4.41148 -17.6393
10.8948 10.0216 2.20995
-2.76236 -1.70271 -19.0056
-6.86534 10.0149 0.562364
9.05796 2.99712 5.19769
-5.92082 -10.0058 -0.889755
7.87268 -10.0088 -8.61318
8.12285 1.21843 18.9921
10.5386 -10.0142 -5.96756
-8.21188 -1.63411 8.40026
-1.88408 -5.92692 -11.2487
-4.75741 -10.0104 -4.69368
-7.77548 1.38322 -9.98123
11.6581 2.8373 -9.8495
1.84441 7.00929 -15.248
11.7805 9.69823 -4.40613
7.10937 2.58225 19.0227
6.43119 8.37588 -3.79723
3.93136 5.67014 5.60898
11.7727 4.94384 -3.91019
5.7171 5.85085 -4.56238
8.27183 10.0057 8.10727
-8.2054 -7.62478 1.03985
3.30736 -6.85779 17.7289
-4.17311 9.88368 -9.84636
-6.0899 0.216548 10.001
-4.34951 -3.35751 16.2696
-3.0224 -9.87176 -3.89906
4.75807 -3.1928 19.0036
7.58596 -8.36356 1.51802
6.93378 10.0033 -6.15529
-8.20065 1.63587 6.3848
-6.26282 0.355008 5.99939
-2.43653 -3.08197 5.15001
-7.69875 -9.91137 -9.67046
-1.79168 1.67793 -5.75341
7.77906 5.78037 1.92018
-6.2331 -5.58679 2.15722
-5.77193 -10.0081 6.14225
-8.20793 -5.55142 -8.14515
5.66451 -6.05223 -4.5875
11.7451 1.34539 6.15449
11.2194 -9.98834 2.48089
-8.19569 -5.75883 3.06725
10.8108 5.30235 -2.78395
10.4862 3.20742 10.0187
-8.2103 7.87651 4.24797
8.52984 0.305563 -18.8946
8.03898 -3.18858 -15.7248
-8.07013 3.10862 -5.348
-1.65102 -9.7363 4.8982
-6.12866 4.49933 -3.97962
6.08014 -5.53077 11.438
4.72028 -6.35488 -11.9936
7.31582 4.31438 -15.5312
-8.21217 8.13515 2.23859
11.7993 -6.23564 2.08473
-8.20698 -8.14527 -5.2528
-8.20439 4.50892 -4.5719
6.68634 8.47237 -10.0089
-8.20701 -8.60581 5.83988
-4.66325 -2.69363 -14.1135
-3.95119 -10.0106 4.41203
-8.21213 8.0859 6.25934
-5.19592 0.479701 -17.5234
-1.39806 2.2727 19.0033
7.97587 -6.01762 -0.943367
11.5707 -7.71191 9.92294
-4.27869 4.1875 -4.2872
-1.13677 -6.93048 -10.0201
-4.93845 -4.87318 -3.49563
-2.23354 -5.7294 -15.6456
11.806 8.36611 -0.622494
3.8934 -10.0095 6.87572
-1.07868 -6.39253 17.272
10.2395 -10.0049 0.688199
-2.67792 9.9814 4.48315
2.49923 -6.40723 19.019
11.7581 9.57235 9.69491
8.16796 2.9074 -14.9889
-4.09904 -5.21556 2.96094
4.06007 6.62865 15.061
4.86494 -6.29132 14.6906
7.19669 9.93957 9.69652
-2.04945 -7.74519 -4.59877
0.953887 3.42576 5.94498
-7.99699 9.94915 -1.31349
-1.72839 9.88119 9.87573
2.04841 -10.0149 7.45504
-8.20437 -6.19414 -4.39003
-8.02087 -4.26961 9.91469
-8.21925 1.93647 -6.69826
11.8082 1.72009 7.80856
-5.00849 -9.97746 9.53569
1.87847 6.99135 11.5784
-1.19677 0.519927 19.0026
0.0293025 7.82342 5.72504
11.6454 9.86612 -6.51346
-5.11104 -1.1105 -15.2638
11.7581 9.68199 5.91075
0.677765 9.89932 -6.08991
2.87165 6.91766 -13.1769
-2.12345 -10.0071 -8.53237
9.64296 4.33439 -4.13561
4.76612 6.34145 -15.7187
7.0044 4.7524 -10.1987
11.7561 -5.3874 3.39762
-3.0532 -4.37373 4.10945
11.3127 5.58901 -9.99972
-8.20571 -7.50078 7.42975
10.1805 -5.57839 2.18818
-8.21262 -8.39039 2.36131
7.28363 4.33056 -11.7624
11.8049 9.36967 -2.771
11.3787 9.98296 0.587669
-5.1218 -2.93733 -10.0138
-2.52748 4.647 -4.18751
10.1869 10.0323 8.78308
3.98275 6.34763 -5.58949
6.45136 -9.98588 4.47983
-0.732159 -6.55549 -17.661
-8.20844 8.06961 -8.38077
11.532 -4.2064 -4.3382
-2.98905 5.10941 14.9123
-3.40124 8.37893 -10.0158
11.5092 -9.95358 -1.3699
4.29232 -5.98871 -5.46398
-6.43074 3.24353 -5.05804
7.11171 9.97497 -9.73116
-3.23439 2.95758 19.0098
8.20639 -2.81502 12.7858
-4.57661 2.92346 -17.5273
5.8738 1.52304 -5.80853
-3.53821 -10.012 -6.08668
5.74061 9.98342 4.97815
-3.43503 4.67171 -17.997
-1.80945 -10.0102 -6.66518
11.8069 7.69238 5.81474
-6.38172 -10.0064 -4.9593
-8.20264 6.09728 -6.35661
-0.722437 -3.30524 19.0041
-8.20422 -6.50873 5.68347
2.35844 4.60803 -19.0046
-4.90516 -2.02656 15.4596
-8.21083 3.96266 6.3449
0.95479 6.95966 -13.15
2.38685 0.0644995 6.00889
9.07274 9.83893 -9.89265
-8.19732 9.48571 0.68873
-6.08984 9.94459 -9.75363
-6.95821 -1.69608 5.73942
-3.60682 -10.0066 6.08861
-8.1338 4.76733 9.81917
9.88297 -10.0104 -1.86702
10.33 10.0238 -8.1727
0.33975 -6.82227 10.9675
5.59486 9.96115 9.68369
-2.83343 -6.3241 -9.99457
11.6099 6.20804 9.913
6.15455 -3.92574 -19.0069
-8.20644 8.07958 -1.88597
11.8049 -7.91467 -7.69973
4.28837 -6.56297 -17.9962
-8.20442 6.70453 -4.66983
-6.39506 -5.99182 0.370406
7.30025 -4.31029 -11.5113
-5.12045 1.04645 14.7132
-0.882422 4.36111 19.0062
7.42858 8.3875 10.0099
11.8036 -6.95547 4.31989
8.85139 -5.50158 10.0031
-7.92231 -3.41141 -9.95785
4.05084 9.79279 9.91521
-7.76466 2.83541 -9.96924
-2.08176 -1.19292 5.88046
7.20159 3.45109 4.90543
-8.17944 -7.90075 9.66923
11.5592 -2.6412 -5.48068
6.15041 -7.60055 -4.12493
-4.05023 -10.0083 -7.92131
6.34282 -10.0108 8.22436
-2.486 4.47805 4.29732
-8.2333 8.44277 8.21422
-3.61447 9.99121 -3.45033
9.89207 1.72759 5.73658
9.05795 -9.91704 -9.80172
7.93728 -10.0023 -6.854
4.17823 0.927671 5.94276
3.42287 4.83392 19.0041
-7.73865 -9.97526 5.22762
0.382134 6.91053 10.3186
-8.2082 -7.80968 -3.495
6.78772 6.41234 9.99477
11.8055 -7.97579 -5.98623
6.31834 5.35328 -14.1782
4.17089 10.0147 -8.59985
11.7461 0.839897 9.79719
9.52917 -4.84503 3.52274
10.1461 7.26562 -10.013
-4.52031 3.00325 -13.5182
-2.9133 5.19907 -16.2364
11.8108 8.15268 -5.50225
-2.03438 -10.0062 6.96111
4.58028 3.44654 19.0056
11.8208 -8.86773 -2.75669
-2.53719 9.4284 -4.14181
-2.82323 6.70725 -3.82314
-7.99699 9.9796 2.86459
8.65857 -1.40541 -13.1926
-6.31866 -10.008 1.3847
11.7845 2.64901 9.52512
-4.85348 2.14843 -11.7541
-8.21911 -3.34468 8.60967
-0.280076 -4.47567 -5.62376
8.49488 -10.0043 -5.30199
-8.21815 0.227363 7.9648
-7.50003 8.16741 -10.0216
-8.21886 6.15581 2.41935
11.8098 4.88665 -8.57706
-0.277684 0.940674 -5.93742
-6.41222 4.18954 10.0113
-4.70462 2.59884 13.4573
-8.21024 7.81544 -0.093355
-1.49504 6.18154 15.5708
8.85931 0.62295 -10.2616
-1.64682 -9.71565 -4.96031
0.572404 -6.64042 -18.9727
-8.19858 -2.11275 -6.22727
11.8048 -3.42354 -7.13324
2.93224 -5.83254 5.89226
-5.15904 8.24741 10.01
6.65287 -3.07977 19.0154
-0.285334 -9.90081 9.87528
11.8103 -8.4113 3.37765
8.59415 -10.0167 8.07047
10.7357 -10.0216 -3.68193
11.8123 -0.110354 7.69789
-8.21868 -8.53268 -0.408154
-5.99764 4.67551 3.76781
0.341633 2.73866 19.003
-3.45723 0.597915 -5.98848
7.6111 -3.91653 15.8936
9.72037 -10.0131 -7.73959
-3.23887 2.58168 -5.41915
2.40924 -7.10136 -5.97647
11.8053 6.34176 -1.59884
7.61905 -5.2775 2.88649
-6.99104 10.0315 -5.28975
11.7384 5.23689 3.67385
-4.53037 -2.94616 11.6612
6.80721 -4.89949 -15.9943
7.92315 9.99215 -2.13466
3.97224 8.8376 -10.0079
0.84735 10.01 -7.82344
-8.2094 4.91778 7.96065
8.95008 5.48924 -10.0029
10.3346 4.28497 4.18087
2.21148 5.15366 -6.00266
11.8026 -5.97091 -7.69805
-3.31824 -4.40333 -4.07898
11.7832 -9.63286 -4.81505
-2.62717 4.84461 18.9332
-4.39385 3.27509 -15.7287
7.06866 4.61096 12.4193
4.10605 -7.59945 -5.53748
-0.0325118 -9.94484 -5.99656
5.19858 -6.59887 10.0096
-5.58197 -9.697 -9.98564
-4.673 -10.0145 -2.63425
-8.21004 -8.04684 4.15072
-6.44196 10.0238 -7.48584
3.98785 4.5203 -5.58945
-5.11577 9.99163 9.49208
8.38511 -2.43026 -17.2126
8.59652 -8.28961 -10.0072
1.4203 7.0036 17.9729
11.399 9.98868 -1.47707
-8.0508 -9.61214 9.8691
9.34693 9.60027 9.94442
-6.20409 -4.57271 10.006
-0.523913 -10.0138 -8.00954
-8.1201 9.82643 -9.43273
1.29607 -4.45051 -5.98
-6.3231 -2.24682 -5.5623
2.6054 10.0109 7.93862
4.38219 6.52379 11.9154
9.8082 -6.94013 10.0098
7.139 -4.53064 -14.2841
-1.71183 3.25918 -5.05756
-1.11191 6.37033 -12.8159
6.28713 5.39132 17.5142
0.757591 3.47232 -19.0033
11.7716 -1.09735 6.17512
7.6501 0.862348 -5.94795
5.44276 8.13615 10.0073
2.89331 -6.53724 -18.9935
-1.2238 9.65785 5.24826
8.6636 -1.38032 -15.2467
-4.00908 -3.1149 -18.9878
11.4605 -0.658977 9.93485
6.01767 -2.80446 5.2966
-8.03348 -9.89729 -7.71988
-4.52002 -6.19014 -10.0049
3.97913 5.38251 -19.0197
6.79965 4.90544 15.9081
-4.51755 -0.75545 -19.0137
-3.6335 -3.61712 18.9953
2.95983 7.56614 9.98366
-4.70409 1.5734 -18.9769
1.51129 -6.69413 6.00135
-3.77572 4.24 13.2134
-8.21202 -7.44646 -1.90049
2.19858 -6.99747 -15.3606
10.2715 10.011 -4.69941
-5.76853 -3.69505 -4.73188
-8.2078 -5.93517 9.33629
4.47723 10.016 8.08988
10.2997 -0.0384154 5.99554
8.18066 -2.8613 -12.0909
-3.05913 6.84894 -9.99824
-3.75422 4.26952 -14.6589
2.8403 10.0201 -7.50512
8.65812 -1.54348 -10.3641
4.61428 -6.15988 18.9119
-5.18801 -0.372979 15.5802
-8.21284 2.36332 -8.3879
8.78975 -10.0067 -3.59442
-4.19584 6.28071 -0.853708
5.5733 6.45384 4.66923
-8.21543 6.67697 8.1796
-3.66235 8.15362 -2.46915
5.74873 -2.09704 -19.0058
-7.54585 -1.55292 -9.99597
9.32393 -3.54412 4.83709
-3.31478 -4.80272 17.7688
-1.66194 8.09057 -4.90347
6.3141 -5.35385 -12.618
-4.50815 10.0114 -8.03329
2.55968 -5.43005 -5.95898
-0.728304 8.4665 10.0077
-8.16379 4.39133 -9.57896
8.32744 -2.5364 14.5685
3.26815 -0.125643 19.0018
6.48476 -2.1649 -5.60046
-6.01978 -5.76843 -1.64166
4.24356 9.99728 6.04305
-1.65349 -6.08665 12.0046
-8.20663 -5.07363 7.36565
-1.53656 -10.0114 8.58614
7.63474 -4.05719 4.42086
-2.5122 -8.35183 -10.0083
6.20806 -10.0095 -5.55308
0.951133 -6.67246 18.9422
-6.04902 10.0061 4.32868
-2.91094 -9.0585 3.69546
10.5617 -0.773588 -10.0137
-0.53846 4.42761 -5.53576
-0.0659018 -6.74959 -11.2708
8.05107 3.18427 -17.1669
-8.00177 -0.100374 6.08614
11.803 -1.03938 -6.41427
-0.0332177 -6.75883 12.9531
-1.24623 5.16993 5.16819
-5.65567 3.3568 4.97598
-4.38377 -3.28596 13.6528
0.204394 6.82317 -14.5825
7.95156 -9.97314 9.77205
-1.02587 10.0129 8.00096
11.786 -7.03464 -9.59027
-4.23895 3.53441 11.543
-3.65793 5.56045 -2.60379
3.89671 6.69402 -18.2196
11.8078 0.984128 -7.59609
4.69472 6.37323 -13.4103
6.28794 -8.75925 10.0164
6.13355 -0.340803 -6.00089
3.34516 -4.58581 19.0077
4.22711 9.83612 -5.66874
5.91794 5.64489 11.3126
-0.225322 9.94848 -9.71395
8.04531 -3.14153 18.432
-6.13486 -8.58416 10.0183
9.7615 10.0051 -2.92952
7.39872 10.0112 4.24814
0.753651 6.73542 -18.8091
9.16865 1.93017 10.0007
-1.21254 6.24245 -5.19033
9.84241 -1.9255 5.68799
4.14011 -1.11847 -19.0051
-6.58259 9.23192 10.0126
2.09169 9.96721 -9.57505
5.51276 1.57428 19.0045
2.49205 8.32152 -9.99508
-5.18855 0.443919 -14.7797
8.38756 -2.3998 16.4054
9.52225 -2.61365 -5.40613
-5.95497 -10.0074 -6.75851
0.319041 5.55493 5.81583
-8.11048 6.68182 -9.74364
-8.22719 -4.9916 4.59165
-8.16246 0.538186 -6.19322
11.8217 6.57976 2.27007
-4.18546 7.86253 -0.16336
4.4173 -10.0117 -6.54182
6.57806 2.9526 -5.22956
-6.00579 -10.0187 -8.5042
6.42076 -5.26157 15.6005
11.804 -5.23605 6.69439
-3.41855 -4.67491 15.9545
11.81 -1.81891 7.98767
-5.02336 -1.59715 13.4991
-8.20317 6.06034 6.20015
-3.77519 -2.08306 5.63709
9.7464 1.95087 -9.99738
11.8112 9.39706 -8.51192
11.8069 6.88404 4.17066
-6.91947 -6.46831 10.0148
-8.20721 4.16095 -7.3851
8.53161 10.0037 -5.27256
2.14049 7.00454 -11.5551
7.26495 8.5819 -2.45796
11.8085 7.94664 7.57138
-3.12689 4.98882 16.6063
-8.11231 6.17009 0.535417
6.81726 -0.248102 -19.0043
7.4793 -4.06999 11.7853
-8.20357 7.87837 -6.55924
7.77059 -7.06262 0.404274
5.86473 5.07257 -18.9975
0.521463 5.84479 -5.87403
11.806 -6.79389 8.03538
-8.21034 -3.42131 5.81926
2.19635 3.34518 -6.00073
11.7407 -9.71342 4.45833
8.3088 2.57081 12.0941
0.128002 8.21882 -5.76385
6.12461 -10.0097 -7.61171
4.60722 -9.83667 5.39138
0.687581 8.73577 -10.0068
-3.71928 -4.30893 -14.5922
7.99367 -3.27185 -13.7523
11.8122 -5.16031 8.43312
-6.48682 -10.0269 8.53431
6.14175 5.49425 -16.0874
-2.70491 -6.02614 -3.95446
8.59135 4.26844 4.21428
-8.08605 -9.86023 1.17023
3.54712 -10.0119 -8.02867
11.8092 -7.94993 -1.0934
-8.20524 -4.27092 -6.19221
-4.40692 1.75371 5.74631
9.61142 10.0093 -0.483206
-4.96221 2.76108 10.0443
-0.350431 6.54589 18.8482
-2.72733 -7.34668 3.93665
-4.68146 -2.62427 -11.767
-0.9129 -9.59313 -9.97349
-4.20828 -5.97103 1.44203
7.26953 7.36571 2.45854
-7.83179 -5.28701 -9.94581
11.8097 4.43387 5.14561
-2.41366 -5.76971 4.28099
3.61475 -10.0072 9.03501
-7.36557 10.0137 6.11177
4.49036 -4.52638 5.36911
2.86077 2.3695 5.89979
-2.73028 1.05167 -19.0045
-8.18618 -9.62025 -2.04766
7.14663 -4.72747 10.1956
-5.60924 6.50622 10.0059
-5.07592 -1.38293 -17.6379
-3.35024 -1.61268 19.0078
5.52404 4.25715 4.70626
-8.20392 -6.24149 -6.33599
7.6791 7.74234 -1.09364
-5.18783 -0.468262 12.4795
8.77624 0.824129 17.5183
0.147552 5.09735 -19.0055
5.43282 7.29933 -9.98599
-4.23474 4.1347 4.33477
11.8148 -8.60071 5.62804
5.28345 -0.776857 5.96145
-6.63473 1.97238 10.0047
0.605161 -6.91509 17.316
-8.2126 5.7182 4.36545
11.0119 -9.97506 -9.69842
3.49806 7.64336 5.75491
3.93086 0.982049 -19.004
6.69058 -9.87935 -3.7529
-0.225615 6.71701 16.7065
-5.13236 -6.54058 10.0043
6.003 -4.51153 4.28406
2.45307 6.8304 -18.9103
8.72095 1.08101 15.6571
-8.21158 5.97717 -8.06687
11.8082 -5.25616 5.09333
-1.29507 6.26129 11.0181
-7.67593 -3.30527 -5.01085
-8.0991 9.77133 9.62349
9.09453 10.0045 2.3035
11.8098 -8.11549 1.74821
-8.20758 7.95217 -3.50646
5.58309 5.89287 15.2074
9.51946 5.94662 0.752592
-6.58055 10.0146 -3.09789
-3.49575 -4.6059 -17.7254
-3.47951 -4.60852 -16.1291
9.67062 10.006 -6.54883
7.14126 6.48858 -9.99566
-1.27102 9.99813 -5.69928
1.13124 5.49242 19.0107
8.40072 -6.23536 -10.0021
6.83168 4.89422 -17.6689
5.02365 -9.11311 -5.02436
5.21728 9.77453 -9.88719
-0.64869 -6.56659 -16.0037
3.83615 -1.7743 19.0026
-1.59061 -0.420313 -19.003
-8.00796 -5.70613 -2.13374
8.27586 -3.42615 10.044
-2.97894 0.753081 19.0038
-2.96663 5.13068 -13.6388
8.07474 -10.0029 6.07414
-7.86489 4.11579 4.39848
3.70341 1.82697 19.0031
5.31005 7.66576 -4.86119
6.93067 -6.38114 9.99396
11.8045 6.2386 -6.92881
-0.334728 -0.930084 19.0021
11.801 0.741201 -9.73977
6.71468 4.34617 18.9624
-4.12764 3.73111 14.9749
1.30906 -5.08952 -19.0053
1.98728 3.68586 19.003
-8.19073 1.16009 9.62329
-2.16023 5.26805 -18.9603
9.68164 -4.1153 -4.35164
1.23747 -10.0055 9.21471
5.54948 5.90676 -10.7103
-4.50949 -6.05479 -0.131196
7.43471 -4.15109 13.8275
-8.18312 5.81698 -3.02517
2.11283 -3.06177 19.004
4.44593 -1.35419 -5.83907
4.01067 0.408971 -5.9991
-8.0928 9.80925 4.79765
6.41849 8.22002 3.81331
7.29107 10.0018 -3.72337
8.19043 -9.97454 -0.460052
11.8056 7.97932 -7.31053
11.825 -4.18264 -8.76925
3.7877 3.80797 5.6615
3.52026 6.79524 -14.6427
3.28406 -6.85559 13.3238
-3.1779 -9.97841 9.54815
-2.49065 -5.53102 -13.6668
0.903511 0.443739 19.0017
-8.09872 9.85187 7.54201
-6.99626 5.42834 2.57104
-2.77509 5.29786 11.9326
-4.72064 -2.55628 -16.0866
2.95816 -8.21364 5.87518
11.7929 -2.98111 5.72381
-7.51171 6.26138 10.0097
-6.75584 1.50229 -5.79148
11.6366 -9.90895 -7.61564
-8.21478 -1.77054 -8.49416
8.67143 1.42651 -17.6958
-2.68777 5.36819 -11.9679
5.9521 -4.807 19.01
11.4978 -5.63181 9.9595
8.70956 5.1971 -2.98128
8.18108 10.0112 -7.95185
11.8029 3.66711 7.28823
4.58733 6.43088 17.2048
7.84102 3.51405 10.471
-3.87046 -5.93254 -2.09824
-4.92814 1.62974 18.8721
-0.925563 -5.401 -19.0143
-8.15286 6.16692 -1.37667
8.60119 1.68072 13.876
-1.9175 7.21226 9.99761
0.453079 -0.698654 -5.97356
-1.54102 6.15811 -14.7511
-5.8801 -7.1434 -10.0177
3.23532 6.87291 -16.4748
-3.91654 6.90096 1.77068
5.16854 -9.95611 9.72973
3.27732 2.93327 -19.0034
8.63995 -5.89342 1.07355
2.23944 -2.20976 5.99709
-4.45423 -9.8609 0.246953
-3.33178 -4.75597 12.1256
4.13807 -6.60945 -15.8506
8.20014 -10.0147 1.28324
-5.25555 5.49663 -2.42578
9.909 5.87022 -1.20674
2.24105 -0.496293 -19.0019
-2.26949 -5.72825 10.3652
-5.18664 -1.24639 -10.1779
6.00068 -4.3408 -4.39411
-4.03813 -3.86716 -12.8454
11.8109 -9.37705 0.370892
3.62874 6.77405 13.2673
-2.17555 5.76351 13.6529
11.6039 -8.65893 -9.96629
-4.5814 2.92375 17.6676
-1.82426 -9.03824 10.012
2.17433 -6.9845 10.4789
-7.66244 -9.98921 -0.625033
1.71629 7.95519 6.0138
-5.13756 -0.968949 -13.1423
3.12369 -9.50347 -5.86763
-1.5055 7.05822 5.01712
7.33325 -6.64802 2.27088
9.21585 10.0073 4.43511
7.72525 -9.97741 -2.02011
10.6507 5.46774 2.44586
-5.16252 0.658335 -5.98676
-2.14693 -5.81426 -17.7062
5.19102 5.88817 18.8983
-8.21629 -8.45314 -9.06135
8.41205 -0.447235 18.9972
-0.857609 -6.47417 -12.8254
7.96658 -2.40671 5.50556
7.24141 4.89011 10.0471
-2.08946 -5.82685 13.8429
6.26386 -10.0051 6.5137
-6.15587 1.95291 5.68065
0.490446 -6.88625 -14.7587
-5.29348 10.0109 -4.54907
-2.86913 8.22276 3.74916
5.65029 -5.85643 -16.9322
-8.13661 7.79078 9.82166
-2.05892 9.8207 -9.82828
4.55123 -6.43473 -14.0201
1.32576 -1.522 19.004
-1.03892 -6.3976 15.1436
-2.98982 6.05824 3.60531
-8.20692 2.95738 8.09795
-1.22474 6.31013 -10.4599
-8.21093 -0.208615 -7.56916
5.31261 6.07429 -17.7453
7.52542 4.05201 17.2615
0.522165 -6.88997 15.046
4.23858 -2.86293 5.50299
3.93248 -3.02955 -19.0051
-3.61591 -7.1438 2.57274
4.3919 6.64549 10.2057
7.1859 -4.54105 17.8727
0.553991 -6.49743 -5.87937
5.93959 -5.66164 17.6973
2.24746 9.92917 9.78183
8.99457 5.23314 2.94129
9.96083 -9.98036 9.58066
7.79568 6.59585 0.423641
-0.420856 1.80537 -19.0044
5.01105 -9.99309 -9.44815
5.35918 2.4529 5.46903
-1.45294 -7.3628 5.05241
7.80303 10.004 6.17275
-8.12131 -4.59211 -4.12446
0.845552 10.0091 7.52099
-8.15889 -6.83662 -9.66898
10.346 3.10254 -5.12367
6.30023 -5.36339 13.4708
0.469915 -2.58967 -5.85626
7.87553 9.8342 -0.584639
8.28425 2.68621 17.795
-3.20602 -7.21354 10.0018
11.3567 1.09091 -5.90768
11.7972 2.9372 -5.66379
0.206926 6.83006 -16.4208
5.5911 -0.134134 19.0038
8.3921 2.35021 -11.7308
-2.3067 -5.07984 18.9993
-4.35805 4.56284 9.98711
11.6041 4.5299 9.893
3.06402 -6.89093 -13.337
8.79134 -0.583941 16.4513
-3.61968 3.29534 -18.9929
11.8031 -5.67855 -3.70147
8.76813 -0.713559 14.5994
-5.03871 1.53233 -15.9716
9.31484 0.780542 -5.96155
8.77497 -10.0048 3.4949
-6.06166 -4.71677 3.71788
-5.52407 -2.4682 5.4693
-1.17995 -6.18687 -5.21014
-4.81789 10.01 -2.42761
1.7657 -7.00515 13.6313
-1.19456 8.00517 -10.003
7.48162 3.81672 -18.8528
0.330116 6.85057 -11.1913
6.64859 -1.41318 19.0086
11.8199 -8.43773 7.88206
1.20088 8.46346 10.0063
-4.36992 10.0051 5.09386
11.8031 -3.62346 8.09899
0.408982 -1.50691 -19.0021
5.65713 0.770339 -19.0039
0.145155 -7.62783 5.77079
3.31413 -6.84559 15.4539
1.06798 -10.0167 -8.34424
3.312 6.64049 18.8974
-5.21145 0.0238602 -11.5775
0.603521 -8.24604 10.0026
-1.03476 10.0091 -7.79735
9.7217 -10.0047 6.81055
6.25285 10.01 -8.11502
5.63014 5.85996 13.3572
11.8065 -5.39327 -5.8682
6.68695 -9.73064 -9.9167
6.2797 10.0051 7.43959
-8.2089 9.06139 -5.07518
11.7807 7.90263 9.6247
8.61998 1.60662 -15.9436
1.59021 0.900866 -6.00176
11.65 -9.53674 9.74399
-4.83368 2.53974 -5.44392
-0.775371 -2.41781 5.52697
-3.66106 -1.23756 -5.87411
11.5473 9.96142 7.50844
10.8809 9.78971 -9.92486
2.59049 9.83422 6.04241
7.97146 -4.5779 -3.87553
-3.95021 3.98387 -11.65
4.90012 -2.91934 -5.30776
11.8063 -7.52116 -4.27962
7.71162 -8.01338 -1.02056
4.88786 3.33308 -19.0037
-0.858461 -6.09314 18.9754
-2.97691 5.19639 -10.2299
1.20804 -6.98022 -13.1843
0.196544 0.267281 -19.0059
8.79593 0.352025 -14.3732
6.17435 -6.37516 4.10651
1.42671 -8.4656 -5.978
-4.7965 -0.338457 18.9876
-5.08952 1.24668 -13.3249
-3.34586 10.0138 -5.74268
-1.5597 3.1078 -19.0033
6.41604 -8.25203 3.8018
11.8286 6.87833 -8.95288
2.59957 -9.97617 -9.67992
-8.20637 -7.92335 -7.21437
-8.21202 -3.51322 -7.94276
0.368214 9.97583 9.63656
-3.77985 6.88044 10.0019
-4.27655 5.40518 2.62313
-7.02964 -8.27056 -10.0367
-4.73051 -2.58102 18.2229
8.66211 -5.43912 -2.50715
-3.7957 4.24628 18.0443
9.26679 4.99408 10.0019
-2.90556 3.02413 5.1737
-7.17917 5.44054 -10.0182
-4.31647 -8.40354 -10.0104
6.38755 -7.80268 -10.0056
-8.2173 -1.99749 6.72868
8.49161 2.7308 -5.34443
11.8024 5.87807 6.36111
-7.24207 -3.80487 4.6261
3.72935 6.87749 -10.0877
11.8047 6.36645 -5.10733
11.4227 2.94791 5.28676
-8.14618 -9.71119 7.51793
-6.30558 0.138918 -9.99246
-3.34108 -9.98463 -9.74643
5.89219 -5.60533 -18.6677
-1.07216 -6.91616 10.0006
11.8175 -6.84703 0.293703
7.75411 9.60754 0.940999
-2.41228 1.45062 5.81725
2.02735 -2.77391 -19.0051
-4.16894 -7.67343 -0.573235
10.3962 -4.09619 10.0112
-0.864256 3.4749 5.39175
5.95376 5.63214 -12.4633
9.43812 -8.67408 10.0153
-4.70284 2.60404 15.9566
2.94544 -4.57887 -19.0035
-5.13432 -1.06159 10.4152
-5.58108 5.80292 1.52499
2.5468 -6.97241 -17.3684
-3.44315 -4.63932 14.2352
10.6544 -5.95603 0.642734
5.68356 9.74865 -4.6608
-1.8454 -0.101682 -6.00083
11.8099 8.3 1.43318
-0.692482 1.8652 5.71872
7.66246 3.83486 -13.3243
1.98106 -7.00744 16.3601
6.77169 -5.30119 -10.0753
2.33382 -4.14509 5.97831
11.5176 -5.29623 -9.91637
8.6338 -1.64901 18.1321
11.4888 -9.98601 6.44838
-6.32627 -10.011 3.8482
-3.93468 8.75185 1.64931
-3.3736 8.70991 10.0176
6.43414 0.71003 5.9713
-8.16542 -9.73188 -3.79627
10.215 -0.863096 -5.93791
4.0861 -4.33266 -5.5464
-8.12859 9.75076 -3.31928
11.806 3.05283 -7.8591
0.112058 -3.49044 -19.0029
-5.31606 7.98637 -10.0099
7.89981 5.90815 -1.4415
7.57977 -3.32873 -4.98714
6.92832 4.7641 14.2522
4.04786 -9.03846 -10.0074
-3.62983 -5.06695 10.0155
11.1987 8.20593 -10.0132
8.70116 -1.1736 12.5173
11.8059 7.44709 -3.5086
7.54653 4.12253 -4.3579
-6.53546 10.0268 8.20466
-7.58715 -2.12703 10.0016
-0.58269 0.0392817 6.00131
10.9505 10.0279 4.55233
-0.740516 6.52404 12.6132
3.7006 -1.29993 5.86531
-1.75141 -1.81456 19.0031
2.43773 -1.08457 -5.98735
2.7422 6.94582 16.35
9.72502 -10.0074 4.94142
-1.51712 -2.85416 -19.005
0.488655 9.83857 5.99397
-8.19672 0.11865 -9.40565
-8.05845 -9.83866 3.21529
6.80987 5.12001 3.45902
-4.0262 9.98802 2.84429
9.72917 10.0049 6.47301
0.582556 -3.55836 5.88398
11.7678 9.56699 3.144
11.1731 -3.97897 4.49055
-3.96587 -9.22705 -1.61872
7.97849 -1.80471 -18.9992
11.8091 -1.14256 -8.43178
11.8167 8.50065 4.22826
-1.68483 -4.14939 -4.89167
8.175 2.90062 15.7753
8.51669 7.92505 -10.0146
10.2158 -7.27339 -10.0115
10.2479 7.21226 10.0152
8.55471 0.143212 6.00135
-3.69699 -4.42834 -10.3633
-0.00738648 -5.62644 5.71959
8.1565 -3.63933 -10.0564
2.43213 -9.36725 9.99698
-4.17204 9.60191 -0.830351
0.9653 -9.64365 -9.96863
5.51101 4.10429 -4.71652
7.90158 3.43295 13.9912
-3.04015 -5.05298 -12.1123
6.90062 5.12386 -3.32441
-5.44027 10.0039 6.75642
2.07869 1.61147 19.0021
1.61431 -7.00257 -11.468
8.79155 0.185559 -12.1348
4.86141 8.37837 5.14876
5.83439 -5.72384 -14.6503
-5.7778 10.0126 -0.891187
1.88168 1.63579 -19.0026
11.3414 -9.99744 8.10718
-6.56278 -10.0116 -3.02215
-5.1449 0.905827 17.1692
-6.21018 3.60634 -10.0128
1.83717 7.25664 -6.01193
1.16398 1.52968 5.97552
-3.39699 10.0122 9.13964
3.94665 -6.66341 11.2446
-4.3411 -2.89359 -5.26294
-7.99327 -0.536873 9.84897
4.96922 -7.93648 5.08719
-1.42134 6.23431 -16.6883
4.22379 -7.18296 -10.008
-6.94865 5.27789 -2.84365
11.8032 -7.07012 6.22684
1.70188 -9.99289 -6.58454
-5.58861 5.99341 0.0755302
-8.06329 -5.97191 1.56213
1.9918 7.00008 13.573
9.74227 -5.94819 -0.836814
-1.27462 -4.51274 5.15669
2.02683 4.66341 6.01745
11.689 -2.6958 9.77836
0.0134494 6.77086 13.9349
-2.25917 -5.71476 16.3764
7.16714 -9.71451 2.8355
-4.11994 -8.63054 10.0117
8.80395 -0.0401953 -16.5904
-3.32162 0.103983 6.00234
4.58514 -4.89413 -19.0068
8.02064 2.05059 -18.9901
11.6712 6.124 0.430387
3.91578 -8.14425 10.0005
-3.32156 -8.02458 -3.11213
-5.08996 1.16812 10.8229
7.64909 1.90856 5.69606
-8.17284 9.72786 -7.07225
-3.83182 -9.65313 2.19523
8.50715 -1.9881 10.8163
-2.75723 10.0089 -7.8793
-0.226153 -9.52368 5.66836
8.85993 7.59864 10.0068
7.14137 -8.11233 -2.72
-2.9072 5.38297 10.1196
-2.56464 -2.76927 -5.32029
6.90413 6.78435 -3.15755
3.0548 1.75296 -5.853
5.43104 -6.08624 -10.2694
-7.71716 2.73478 5.38907
-6.18649 10.0081 2.28686
-5.92007 -4.85829 -10.0052
7.04682 -5.88747 -2.92035
9.9968 -2.17774 10.0045
-0.0336253 -10.0107 7.32117
11.731 -2.5656 -9.7183
-2.63666 -4.73064 -18.9801
1.52042 -9.78685 5.97444
10.5018 -5.37153 -2.62257
-3.86787 10.0046 7.10666
8.22291 3.17533 -10.1192
9.18612 -0.466612 10.0082
11.8072 5.63358 8.22654
-5.68662 6.39494 -10.006
9.94058 -4.67702 -10.008
1.17467 6.97394 15.3007
8.78992 0.448451 12.7414
0.495715 -7.56357 -9.99248
-5.16617 1.53171 -10.1069
-0.386189 -8.21491 -5.58555
0.932298 -6.96372 -17.0579
-4.7725 5.05732 -9.99385
2.65319 -2.98623 -5.9392
8.74658 0.773821 10.7937
8.13306 -1.32901 -5.85744
3.61689 8.09505 -5.7056
-4.07832 -8.22746 1.11932
10.0622 -2.7113 -10.0055
-4.74422 10.012 0.88021
-2.24604 10.0046 6.93819
1.72144 7.01464 -17.3577
7.23974 9.68037 2.65001
-8.09377 2.85416 9.79943
-7.4646 -0.729465 -5.95652
-5.13945 -1.01072 17.5161
-6.60999 5.88053 -1.12391
3.92751 6.6768 -11.6491
0.325187 2.77293 -5.8131
4.42445 2.68466 -5.41689
8.54337 1.92121 -13.4547
0.799915 -1.12599 5.94265
5.12364 10.005 -6.86544
11.8049 4.66155 -6.04207
4.88725 -6.27877 12.8189
-4.33432 -3.79404 10.0825
1.32313 7.14861 -10.0706
-4.42526 -3.25547 -17.4163
-4.97778 10.0037 -6.29241
-5.4806 -0.982493 -5.92757
-5.08881 1.27032 12.6548
-1.2666 -1.76447 -5.72947
0.772526 -4.5259 19.0053
6.30042 2.41551 -19.0084
2.26825 -7.79149 -9.99107
-0.960451 6.41056 -18.4671
-1.84267 5.99053 18.0323
2.4166 9.60677 -5.96662
11.8227 -6.83782 -2.44984
-5.63602 -2.70169 9.99504
-1.13574 -6.35227 -14.4009
7.80488 -3.40211 -18.8405
-7.96348 -9.90586 -5.75375
2.11788 6.29624 6.01653
11.6136 -6.00484 -1.12201
3.18723 -6.84909 -10.9992
7.14189 -1.08123 5.91162
-4.89177 -0.563158 5.99002
4.51775 -6.25647 5.3629
-4.54774 3.29528 -10.1145
8.75734 -0.990547 -17.9504
7.92532 -7.74267 10.0067
