-0.449378 -0.617866 -0.314525
0.800705 -0.0252747 -0.31524
0.570464 -0.574253 -0.48298
-0.505137 0.0670906 -0.67055
0.105248 -0.620817 -0.832841
0.44401 0.366123 -0.448628
-0.805669 0.410751 0.759567
-0.771103 0.050414 -0.471088
-0.00621164 0.45352 -0.6689
-0.908082 -0.278407 0.567082
-0.927942 -0.503821 0.302347
0.628633 -0.189451 0.0941218
-0.590657 0.434842 0.622864
0.799938 -0.387493 -0.797286
-0.208393 0.311186 -0.263891
-0.279251 -0.540307 -0.667186
-0.671092 0.652589 0.93217
-0.0860835 -0.0530141 0.202841
0.738325 0.0144044 -0.102501
-0.170121 0.370634 -0.872892
0.704568 -0.25895 -0.015622
-0.746927 -0.724569 0.191596
-0.752328 0.0401981 0.376145
-0.540944 -0.423832 -0.805401
-0.473219 -0.0529367 -0.985708
0.567052 -0.553761 -0.544948
-0.0541427 0.155063 0.804061
0.0447663 0.234868 0.0232399
-0.398182 -0.189339 0.378383
0.724526 -0.0402429 -0.0499318
0.617772 -0.339379 -0.922021
-0.766749 0.19959 0.71005
-0.206679 0.374106 -0.498306
-0.699818 0.0756922 0.1647
0.515807 0.336384 -0.441143
0.884128 -0.191077 -0.85658
-0.722347 0.441481 0.601472
0.348234 -0.706341 -0.588892
0.016728 -0.508668 0.0574769
-0.218025 -0.0680375 0.222393
0.110418 0.108986 -0.927475
-0.359743 -0.585591 -0.238694
0.0587052 0.486994 -0.465031
-0.396608 -0.0822291 0.317079
0.670326 0.186651 -0.601604
0.0475895 -0.628147 -0.82163
-0.389466 -0.455556 -0.977986
-0.841218 0.0287579 -0.0694372
-0.759682 0.230343 0.543355
-0.452079 0.106957 -0.830637
0.118153 0.181053 0.111298
-0.594908 0.745834 0.901273
-0.212996 -0.524121 -0.623604
-0.815645 0.0724047 -0.109277
-0.515324 -0.437654 -0.976697
-0.327363 -0.105341 0.682858
-0.463285 -0.353782 0.561665
-0.891396 -0.433272 0.0503678
0.634588 0.20692 -0.665377
-0.0742614 0.29761 -0.102032
0.716329 0.162401 -0.273134
0.504035 -0.479756 0.00380647
-0.337192 0.244904 -0.361128
0.214211 -0.659957 -0.808075
-0.349102 0.135577 -0.795485
0.246061 -0.0596767 0.262935
-0.485152 -0.543431 0.193925
0.314376 -0.0775965 0.262854
-0.693546 0.329145 0.799654
0.178044 -0.0377695 -0.938756
-0.901562 -0.181692 -0.377438
0.346611 -0.722998 -0.342681
-0.139378 -0.245199 0.194048
0.539879 0.225959 -0.824475
-0.710151 -0.152068 0.61063
-0.0207213 -0.0919004 0.224749
0.0308634 0.10106 0.676174
0.313916 0.104271 0.185803
-0.301769 -0.10964 0.571112
-0.00704947 0.282015 0.822422
-0.226103 -0.360577 -0.98064
-0.586573 0.669786 0.749875
0.348998 0.385817 -0.731664
-0.856963 -0.569564 0.0210061
-0.156336 -0.0208689 0.188505
0.693483 0.135795 -0.147094
0.252782 0.356682 -0.17342
-0.0484383 -0.369856 -0.935072
-0.138745 0.45864 -0.288999
0.217021 -0.703609 -0.193697
-0.292248 -0.0592535 0.512158
0.317708 0.394202 -0.656294
-0.662589 -0.585064 -0.329039
0.232767 0.431748 -0.545902
-0.116068 0.0497148 0.168581
-0.94858 -0.157776 0.0709566
0.564244 0.271099 -0.227098
-0.216792 -0.414828 0.117678
0.41608 -0.676055 -0.353421
-0.974525 -0.224584 0.270712
-0.689104 -0.527553 -0.428092
-0.686863 0.023897 -0.549106
0.476526 -0.581921 -0.772708
-0.746951 0.182409 0.580321
-0.0635687 -0.600528 -0.619882
-0.803776 0.00612786 0.419601
0.371348 0.398758 -0.461612
-0.314049 0.182379 -0.539351
-0.841885 -0.494089 0.0158773
0.280578 -0.533608 -0.995263
0.37245 -0.295449 0.241853
-0.438407 0.161851 -0.526857
-0.94186 -0.27737 0.390653
-0.301971 -0.570454 -0.202693
-0.145456 -0.510926 -0.584508
-0.0629232 -0.672934 -0.493949
-0.428969 -0.0533197 0.378837
-0.0645264 0.483243 -0.542911
-0.0669579 0.00922416 0.643778
-0.913665 -0.265748 -0.303174
0.0250487 -0.686699 -0.658804
-0.543795 -0.588678 -0.148499
0.37711 -0.701439 -0.400445
-0.890995 -0.132096 0.0136845
-0.0132804 0.193521 0.851082
-0.0185555 -0.218867 -0.9377
-0.820157 -0.666993 0.363444
-0.20128 -0.283926 0.197753
-0.236439 0.202444 -0.93014
-0.490163 0.214182 -0.431007
-0.472877 -0.399033 -0.628864
0.13665 0.422732 -0.708407
0.223886 -0.498018 0.116042
-0.0869138 -0.422321 0.11507
-0.327031 0.366591 -0.9377
-0.882453 -0.0640506 -0.34643
0.0929369 0.135475 0.151535
0.142377 0.302268 -0.130942
0.0058087 0.254431 -0.0122788
-0.669605 0.171809 -0.122655
-0.529797 -0.410473 0.584416
0.40198 -0.628863 -0.185535
0.271341 -0.241638 -0.995135
-0.237778 0.38073 -0.895515
0.217219 -0.598788 -0.861412
-0.406659 -0.118355 0.385544
0.157322 -0.75136 -0.399915
-0.958569 -0.373427 0.298015
0.0143248 0.2033 -0.931098
-0.865785 -0.66113 0.31497
-0.67071 -0.649817 0.399665
0.21361 0.410681 -0.19837
0.0103273 -0.696252 -0.206625
-0.741355 0.397453 0.534761
0.432371 0.170117 0.0908851
0.280262 -0.686423 -0.769772
-0.295563 -0.570718 -0.462791
-0.8969 -0.1907 0.0078
-0.222174 -0.000359417 -0.931884
0.00289745 0.389596 -0.804011
0.21871 -0.440921 -0.932477
0.068511 -0.657314 -0.164174
-0.502989 0.113394 -0.88156
-0.384166 0.26194 -0.189306
-0.844305 -0.161836 0.581084
-0.638621 0.0672168 0.416993
0.918813 -0.237388 -0.814593
-0.0354732 0.0650165 -0.929378
-0.740794 -0.236614 0.614098
0.571224 0.300398 -0.446368
0.81027 -0.239587 -0.45109
-0.61918 0.0067402 -0.983086
0.552042 0.0960231 0.0757885
-0.868478 -0.0772432 0.0217843
0.645159 0.0947808 -0.858415
-0.897515 -0.356921 0.556141
0.72694 -0.312367 -0.0761567
-0.443041 -0.193763 -0.973698
-0.686022 0.0455946 -0.971443
-0.0697111 -0.705614 -0.88046
0.258822 -0.201658 0.270164
-0.227178 0.117067 0.132435
-0.681335 -0.0256111 0.624199
-0.356121 -0.568112 -0.49496
0.395867 0.292247 -0.117443
-0.61596 -0.535804 -0.468844
-0.101 0.488281 -0.487236
0.134121 -0.316658 -0.937677
-0.897491 -0.0207385 -0.174836
0.551472 0.149228 0.0174635
-0.607916 -0.114239 -0.644203
-0.699065 -0.53376 -0.0812304
0.805902 -0.335807 -0.848433
0.653654 0.1077 -0.759632
-0.262867 -0.253985 0.222373
-0.625208 0.554179 0.822973
-0.247998 0.148195 -0.643491
-0.443194 0.113125 -0.681706
0.789679 -0.306549 -0.461751
-0.940556 -0.373683 0.491947
0.0496891 0.325726 0.97214
-0.665939 0.00481345 -0.857435
0.985244 -0.226285 -0.600633
0.310685 -0.330346 0.242101
-0.454349 -0.227435 -0.708893
0.490545 -0.521984 -0.810846
-0.477537 -0.412038 0.550782
0.267553 0.424301 -0.600767
0.21029 -0.732589 -0.63643
0.103678 -0.179381 0.255479
-0.883581 -0.391532 -0.280578
0.468748 0.332583 -0.766408
-0.571104 0.0975309 -0.907024
0.583073 -0.505308 -0.740693
-0.411238 -0.00281243 0.489214
-0.0837821 0.457511 -0.592712
0.272831 0.203347 -0.98926
-0.173524 0.219882 -0.927817
0.0256622 0.0494498 -0.929796
0.529132 0.284421 -0.719668
-0.957688 -0.225425 0.0607575
0.14367 0.374369 -0.833719
0.426764 -0.564873 -0.900329
-0.572457 0.101166 -0.972072
-0.487903 -0.473668 0.328909
0.955596 -0.293156 -0.627888
-0.766013 0.369182 0.800892
0.694118 -0.375281 -0.0846218
-0.610107 -0.00454938 -0.823934
-0.077541 0.4964 -0.419555
-0.466764 -0.252815 -0.822235
-0.514367 -0.0844375 0.638688
-0.211209 0.414609 -0.426021
-0.173871 -0.339179 -0.94166
-0.31052 0.19954 -0.978136
0.480655 -0.00308876 0.185337
0.823705 -0.129135 -0.498819
-0.155711 0.402545 -0.243167
-0.448536 -0.431049 -0.696191
-0.30328 0.21125 -0.465483
-0.65562 -0.465313 -0.958732
0.756845 0.102856 -0.276389
-0.492562 -0.342695 -0.809178
-0.173527 -0.488665 0.0178507
-0.700786 0.251034 0.769247
-0.734139 0.342037 0.593387
0.137321 -0.751805 -0.511931
-0.747034 0.0409165 0.457769
-0.0777235 0.349413 -0.966322
-0.880068 -0.143238 0.533223
0.464249 0.356987 -0.38933
0.0537719 -0.292719 -0.937702
-0.641573 -0.603083 -0.264988
-0.804723 -0.687298 0.161807
-0.194417 -0.408981 -0.940413
-0.428743 0.189555 -0.463724
-0.806983 0.470476 0.790325
0.668661 -0.146566 0.0462786
0.838119 0.0911546 -0.717121
-0.795844 -0.72916 0.233575
0.162956 -0.462772 -0.935706
-0.500636 0.174108 -0.495597
-0.912894 -0.157005 -0.0521907
-0.143894 0.197861 0.0473572
-0.708115 0.26818 0.494262
-0.152527 -0.385047 0.127467
-0.837659 -0.0907915 0.549646
-0.908944 -0.128721 -0.327641
0.141556 0.403841 -0.776244
-0.680937 0.104199 0.0377568
-0.725092 0.635117 0.866173
0.134286 0.461147 -0.259445
-0.0152068 -0.0870789 -0.934816
-0.110505 0.105665 0.834266
0.340355 0.352614 -0.815817
0.453041 0.0619633 0.165711
-0.579041 -0.633137 0.124972
-0.657551 0.113866 -0.500486
-0.662417 -0.570805 -0.134315
-0.384898 0.265923 -0.881827
-0.325632 -0.403401 0.127697
0.066182 -0.568649 -0.985695
0.303197 0.412899 -0.548581
-0.822677 0.0738858 -0.345785
0.404761 -0.235975 0.242067
0.411058 -0.642662 -0.669705
0.203956 -0.0807686 -0.98479
-0.58726 0.367754 0.587518
-0.726111 -0.0329336 -0.900579
-0.122036 0.363578 -0.744601
-0.208706 0.222917 0.00286703
0.667041 -0.295137 0.0366799
0.153882 0.0382724 -0.929502
0.346477 -0.567818 -0.983134
-0.668452 -0.498767 0.559435
-0.599239 0.724861 0.714875
-0.52601 -0.12902 -0.733956
0.644266 0.25335 -0.352244
-0.593303 0.0366231 0.563806
-0.21109 -0.597217 -0.244608
-0.610109 0.457 0.769767
0.271042 -0.746165 -0.345784
-0.544978 0.162554 0.0682883
0.420251 -0.164437 0.238532
-0.858742 -0.152908 -0.440668
0.860721 -0.334945 -0.795678
0.183526 -0.734978 -0.559997
0.0400902 0.17662 0.107202
0.809074 -0.201547 -0.378948
-0.783248 0.117334 -0.139704
-0.673295 -0.498886 -0.484145
0.801619 -0.274862 -0.387874
0.428695 -0.448498 0.113639
-0.777348 0.021834 0.064709
-0.216437 -0.597912 -0.835509
-0.111579 0.225066 -0.934363
-0.501256 0.127441 0.134353
-0.172691 0.437942 -0.487743
0.397371 -0.412925 0.171971
-0.919709 -0.0698001 -0.284731
0.47255 0.363742 -0.571475
-0.575129 0.380833 0.661701
-0.584886 -0.546155 0.406429
-0.654222 0.083489 0.102098
-0.816927 -0.141624 -0.498627
0.448507 0.337828 -0.263081
-0.134319 -0.139942 -0.937827
-0.901145 -0.256803 -0.374408
0.408838 -0.606311 -0.118152
-0.784326 -0.505264 -0.158304
0.482457 -0.520901 -0.942526
0.038317 -0.0280015 -0.933313
0.160677 -0.699893 -0.700933
-0.912636 -0.403179 0.367724
0.423889 -0.270785 -0.994302
-0.934713 -0.155483 -0.114401
-0.829939 -0.212105 -0.492321
-0.374552 -0.379121 -0.984454
-0.137594 -0.532321 -0.957359
0.157674 -0.611338 -0.847653
0.532939 0.166803 -0.851561
-0.779832 0.0874163 -0.402756
-0.887401 -0.330012 -0.329398
0.540617 0.198667 -0.0463952
-0.650498 0.555422 0.572861
-0.543032 -0.57998 0.169521
-0.699918 0.590924 0.593074
-0.106276 -0.656747 -0.284355
-0.858751 -0.407157 -0.0727519
0.421524 0.122885 0.141084
-0.541963 -0.265869 0.607113
-0.501362 -0.181829 -0.788533
-0.740954 0.256883 0.609912
-0.751302 0.0554977 0.303807
-0.377393 0.168983 -0.572809
0.525519 -0.368573 0.139157
-0.470743 -0.27975 0.580511
0.110283 -0.746752 -0.461552
0.0491844 -0.749585 -0.330303
-0.670823 -0.523278 -0.00721331
-0.599617 -0.580088 -0.898285
-0.238161 0.343489 -0.440146
-0.49289 0.0997179 -0.608234
-0.10552 -0.599231 -0.217451
0.114692 0.48627 -0.410976
0.411407 -0.549711 -0.061098
0.916127 -0.30032 -0.768522
-0.17136 -0.0141845 0.581263
-0.459446 -0.363211 0.48818
0.178326 0.14586 0.143548
-0.770962 0.0519723 0.139877
0.635488 -0.456484 -0.752348
0.80916 -0.0844408 -0.343846
0.616199 0.108836 -0.796095
0.634277 -0.498015 -0.689274
-0.210536 -0.662765 -0.894215
-0.802358 -0.365177 0.591961
-0.196218 0.292699 -0.637387
0.411317 -0.331068 -0.994437
-0.570181 -0.0839448 0.594128
-0.317833 0.149423 -0.610728
0.653056 -0.437204 -0.0945406
0.717952 -0.176013 -0.948373
0.215315 0.177684 -0.937355
-0.435301 0.208183 0.0261611
0.312555 0.249128 0.0309844
0.627475 0.255061 -0.426684
-0.457441 -0.491005 0.251493
0.0681088 -0.0954197 -0.935121
0.358361 0.0301737 -0.996717
-0.207144 -0.350655 0.166059
-0.63363 0.367777 0.526232
0.142117 -0.497039 0.113033
-0.0869493 -0.0732972 -0.9339
0.347 0.2828 -0.9767
-0.803317 -0.627001 0.0275565
-0.957702 -0.159589 0.28879
-0.829544 0.0849917 -0.181449
0.757116 -0.377107 -0.455163
-0.753522 0.305435 0.538834
-0.954298 -0.576964 0.215608
-0.858621 -0.519026 0.487202
0.495253 0.351486 -0.506841
0.672735 -0.219507 0.038688
-0.0251503 0.234241 0.749303
-0.694284 -0.69001 0.33457
0.411562 0.313776 -0.199462
-0.352412 -0.5601 -0.842138
0.503133 -0.0710943 0.189352
-0.112864 -0.527032 -0.696265
0.0183796 0.193602 0.78699
0.0828681 0.301283 0.892018
0.631483 0.160972 -0.725447
-0.0253348 -0.168131 0.228111
-0.617316 -0.519618 -0.862084
0.340322 0.406918 -0.337832
0.899391 -0.345278 -0.635679
0.543761 0.0478982 -0.946799
0.0860265 -0.72311 -0.634632
0.734335 -0.254327 -0.927026
0.154471 -0.623373 -0.907912
0.656064 -0.0721994 0.0576821
-0.44834 -0.452586 -0.606202
0.637258 -0.369158 0.0288905
-0.498337 -0.542573 -0.801761
-0.897181 -0.0116213 -0.248266
-0.473695 -0.00600175 0.371543
0.753873 -0.28166 -0.134734
-0.617999 0.195476 -0.144475
-0.575417 0.0342797 0.493859
-0.771714 0.118756 0.592562
-0.173586 -0.589927 -0.981787
-0.443188 -0.306518 0.436479
-0.37608 0.223883 -0.0135944
-0.474693 -0.0391789 0.669108
0.760077 -0.0544757 -0.113932
-0.110295 0.0715693 0.912159
0.410434 0.0188991 0.210233
0.430253 0.386064 -0.515678
0.526396 0.238996 -0.10306
-0.313854 0.112404 0.697856
-0.505511 0.0694841 -0.811576
0.706282 -0.0968912 -0.956062
-0.567157 -0.177634 -0.826157
0.611696 0.111316 0.015028
-0.756199 -0.507504 -0.0906298
-0.490903 0.122905 -0.55383
0.684245 -0.0268761 0.00766456
0.803134 -0.240475 -0.320822
-0.498008 -0.248399 -0.984202
-0.0674128 0.24895 0.820577
-0.0610859 0.387428 -0.776609
-0.608753 0.158099 0.658724
0.499306 0.156153 0.0639327
-0.249671 -0.501377 -0.00558125
-0.289275 0.0250945 -0.950987
-0.250122 -0.588115 -0.330888
-0.369142 -0.220286 0.306939
-0.778276 0.141485 -0.207185
0.271627 -0.421475 -0.935544
-0.945701 -0.272549 -0.222573
-0.731993 -0.646651 0.429253
-0.883582 -0.0233332 -0.0957647
-0.18958 -0.531309 -0.0477967
-0.214395 0.197932 -0.762283
-0.751925 0.0693577 0.0205962
0.769171 -0.343732 -0.518981
-0.645221 0.297996 0.49928
-0.627002 0.0638174 -0.879324
-0.533771 -0.507782 0.508439
-0.139471 0.234483 0.0055355
0.542661 -0.0234999 0.148997
0.821624 -0.0686056 -0.512769
0.159323 -0.737361 -0.243042
-0.835594 -0.578421 0.4517
0.17355 0.276155 -0.989341
0.0809237 0.190167 -0.930002
0.210024 -0.706782 -0.75491
-0.620735 -0.150795 0.605637
-0.912286 -0.509614 0.0421199
0.319386 0.360426 -0.198253
0.895843 -0.0832408 -0.512549
-0.574861 -0.621143 -0.268177
-0.138597 0.20728 0.822851
0.024198 0.10406 0.147905
-0.339739 0.0206402 0.791187
0.385727 -0.100181 0.248534
-0.467692 -0.359949 -0.726116
-0.448314 -0.510558 0.0141638
0.580431 -0.239972 0.137161
0.699214 -0.100713 -0.00135733
0.232573 -0.748905 -0.410739
-0.116915 0.34886 -0.815138
-0.75552 0.536008 0.888088
0.27935 -0.556897 -0.0841495
0.458962 -0.678956 -0.409672
0.279706 0.378905 -0.783719
-0.270591 -0.383966 0.158154
-0.560452 -0.355883 -0.844965
-0.835185 -0.405152 -0.398672
-0.888351 -0.00724877 -0.317614
-0.244044 -0.526729 -0.804599
0.285954 -0.667123 -0.177323
-0.349862 0.256183 -0.131845
0.768393 -0.00184954 -0.168143
-0.794035 -0.542801 0.510441
0.238027 -0.33526 0.243442
-0.341895 0.213403 -0.817052
-0.217422 0.183065 0.0738571
-0.634479 0.739736 0.804638
0.559242 -0.482109 -0.029653
-0.273143 0.203141 0.0507673
-0.450147 -0.485309 -0.976724
-0.0489629 0.275963 -0.0311389
0.560894 0.251692 -0.766213
-0.227504 0.375892 -0.364225
0.689386 -0.462698 -0.205391
0.117577 -0.633254 -0.974455
0.523311 -0.583455 -0.585831
-0.662529 0.205832 -0.29787
-0.427755 -0.331163 0.368848
0.174692 -0.323619 0.246222
-0.867362 -0.676948 0.199016
-0.419023 -0.535692 -0.506149
-0.258063 0.213394 -0.512413
0.341793 -0.629237 -0.167558
0.271573 0.447033 -0.432363
-0.602012 -0.604576 -0.341729
-0.40414 -0.604593 -0.182933
-0.737442 -0.251892 -0.578671
-0.154435 0.0325717 0.87455
0.539162 -0.438723 0.04719
-0.761544 -0.599028 0.476952
0.0719923 0.383577 -0.827802
0.0454555 0.337094 -0.924248
0.0902733 -0.757759 -0.388208
0.446427 0.207293 -0.923341
-0.781002 0.439806 0.822934
0.254239 0.260806 -0.0276976
0.781794 -0.247816 -0.193511
0.0457623 -0.496907 -0.931544
-0.533161 -0.140747 -0.675221
-0.611408 -0.0405777 -0.629113
-0.285786 0.157954 0.105984
-0.13898 -0.46326 -0.93
-0.0768315 0.269489 -0.988259
-0.436652 -0.0963018 0.687543
-0.0209689 -0.396511 0.157362
-0.646131 -0.46905 -0.896576
0.00794225 0.424818 -0.733888
0.802939 -0.0298961 -0.398402
-0.198009 0.0932099 0.587629
0.60763 0.0608215 0.0580341
-0.413519 0.0121175 -0.985015
-0.438859 -0.491854 0.162093
0.00264701 -0.543154 -0.0017347
-0.295053 0.0677745 0.819856
-0.408222 0.252881 -0.332985
-0.615337 -0.702305 0.125739
0.875124 -0.104804 -0.861483
-0.616059 0.0809166 0.151705
-0.663454 -0.156181 -0.630535
0.4286 0.0598995 -0.986939
0.262688 0.0923199 -0.9364
0.370848 -0.671502 -0.720135
0.580076 -0.560225 -0.205708
-0.734095 0.17347 -0.332423
-0.740347 -0.608456 0.0096792
-0.0461275 -0.711374 -0.271566
-0.954488 -0.550158 0.0891216
0.280457 -0.709457 -0.228836
-0.578657 0.161281 0.595955
0.799771 -0.134915 -0.234415
-0.770668 -0.192012 -0.544748
-0.928912 -0.0697872 0.151431
-0.617066 -0.56577 -0.960155
0.95796 -0.249591 -0.74726
-0.628019 -0.568859 -0.403933
-0.537193 0.0473453 0.340385
0.598877 -0.48302 -0.0967695
-0.631062 0.209356 0.716861
-0.614637 0.176261 0.478004
-0.516814 -0.50678 -0.9767
-0.274801 0.151973 -0.927227
-0.0145435 0.179494 0.675962
-0.666791 -0.703679 0.0719451
-0.655064 -0.356927 0.610835
-0.29951 0.10235 -0.931726
0.796442 -0.0122428 -0.547548
-0.533624 -0.627607 -0.898955
-0.136169 0.116736 0.616238
0.656588 0.0462544 0.0105612
0.127639 -0.749656 -0.316505
-0.376715 0.0647628 0.692945
-0.296139 0.232336 -0.00393736
-0.000887126 0.491643 -0.421587
-0.953329 -0.286894 0.453587
0.716226 0.0687211 -0.87425
-0.470472 0.0271426 0.307941
-0.0989603 -0.317928 -0.93765
-0.429482 0.14761 0.136598
-0.400509 0.251075 -0.0811143
0.48236 0.08393 -0.938713
0.489808 0.341559 -0.703537
-0.863167 -0.640981 0.0563276
-0.266094 -0.5851 -0.259799
-0.502795 -0.600009 -0.841025
-0.646111 0.400238 0.797139
-0.045188 0.0856356 0.162371
0.177192 0.328098 -0.870182
0.875429 0.0558962 -0.76099
-0.60154 0.0972161 0.609623
0.949256 -0.253079 -0.551934
0.338433 -0.193089 -0.990953
0.698174 0.084476 -0.0962417
0.620086 -0.381022 -0.86298
-0.601163 -0.586703 0.303414
-0.404377 -0.0628525 -0.987788
-0.547228 -0.29825 -0.981349
-0.624759 -0.481464 -0.527194
0.309683 -0.146111 0.268988
-0.680674 0.154755 -0.0688685
-0.598562 0.112972 0.463366
-0.668342 -0.00832452 -0.5953
0.193242 0.428378 -0.66902
-0.214563 0.18662 -0.695525
0.308098 -0.473756 -0.98925
-0.83333 -0.475954 0.535717
-0.653165 -0.406763 -0.95337
-0.12602 -0.0290397 0.639827
0.68782 -0.391456 -0.752198
-0.640338 0.207448 -0.221768
-0.202638 0.267042 -0.982461
-0.00805333 -0.61819 -0.794602
-0.704818 0.345675 0.507856
0.456603 -0.616518 -0.213729
0.267687 0.340307 -0.84367
0.0272019 0.494047 -0.303352
0.200764 -0.143641 -0.987922
-0.20153 0.148677 -0.924227
-0.381557 -0.491824 0.0347748
-0.996786 -0.31348 0.178633
-0.390532 -0.611691 -0.286884
0.436449 -0.506261 -0.000219761
0.110295 0.353569 0.824838
0.806064 -0.155337 -0.311095
-0.487138 -0.178961 -0.704524
-0.577416 -0.456448 -0.566686
-0.610789 -0.641175 0.259629
-0.224078 0.254361 -0.569341
0.524791 -0.604385 -0.222391
0.701025 0.104569 -0.813975
-0.00637285 -0.0241576 0.213691
-0.00808371 0.288475 0.949516
-0.272443 0.079612 0.57224
0.521557 0.274796 -0.165361
-0.156684 0.169125 0.876039
-0.521696 -0.33641 0.595916
-0.251765 -0.0236834 0.687783
-0.837677 -0.0554696 0.432103
-0.932564 -0.325926 -0.168701
0.609365 -0.554278 -0.334655
0.813033 -0.167849 -0.444943
0.36604 -0.438519 -0.993792
-0.51952 0.249805 -0.169675
-0.69079 -0.605502 0.47418
0.654756 -0.147493 -0.978611
0.680405 0.149059 -0.666595
-0.121222 -0.522395 -0.0181036
0.273543 -0.386959 0.211549
-0.685719 0.542651 0.870194
-0.921722 -0.0850348 0.281387
-0.403719 0.178518 0.0797027
-0.0111259 -0.509849 -0.929976
-0.198291 0.375145 -0.968626
0.12092 0.333467 -0.918944
0.281379 0.430554 -0.289579
-0.595031 -0.515093 0.540089
-0.556869 -0.570446 0.24551
0.285404 -0.00461208 0.24899
-0.657567 -0.692988 0.260005
0.204437 0.443197 -0.263096
-0.580718 0.750205 0.780706
-0.207587 0.0213174 0.735909
0.384344 0.358127 -0.23473
-0.716889 0.189714 0.482424
-0.287791 -0.558538 -0.128288
-0.580599 0.181771 0.000527465
0.0367961 0.303003 -0.985737
-0.265997 -0.529489 -0.0678054
0.0815841 -0.649092 -0.891996
0.963659 -0.0241251 -0.675331
-0.636226 0.0304647 0.619689
-0.592543 -0.184706 -0.658819
0.240689 0.245331 0.0555344
0.527837 0.324753 -0.365791
-0.866795 -0.677912 0.124922
0.510966 -0.385588 -0.962869
0.678688 -0.496336 -0.446251
0.664789 0.0491894 -0.920673
-0.149022 -0.493163 -0.657771
-0.859389 -0.110678 0.472879
0.0402713 0.27426 0.761715
0.497357 0.191686 0.0015175
0.87989 0.0696435 -0.675199
-0.467598 -0.564893 -0.978012
-0.583887 0.68915 0.836346
0.35074 -0.577399 -0.917565
0.366796 0.412921 -0.529764
0.82344 -0.353793 -0.62182
-0.140737 -0.315372 0.160259
0.233627 0.115608 0.174852
0.686568 -0.477307 -0.51628
-0.575931 0.235958 0.581059
0.712749 0.124323 -0.612034
-0.628989 0.336804 0.763187
-0.617018 0.136274 0.0537506
-0.79351 -0.513987 -0.285192
-0.0584788 -0.63919 -0.984388
0.781582 0.0241084 -0.367879
0.444808 0.290196 -0.828281
-0.686729 0.69923 0.896685
-0.527976 -0.423573 -0.599672
-0.668989 0.133992 0.453043
-0.133845 -0.702778 -0.889552
0.510808 0.317423 -0.593041
-0.137826 0.264545 -0.983723
0.0134993 0.482831 -0.539696
-0.71351 0.0764042 0.244872
-0.911033 -0.0388937 0.23459
-0.684925 -0.649469 0.031273
-0.781736 6.31247e-05 0.501501
0.412362 0.384976 -0.591426
-0.309774 0.128058 -0.680093
0.116957 -0.109981 0.254859
-0.583951 0.0480921 0.429776
-0.401321 -0.177223 0.515206
-0.159329 0.061625 0.794325
0.79089 -0.27842 -0.259561
-0.452102 -0.410515 0.356296
0.226736 -0.580578 -0.123861
-0.0177002 0.332324 -0.969069
0.305661 -0.721778 -0.287763
0.540866 -0.013812 -0.983414
-0.729848 0.477073 0.857619
0.745236 -0.170129 -0.0785109
-0.0796177 -0.207436 0.210408
-0.842628 -0.454807 -0.292823
-0.648885 -0.229648 -0.637105
-0.820921 -0.285508 -0.48097
-0.692651 -0.733741 0.131712
-0.213471 -0.543498 -0.554256
-0.935174 -0.281448 -0.114223
-0.491481 -0.530325 0.119505
0.693842 -0.419533 -0.14757
0.0581751 -0.715649 -0.523399
-0.583656 0.172432 0.530288
-0.626631 0.0778796 -0.545846
0.809817 -0.0873177 -0.438989
-0.607692 -0.0759849 -0.982212
0.678354 -0.300869 -0.932879
0.688924 -0.333508 -0.0193944
0.608435 0.262331 -0.498982
-0.668393 -0.211488 0.614804
-0.49076 0.0162095 -0.984388
-0.462072 -0.0217707 0.451294
-0.487584 0.0665882 -0.741022
-0.572532 0.301963 0.629373
-0.433859 -0.242219 0.477775
-0.289548 0.119659 0.16696
-0.0318495 0.352597 -0.904517
0.679788 -0.443626 -0.696718
-0.589607 -0.419677 -0.976315
-0.156881 0.196936 0.750148
-0.638376 0.274213 0.74984
-0.119164 -0.39272 -0.934642
-0.850913 -0.409378 0.561748
-0.424211 0.226889 -0.396125
0.413144 -0.673025 -0.596627
-0.176209 0.269461 -0.0485912
-0.920359 -0.0888541 -0.140395
0.740697 0.0946034 -0.558571
-0.675132 -0.0835514 -0.610882
-0.065559 0.0750926 0.610879
-0.251149 0.110526 0.833992
-0.160448 -0.655482 -0.837242
-0.714665 -0.443314 0.584568
0.0677153 0.0102081 0.223063
0.788863 -0.078073 -0.185251
-0.0646882 0.0138932 0.190602
-0.575174 0.075958 0.219608
0.486827 0.108356 0.114743
0.339189 0.0393471 0.222764
-0.891287 -0.396599 -0.147166
-0.72686 0.112903 0.469768
0.464096 0.222796 -0.05486
-0.924923 -0.44636 0.326404
0.56929 0.274512 -0.575231
-0.277835 -0.576386 -0.399196
0.915161 -0.303274 -0.570141
-0.451446 -0.400515 -0.978
-0.574258 -0.531759 0.332772
0.644836 0.225978 -0.548643
-0.714956 0.517211 0.709175
0.995139 -0.169478 -0.64991
-0.729217 0.470398 0.541924
0.0871767 -0.529405 0.050545
0.766218 -0.318807 -0.198728
0.811558 0.0874745 -0.780863
-0.180907 -0.555605 -0.371732
-0.934487 -0.347806 0.422067
-0.938707 -0.134161 -0.258734
-0.628164 -0.597645 0.444933
-0.769697 0.154104 -0.275304
-0.272127 0.273319 -0.345368
-0.708649 -0.723694 0.240245
-0.183847 0.00207425 0.672462
-0.209048 0.0367638 0.554344
-0.516868 0.104053 -0.982365
-0.442635 -0.501591 -0.554766
-0.892627 -0.065474 0.339346
-0.674543 0.681727 0.829971
-0.72774 -0.370816 0.605489
-0.402013 -0.124399 -0.965468
-0.314742 -0.149487 -0.965436
0.285604 -0.598216 -0.139083
-0.989959 -0.244255 0.197176
-0.690561 0.177223 -0.188207
0.176819 0.359659 -0.158881
0.112622 -0.510164 -0.957223
-0.855092 -0.694081 0.257567
0.629391 -0.261184 0.0898583
0.576875 0.261544 -0.659971
-0.173992 0.457573 -0.374099
-0.0328556 -0.683846 -0.555054
-0.557296 -0.585796 -0.390123
-0.206328 -0.500993 -0.763324
0.177965 -0.459475 0.161462
-0.585321 -0.255161 -0.652113
-0.663688 0.0763958 0.293154
-0.695919 -0.44386 -0.516054
-0.394923 -0.508263 -0.591618
0.322591 0.324233 -0.886164
0.69302 -0.485423 -0.269262
0.016265 0.34211 -0.860592
-0.364997 -0.0539289 0.257997
-0.426707 -0.0253587 0.71654
-0.461137 -0.298043 -0.764765
0.181065 -0.250341 -0.943869
0.611701 -0.276602 -0.962078
0.410861 -0.206013 -0.984164
-0.76325 0.148754 0.532152
0.304048 -0.72282 -0.409545
-0.233835 -0.0388682 0.548882
-0.360158 -0.0523545 0.470382
0.37135 -0.51351 -0.0106982
0.235683 -0.736079 -0.52717
0.0829325 0.430987 -0.198734
-0.648419 -0.557225 0.515076
0.479118 0.150123 -0.892229
-0.0404165 0.401424 -0.189137
0.330571 0.2704 -0.0980025
0.440147 0.2791 -0.890176
-0.970652 -0.51766 0.154376
0.595156 -0.573093 -0.412512
-0.0766179 0.107186 0.943958
0.305365 -0.0241664 -0.994315
-0.245137 0.248195 -0.0522078
0.276106 0.0393545 -0.986029
0.208891 -0.541527 0.0476033
0.220717 0.030605 -0.93821
0.0871502 0.232177 0.779882
0.771764 0.0790816 -0.837384
0.977814 -0.243617 -0.678293
-0.480962 -0.34919 -0.652977
-0.16891 0.317879 -0.212794
0.553248 0.313568 -0.519263
0.150747 -0.527378 0.0632111
0.554694 -0.327054 -0.956916
0.500847 -0.42418 0.111152
0.258365 0.282171 -0.0869633
-0.523329 0.0529617 0.266193
-0.41983 -0.61581 -0.955781
-0.275787 0.0190918 0.52365
0.350132 -0.267807 -0.993258
-0.525559 -0.224518 -0.676615
0.179347 0.324891 -0.952321
-0.345912 -0.528967 -0.712669
-0.308162 -0.367272 -0.983166
0.718979 -0.445574 -0.326658
-0.278447 -0.556524 -0.601739
-0.530965 -0.295452 -0.659627
-0.198223 -0.476587 -0.960381
-0.428171 -0.586446 -0.848958
-0.0999558 0.169548 0.935532
0.159762 0.228568 0.0492505
-0.158513 -0.0332341 -0.931302
-0.403813 0.262015 -0.263515
0.641829 -0.0709006 -0.975459
-0.0854138 -0.66848 -0.817801
0.332697 -0.230563 0.262844
0.586782 -0.527581 -0.147421
0.69804 -0.469792 -0.390221
-0.664507 -0.585068 0.018362
0.73211 0.0114912 -0.911986
0.352352 -0.371587 0.214587
-0.409448 0.218082 -0.982052
-0.865608 -0.609937 0.389586
0.0874041 0.0352757 -0.929999
0.0969677 -0.454049 -0.931075
-0.74348 -0.677657 0.0494899
-0.401709 -0.131926 0.448914
0.720131 0.166658 -0.387094
-0.980222 -0.199741 0.129779
0.0830092 0.357946 0.93631
0.920373 -0.0648091 -0.813185
-0.747121 -0.00566324 -0.511076
-0.212203 -0.50677 -0.691702
0.372404 0.205206 0.0761562
-0.13083 -0.617872 -0.792033
-0.692025 -0.056949 -0.84577
-0.644099 -0.179544 -0.977534
-0.438282 -0.222717 0.548247
-0.728526 -0.120268 -0.892776
-0.399297 -0.545772 -0.978002
-0.502263 -0.497424 0.0531194
-0.140623 0.366482 -0.962482
0.543595 -0.493658 -0.796921
0.432353 -0.490595 -0.991055
-0.322025 0.281822 -0.828773
-0.567369 -0.0524683 -0.79093
0.440348 0.132369 -0.961131
-0.74768 -0.717194 0.107668
-0.955971 -0.507488 0.230421
-0.334509 -0.108982 0.612038
0.839602 -0.378007 -0.671998
0.478259 -0.565391 -0.0951727
-0.804823 -0.711474 0.306971
0.704628 0.165815 -0.538276
-0.501307 -0.448794 0.408212
-0.913134 -0.583055 0.0523908
0.110701 0.312483 -0.975209
0.100559 0.488769 -0.33009
-0.554394 -0.557129 0.10114
-0.0838791 0.180938 0.0779314
-0.54435 -0.565367 -0.97615
0.705764 -0.44932 -0.577344
0.438679 -0.0870574 -0.982746
-0.57591 -0.624729 0.202419
-0.272081 -0.522842 -0.732884
0.438789 0.207532 0.0246526
-0.718571 -0.564761 -0.282899
-0.147562 -0.170207 0.204075
-0.509999 0.201632 0.0165141
0.483639 -0.0508939 -0.997384
-0.758334 0.0729966 0.640648
0.465258 0.350805 -0.328579
0.213467 -0.217876 -0.98625
0.202535 0.22057 -0.98714
-0.1355 -0.199271 -0.940999
-0.682025 0.189637 -0.372558
-0.743096 -0.724946 0.294434
-0.65996 0.69893 0.687225
0.388393 0.377553 -0.660832
-0.824373 -0.0472338 0.496339
0.376161 -0.384233 -0.991414
0.323443 -0.398021 -0.948667
0.226646 0.447693 -0.333726
-0.28472 0.173874 -0.789314
0.305121 0.207461 0.0944777
-0.232299 0.0457686 0.858489
-0.922033 -0.628713 0.10159
-0.0968947 0.222891 0.766706
0.146611 0.180081 -0.929297
-0.105091 0.488598 -0.356645
-0.981495 -0.3762 0.22824
0.0503525 0.32401 0.822725
0.195009 0.25855 0.00612256
-0.590606 -0.322609 0.610315
-0.23186 -0.459857 0.0504232
-0.244848 0.328784 -0.986886
-0.835962 -0.411794 0.0108327
-0.0838928 -0.356431 0.157007
0.297633 0.308788 -0.95766
-0.815522 -0.483655 -0.223022
0.582437 0.27942 -0.380384
0.529806 -0.49643 -0.876106
0.0408647 0.261298 0.93309
-0.0745002 -0.625005 -0.550118
-0.982451 -0.377849 0.159992
-0.0240865 -0.292745 -0.9377
-0.866591 -0.0163582 0.297607
-0.657728 0.478263 0.82432
-0.0159706 -0.668969 -0.835021
-0.365662 -0.337378 0.251499
0.684101 0.0965357 -0.721016
0.682949 -0.0169085 -0.951386
0.0329743 0.221917 0.707967
0.794155 0.00904854 -0.881127
-0.583072 -0.21103 0.611057
-0.153861 -0.269997 -0.944247
-0.753055 -0.686861 0.37095
-0.43053 0.136971 -0.905831
0.0680883 -0.558169 -0.0105147
-0.0806977 -0.502309 -0.929652
0.862455 -0.0226235 -0.540653
-0.856917 -0.0350606 -0.406526
0.991524 -0.156326 -0.578014
-0.753317 0.392399 0.700787
-0.393322 0.128637 -0.83294
-0.167295 0.100372 -0.927369
-0.314741 -0.531167 -0.788303
0.478282 -0.239602 -0.993049
0.612094 0.014304 -0.957911
0.235673 0.308579 -0.975623
0.733277 -0.412606 -0.518771
-0.00200265 -0.716596 -0.508306
0.272463 -0.522821 0.0674342
0.67569 -0.508256 -0.336117
-0.387501 -0.139754 0.646534
-0.946044 -0.409084 0.10262
0.296453 0.436554 -0.484266
-0.318443 -0.573636 -0.295408
0.469696 -0.60098 -0.150455
-0.278096 -0.00072478 0.818612
0.198761 -0.576732 -0.0578714
-0.81655 0.0958324 -0.25293
-0.908533 -0.377208 -0.211308
-0.695219 -0.578464 -0.210114
-0.50868 0.13619 -0.946785
-0.703726 -0.180049 -0.956133
-0.108916 -0.596354 -0.982019
0.476507 -0.160697 -0.979206
0.7542 -0.35619 -0.645331
-0.578933 0.115472 0.108177
-0.914666 -0.549669 0.356829
-0.557952 0.0925981 -0.557008
-0.147204 -0.590717 -0.262051
0.658969 0.0985412 -0.0375435
-0.437341 0.262674 -0.146424
-0.461122 -0.551862 -0.0474252
0.292661 -0.58458 -0.97576
-0.588596 -0.146075 -0.981645
0.00739547 -0.669791 -0.973696
0.238959 -0.496074 -0.983602
-0.884563 -0.0891415 0.4044
-0.598104 0.522444 0.763228
-0.206126 0.333944 -0.570851
-0.237133 0.313526 -0.321476
0.0566664 -0.0594332 0.237979
0.351792 0.307253 -0.168528
-0.604226 -0.28735 -0.9653
-0.340627 0.00851229 0.49947
0.0106458 0.0437135 0.190656
0.840388 0.0362331 -0.828283
-0.346102 -0.547833 -0.557863
-0.0099378 -0.752883 -0.333391
-0.546509 -0.35553 -0.626003
0.389062 0.320458 -0.855617
0.803086 -0.265522 -0.53223
0.137354 0.0377446 0.227211
-0.746062 0.572359 0.827434
-0.273568 0.130082 0.766031
0.0755932 0.42032 -0.754728
-0.348145 -0.112923 0.264355
-0.62979 -0.270834 0.615408
0.540078 -0.513932 -0.0895746
-0.288579 -0.0636597 0.647256
-0.099057 0.110635 0.75962
0.528034 -0.551387 -0.738553
0.342946 0.399425 -0.25916
-0.591568 0.306127 0.549531
0.649347 -0.532648 -0.390666
-0.0493356 0.314902 -0.159462
-0.470206 -0.12897 -0.98329
-0.96141 -0.588753 0.150346
-0.329444 0.0155701 0.234002
0.696596 0.0284769 -0.0449875
-0.161935 -0.440818 0.0793719
-0.00783902 0.202952 0.92102
0.367544 -0.050694 -0.986094
-0.734148 -0.472717 -0.462202
-0.481785 -0.32413 -0.983162
0.658616 0.199304 -0.483237
0.293586 -0.723121 -0.645921
-0.213548 -0.138697 0.225891
-0.354475 -0.590851 -0.956738
0.921233 -0.141705 -0.825139
-0.311157 -0.233796 -0.965199
0.204687 -0.00319499 0.247117
-0.648876 0.724559 0.939864
0.27954 -0.641666 -0.832784
0.192876 0.462192 -0.404482
-0.176847 0.360315 -0.633583
-0.350121 -0.295676 -0.971489
-0.527919 0.256326 -0.246853
-0.802071 -0.669848 0.0906057
-0.495529 -0.622036 -0.959294
0.331489 -0.11536 -0.99043
-0.607678 0.0637198 0.356548
-0.904495 -0.632285 0.251972
-0.227479 -0.560796 -0.416028
-0.759657 -0.525426 -0.335551
-0.25208 -0.0907185 0.618556
-0.158287 0.0990863 0.142996
-0.89627 -0.0884971 -0.0587831
-0.220078 0.220158 -0.634658
-0.774676 -0.486102 -0.0238755
-0.782007 -0.431815 0.577666
0.238904 0.184474 0.115054
-0.566499 -0.512611 0.0479088
0.722202 0.112525 -0.210033
0.673908 0.168971 -0.211539
-0.608116 -0.453324 -0.832502
-0.808693 -0.0214072 -0.470113
0.399421 -0.4834 0.0569341
0.0692994 -0.66467 -0.774018
-0.0869501 -0.128694 0.211643
-0.063351 -0.155597 -0.936443
-0.790006 0.121544 -0.326929
-0.697637 0.575104 0.666288
0.948136 -0.0450351 -0.746502
-0.472199 -0.596581 -0.184214
0.570209 -0.382267 0.0845938
-0.0536693 0.226189 0.952822
0.326785 0.258557 -0.0362205
-0.117918 0.158414 -0.926135
-0.886692 -0.155181 0.448068
-0.14579 -0.608346 -0.333142
-0.334815 0.266268 -0.984393
-0.428278 0.0220728 0.673669
-0.915498 -0.198863 -0.313312
-0.0536109 -0.562083 -0.963549
-0.321073 0.245231 -0.0698018
-0.986104 -0.307606 0.254285
0.461618 0.352691 -0.645649
0.188951 0.108665 -0.92641
-0.745722 0.12577 -0.0852396
-0.0617968 0.145822 0.883795
-0.510913 -0.466852 0.547827
0.0777916 0.314509 -0.136695
0.83755 -0.225955 -0.884171
-0.595799 0.220624 -0.272342
-0.574987 0.152021 -0.516024
-0.195731 -0.00582447 0.82846
0.400486 -0.600332 -0.795434
0.137715 -0.695654 -0.18212
0.102158 0.372278 -0.161123
-0.894562 -0.0153399 0.165924
-0.269364 -0.320847 0.195854
-0.265248 0.255977 -0.982747
0.740672 -0.328964 -0.892671
-0.359886 0.318728 -0.898773
-0.163307 -0.0915428 -0.935468
-0.421244 -0.263012 -0.974387
-0.344072 -0.0998834 -0.986994
-0.238931 0.0709763 -0.926062
-0.542357 0.0131687 -0.787357
0.656745 -0.390267 -0.808082
-0.473832 -0.139652 0.638631
0.905332 0.00110515 -0.791169
-0.564595 -0.614961 -0.952008
0.435394 -0.548953 -0.829729
0.46153 0.270651 -0.105325
-0.850531 0.0475663 -0.288825
-0.64364 0.606224 0.875761
0.201537 0.0622578 0.216312
-0.384909 0.0591074 0.224078
-0.45267 -0.380114 0.416833
0.0924908 -0.692894 -0.704666
0.95312 -0.187632 -0.782401
-0.0658299 0.482886 -0.296849
-0.87025 0.0418819 -0.219894
0.577431 0.283769 -0.310227
-0.894776 -0.43097 0.51492
-0.599642 0.618423 0.687108
-0.711243 0.510812 0.632076
-0.620012 -0.587611 -0.187157
0.341644 -0.619167 -0.833561
-0.259009 0.308976 -0.811906
-0.620693 -0.651767 0.064732
0.701835 0.156375 -0.452671
0.62396 -0.520158 -0.5201
-0.380826 -0.592794 -0.895154
0.288911 0.296111 -0.1477
-0.48765 -0.611759 -0.367367
-0.423044 -0.434827 0.287601
-0.657063 -0.727261 0.184418
-0.774752 -0.299141 0.608168
-0.7633 0.0751482 0.527505
-0.643968 0.62135 0.607653
-0.739072 -0.0599654 -0.963574
0.866363 -0.277557 -0.842064
-0.0181106 0.0487877 0.65736
-0.0282226 -0.720696 -0.445539
-0.378125 -0.390737 0.14881
-0.0903531 0.444465 -0.230656
-0.374763 -0.59694 -0.348359
-0.146085 0.112385 0.91394
-0.74998 0.457831 0.740275
0.614939 0.248832 -0.607873
-0.401329 -0.53674 -0.0276594
0.58386 -0.575279 -0.270518
0.597421 -0.540173 -0.610534
-0.610944 -0.226745 -0.883703
0.472186 -0.61979 -0.270418
-0.575895 -0.547377 -0.0361987
0.459461 0.298744 -0.158005
-0.273387 0.269277 -0.126614
-0.00551134 0.213519 0.996283
-0.247867 -0.251754 -0.984862
-0.863934 -0.431997 -0.219999
-0.0122644 0.474135 -0.602248
0.763856 -0.207406 -0.133102
0.638158 -0.522254 -0.217904
0.385424 -0.698591 -0.290276
-0.192095 0.28776 -0.155885
0.572542 -0.448473 -0.864441
-0.129658 0.450762 -0.541697
0.787506 -0.314331 -0.32416
0.109802 -0.244243 -0.938993
-0.570587 -0.284104 -0.901603
0.125246 0.23026 -0.984224
-0.239942 0.124468 -0.706406
-0.185986 0.431165 -0.320706
0.413379 -0.554482 -0.970743
-0.771855 0.0580702 0.217411
-0.353091 -0.580265 -0.154791
0.0168365 -0.586873 -0.146133
0.471045 -0.199537 0.213604
0.35114 -0.676265 -0.227234
0.978417 -0.0870466 -0.57621
0.0494673 0.490432 -0.377514
0.334137 -0.50756 0.0613137
0.668132 -0.227477 -0.959262
-0.200832 0.268717 -0.776122
-0.731201 -0.0548831 -0.562185
-0.344043 -0.0123718 -0.985851
-0.787466 -0.434959 -0.427157
-0.714615 0.113528 -0.022107
-0.0516713 -0.585323 -0.109183
-0.72069 0.0604015 0.0866886
-0.97442 -0.167538 0.204851
-0.278627 -0.545857 -0.852288
-0.785208 0.204825 0.636254
-0.351795 0.158276 0.127294
-0.624756 0.199463 -0.416546
-0.601624 -0.589858 0.0582717
-0.646687 -0.239827 -0.958665
0.155459 -0.185327 -0.943282
0.796685 -0.0159417 -0.469813
-0.857659 -0.228695 -0.428783
-0.0639383 0.414095 -0.715088
-0.405311 -0.0030726 0.256311
0.763848 -0.352484 -0.26266
-0.485485 0.248884 -0.102753
-0.669976 0.669126 0.761121
-0.550877 -0.0762709 -0.664656
-0.147909 0.168567 0.675793
0.0283064 -0.70118 -0.595468
-0.0913352 -0.676787 -0.434394
-0.910555 -0.169601 0.389359
0.0753227 0.468055 -0.527756
-0.457374 -0.475757 -0.776279
-0.201792 -0.146662 -0.973536
0.744247 -0.413393 -0.391801
-0.361805 0.223165 -0.425436
0.292873 -0.586354 -0.877364
-0.698572 0.0613662 0.421642
0.577927 0.0232825 0.103708
0.403325 0.178229 -0.9852
-0.746161 -0.128808 -0.949992
-0.397631 -0.434232 0.107443
-0.645456 0.0915788 0.663461
-0.864844 0.00752737 0.233496
-0.266248 -0.116717 -0.988735
0.980037 -0.179566 -0.716129
0.327966 0.158198 -0.990295
-0.249601 -0.423715 -0.980913
0.0593845 0.238649 -0.983741
-0.00448315 0.110238 0.636814
-0.769873 0.0357049 0.572001
-0.200928 0.103393 0.879413
-0.107471 0.274145 -0.0383615
-0.402779 0.276419 -0.969803
0.954625 -0.118646 -0.526931
-0.455853 0.0700084 -0.984752
-0.264209 -0.491275 -0.983132
-0.75288 -0.497363 -0.398596
-0.722373 0.673314 0.936838
0.594825 0.0733936 -0.90323
-0.697805 -0.297365 0.616493
-0.930217 -0.417861 0.436791
-0.477278 -0.410044 -0.77408
0.266501 -0.729137 -0.586353
-0.367868 -0.29097 0.293388
0.770743 -0.126284 -0.131869
-0.106934 0.377598 -0.197653
0.115815 -0.356137 0.22437
0.841679 -0.378482 -0.744899
0.112455 -0.0363201 -0.93321
-0.454109 0.0356342 0.237387
-0.859887 -0.340568 -0.388476
0.267431 0.0576861 0.218878
-0.59531 0.396317 0.733442
0.143682 -0.676862 -0.777884
-0.575577 -0.223186 -0.981915
-0.281814 -0.560848 -0.530021
0.585312 0.175465 -0.787248
-0.433898 0.137878 -0.604503
-0.372376 0.117914 0.17782
-0.620255 -0.345078 -0.970647
-0.552136 -0.565103 -0.459891
-0.808259 -0.442326 -0.0138707
-0.194343 -0.0632838 0.632815
0.651624 -0.396318 -0.0320569
0.0173083 -0.35319 -0.935814
-0.419058 0.209559 -0.92513
0.185025 -0.531304 -0.988508
0.35721 -0.680908 -0.652994
-0.787176 -0.0696197 -0.50439
-0.903133 -0.476435 0.460948
0.274416 -0.351111 -0.938795
0.478981 -0.537473 -0.878202
-0.323853 -0.526257 -0.0110155
0.474928 -0.633698 -0.573676
-0.944207 -0.249072 0.520161
-0.565537 -0.0217515 0.542659
-0.342598 0.275393 -0.238732
-0.772272 0.627097 0.91369
0.893269 -0.150791 -0.501609
0.0594333 -0.491142 0.107405
0.0176592 -0.563629 -0.0723909
-0.760987 0.309864 0.776052
-0.774516 -0.337363 -0.510241
-0.297712 -0.561764 -0.908731
-0.590171 -0.54515 0.478974
0.587387 -0.133288 -0.99471
0.117698 0.452292 -0.574307
-0.556087 0.226621 -0.387435
0.871416 -0.264516 -0.527961
0.235993 -0.705868 -0.692875
-0.487318 -0.614274 -0.254666
-0.30723 0.27686 -0.189124
-0.488064 -0.00804626 0.523672
-0.252149 0.300661 -0.392999
-0.55692 0.0393849 -0.984428
-0.117567 -0.667344 -0.366339
-0.72453 -0.31649 -0.559025
-0.682134 -0.284486 -0.609097
-0.843098 -0.453442 -0.152568
0.00765089 -0.58998 -0.985667
-0.0293803 0.145516 0.113538
0.18066 -0.612627 -0.976833
-0.168779 0.319359 -0.793062
-0.0130263 -0.253443 0.221726
-0.587464 0.329508 0.701861
0.520806 0.0472272 0.134882
-0.858332 -0.0240324 -0.0268933
0.136319 -0.636704 -0.143053
-0.516746 -0.178023 -0.985594
-0.534626 -0.00360832 0.464486
-0.741596 0.00128977 0.620418
-0.517814 -0.529965 -0.00767983
0.513784 -0.644082 -0.38237
-0.16358 -0.546467 -0.443203
-0.917205 -0.0968253 0.0828249
0.111559 -0.295519 0.244598
-0.747187 0.516686 0.780439
0.242386 0.316984 -0.899294
-0.208817 -0.657234 -0.96601
0.811393 -0.131933 -0.385405
-0.964296 -0.443233 0.177463
-0.201127 0.140922 0.64204
-0.895893 -0.608871 0.326397
-0.612028 -0.314381 -0.625123
-0.0812896 0.192306 0.705265
0.198263 -0.747808 -0.341162
-0.711611 0.407926 0.826803
0.598486 -0.423769 0.0216945
-0.350558 0.0610381 -0.977286
0.721837 -0.381318 -0.699231
-0.375828 -0.522858 -0.78304
-0.460172 0.142356 -0.976822
0.619323 -0.120045 0.102965
-0.592313 0.265516 0.692789
-0.274509 -0.313851 -0.972937
-0.0519509 -0.600447 -0.181912
0.0790376 0.0789121 0.1955
-0.852804 -0.292807 -0.423689
-0.149642 0.0645048 0.731027
-0.107351 -0.565604 -0.557554
-0.0594517 0.0854792 0.700659
-0.138539 -0.664251 -0.98178
-0.398553 -0.266067 0.350762
0.74362 0.112512 -0.765421
-0.955839 -0.439639 0.257255
0.347779 -0.592189 -0.108007
0.707601 0.0827827 -0.681878
0.779003 -0.342298 -0.392452
-0.00258312 -0.643841 -0.178677
-0.684883 0.627811 0.712272
-0.733788 0.155769 -0.148301
-0.290079 -0.0488951 -0.978756
0.012025 -0.676588 -0.895945
-0.945781 -0.208129 -0.239486
0.76781 0.0411881 -0.512863
-0.558488 0.197979 -0.455307
-0.338818 -0.510886 -0.980169
-0.747796 0.322199 0.656466
0.446454 -0.661689 -0.519197
-0.717444 0.532083 0.565172
-0.546837 -0.616424 -0.208673
-0.647874 -0.520205 -0.95439
-0.318379 0.347376 -0.982444
0.486008 -0.31789 -0.989139
-0.614096 0.218203 -0.34835
-0.15259 -0.0942501 0.201531
0.0259308 0.326726 0.89186
-0.279869 0.29081 -0.270922
-0.529744 0.210554 -0.0531159
-0.073831 0.143637 0.645145
0.479479 0.0171325 -0.982608
0.521291 -0.618373 -0.522337
0.158822 -0.577578 -0.116843
-0.27669 -0.435659 0.0985292
-0.0201865 -0.329001 0.189439
0.335394 -0.53962 -0.0617364
-0.197936 0.371671 -0.283074
-0.158208 0.155499 0.102257
-0.175031 -0.561264 -0.779847
-0.300483 -0.481663 0.0398231
-0.376647 -0.0800512 0.72864
-0.212331 -0.536751 -0.981712
-0.214319 0.273177 -0.0982617
-0.026854 0.50311 -0.358574
-0.544134 -0.0523407 -0.726629
-0.795901 0.58435 0.88351
0.105263 -0.459446 0.152426
-0.371193 0.205738 -0.49926
0.910541 0.0283533 -0.633248
-0.456208 0.255927 -0.212287
0.0462956 -0.219854 -0.939067
-0.813952 -0.357248 -0.451925
0.52716 -0.290503 0.17217
-0.900909 -0.208889 0.562538
-0.151296 0.322764 -0.988549
0.1856 0.285169 -0.0621602
0.542099 -0.258537 -0.986515
0.303645 -0.542038 -0.00156156
-0.41494 -0.488908 -0.737196
0.114098 0.275046 0.00347184
0.129896 -0.0336836 0.246949
0.137344 0.465725 -0.474448
-0.627358 0.43527 0.559888
-0.80967 -0.460147 -0.0899719
-0.371325 0.125953 -0.721897
-0.204896 -0.212062 0.220234
-0.0211318 0.469999 -0.249387
-0.664127 -0.352299 -0.585489
0.580724 -0.0603443 -0.989361
0.535163 -0.618691 -0.305071
-0.826825 0.0220493 0.177071
-0.619069 0.677848 0.65929
-0.626015 0.168009 -0.470391
-0.431313 0.170803 -0.977942
0.0443158 -0.127772 0.242081
0.790645 -0.0173992 -0.237001
0.104499 0.267747 0.734887
-0.548042 -0.0312943 -0.984258
-0.0388838 0.152496 0.973788
0.265381 -0.0859211 -0.99338
-0.75423 -0.496635 0.553288
0.0321685 -0.195028 0.241518
-0.37242 -0.203266 -0.965534
-0.60328 0.242036 0.510185
-0.701896 -0.55079 -0.366685
-0.261668 0.387898 -0.960442
0.166206 0.478353 -0.338744
0.779621 0.0461663 -0.438602
-0.566349 0.0602859 -0.843431
-0.467639 -0.291133 -0.691194
-0.520192 0.026935 0.402665
-0.338252 0.0915533 0.628413
0.714917 -0.421278 -0.63883
0.214591 0.457174 -0.477338
0.485168 -0.660049 -0.470484
0.212155 0.301872 -0.139152
-0.799218 0.34162 0.721519
-0.00597941 -0.456657 0.120689
0.181116 0.19615 0.0937234
0.710431 -0.178278 -0.0154851
-0.558519 -0.515905 -0.517149
0.0677028 -0.246773 0.244534
-0.22454 -0.0684354 -0.954989
-0.513928 -0.525888 0.279803
-0.0625272 -0.591759 -0.773988
-0.669422 -0.184707 -0.894135
-0.580392 0.102282 0.534545
-0.927295 -0.226811 -0.066533
0.851888 -0.31822 -0.571387
-0.104683 0.367736 -0.893495
-0.147961 -0.532258 -0.510724
-0.454941 0.224728 -0.0395424
-0.971726 -0.340856 0.103668
0.906236 0.00279812 -0.572499
0.792598 -0.394268 -0.70913
0.147154 -0.237463 0.258396
-0.0105539 0.250054 -0.984048
-0.727952 -0.529047 -0.0156333
0.118811 0.290479 -0.0661681
0.204686 -0.367036 -0.93474
-0.72506 0.452536 0.676989
0.293183 -0.47269 0.123629
-0.764845 0.139831 0.678834
-0.296901 -0.563229 -0.970357
0.983299 -0.105051 -0.705275
0.738892 -0.390066 -0.84017
0.250762 0.406672 -0.664732
-0.430674 -0.597428 -0.385503
0.0812034 -0.37444 -0.935519
0.0130177 -0.75308 -0.397834
-0.606045 -0.682032 0.191883
0.146585 -0.730169 -0.635567
0.0448949 -0.740915 -0.457907
-0.56013 -0.11783 -0.794953
0.105133 -0.721981 -0.563825
0.215273 -0.301161 -0.940319
-0.503436 0.0645746 0.195618
0.0603017 0.468312 -0.254759
0.478944 0.229063 -0.858873
0.79711 -0.278657 -0.889521
0.214319 0.383384 -0.813022
-0.666356 0.494616 0.546571
0.61124 -0.454989 -0.0394849
0.447614 -0.397655 -0.991859
-0.606 0.0291336 -0.597193
0.33313 -0.337566 -0.988542
0.599529 -0.205957 -0.984478
-0.238885 0.127177 -0.758285
-0.920442 -0.481411 0.390841
-0.11368 0.313412 -0.174986
-0.398286 0.102563 -0.984397
0.165325 0.446898 -0.535057
-0.866118 -0.40199 -0.344957
0.738961 -0.10782 -0.0608309
0.529123 -0.572956 -0.15137
-0.271661 -0.181109 0.238993
-0.700331 0.62001 0.799012
-0.49164 -0.581307 -0.433647
0.236491 -0.590312 -0.982789
0.314449 0.0940988 -0.987944
-0.343165 0.143818 -0.979921
0.0537999 0.461038 -0.60889
0.152032 -0.108553 -0.940246
-0.463702 0.00487307 0.608288
-0.377904 0.14022 -0.649487
-0.585689 -0.493327 -0.97541
0.529342 -0.580686 -0.655005
0.340354 -0.725519 -0.465558
0.276937 -0.299828 -0.983804
0.786408 0.038026 -0.292307
-0.684425 0.421163 0.521828
-0.957703 -0.131364 0.135123
-0.774167 -0.118914 -0.544756
0.767034 0.0832591 -0.350366
-0.208697 -0.29406 -0.982564
0.226439 -0.73222 -0.272285
-0.426202 0.100983 -0.758582
0.95777 -0.184956 -0.528752
-0.591982 0.0716565 0.28873
-0.728259 0.388881 0.638575
-0.0369251 0.270654 0.890298
-0.764772 0.256669 0.743936
-0.300694 0.123658 -0.757033
-0.778064 -0.0388651 0.570213
0.234631 -0.0216432 -0.988194
0.756863 -0.383797 -0.328992
-0.141321 0.292711 -0.103895
-0.340492 0.0544967 0.5547
-0.639669 0.149111 -0.0157195
0.534003 0.309124 -0.656905
0.364527 -0.171544 0.25893
-0.193092 -0.21907 -0.982337
-0.108447 -0.544295 -0.758506
-0.417163 -0.251882 0.411104
0.958564 -0.118762 -0.769694
0.383834 0.108175 -0.991805
0.861758 -0.0283632 -0.8533
-0.161063 -0.701621 -0.947662
-0.220935 0.351993 -0.834628
-0.470339 0.254492 -0.291054
0.786626 -0.173078 -0.185315
0.092956 -0.162303 -0.937705
-0.157971 -0.486263 -0.739216
0.547689 -0.619245 -0.44292
-0.170664 0.32683 -0.708564
-0.416723 -0.331147 -0.980015
0.620212 0.256003 -0.270502
-0.134913 -0.609115 -0.410498
-0.67755 -0.112559 -0.978542
-0.929544 -0.568478 0.279258
0.517665 -0.107771 -0.998887
