4.64998 5.42952 -5.31034
4.09432 6.53229 -19
-4.65806 1.9931 -5.69133
-4.66295 -9.99963 4.24959
1.17252 9.90774 -5.96763
5.55689 5.91028 -13.5736
11.7995 5.65063 -5.72798
-2.35181 5.64592 17.2051
6.60617 -9.99947 9.87868
-8.19954 -1.13365 8.06587
-6.36813 6.12335 -9.9994
-5.56121 8.23736 9.99945
2.63667 5.05418 5.93748
-4.19714 7.97017 0.20453
7.75258 3.68134 -11.867
11.7994 1.94022 -7.84066
-8.09007 -9.99942 -5.35087
-2.54184 6.35897 -4.16422
-5.05316 -1.4392 17.1576
2.51824 -4.79815 19
11.7995 -6.41451 -4.35805
-6.40526 0.949979 -5.93203
5.77224 6.37711 -4.49613
1.63064 -9.82703 -9.99952
6.35407 9.92207 -3.9161
-8.19932 -6.59855 9.91171
4.94622 -9.90791 -5.10532
11.7996 6.08912 -0.570879
-8.19944 -3.4746 5.03556
1.81452 -6.86729 -6.01332
-0.417783 6.65907 -17.1613
-8.1995 7.88409 1.95656
7.62057 4.14389 -10.0003
8.33851 -9.99934 -9.91081
7.11646 2.61666 5.39787
11.7995 6.35363 4.90163
1.70348 1.17203 19
-4.55986 -8.34372 9.9995
9.98331 6.11209 9.99944
7.2332 4.41056 18.9097
-2.37204 9.99928 4.53905
-4.02282 -7.99269 1.47553
4.34615 -6.53087 15.458
8.41551 2.30919 15.4265
4.89184 -3.19256 5.15358
11.7994 -0.0510268 6.12662
5.71756 5.69705 -18.9998
3.79667 -6.7074 -10.0959
3.18605 -6.25146 5.84759
-8.1995 3.24221 -9.85888
7.67329 -3.80917 -17.021
-8.19954 -7.86667 -2.29572
9.73336 -9.99958 -1.18137
2.16023 6.91797 18.9991
7.7868 3.45931 -18.9999
-1.26882 8.24941 5.15808
6.48902 -5.19476 -17.1061
-6.37471 -7.69312 9.99937
0.596324 2.95249 19.0001
-8.19919 9.89248 -6.34043
11.7994 7.71355 -6.0124
2.69311 0.685589 -5.99071
1.2584 -7.95193 5.97354
-8.19958 -1.01426 -6.057
11.6608 -9.8497 -9.99881
-3.64094 -8.00181 -9.9995
4.00133 -6.64267 -15.3742
11.7996 -1.34902 9.88972
-3.17825 7.97152 -3.34161
-8.19951 5.92772 -7.81076
-0.431789 -6.65351 -14.7594
9.82345 -2.13989 -5.61627
7.70902 5.78949 -1.63769
7.64139 5.72238 1.81265
11.7995 -7.82106 3.74098
11.5556 9.99956 9.86621
-4.24208 -9.99963 -0.972155
2.83066 6.9216 -11.8614
7.31496 -4.30987 13.5364
-6.49926 9.99953 -4.50019
4.52071 9.87254 -9.99944
-8.19954 -8.08989 5.67625
6.9108 5.00154 -3.33219
-4.25372 3.53239 11.8991
-4.93933 -1.62708 18.9992
4.96049 6.24273 17.0942
-4.27304 -9.99947 0.707865
-8.19954 -9.92113 2.58692
-6.49651 4.32209 4.16327
-8.19951 -2.65631 -7.91341
11.7995 6.91295 2.97027
-8.19995 6.02988 1.07933
-8.19956 -8.49133 3.71994
-3.56289 2.56503 5.42603
-2.34701 -5.65032 -15.5165
11.7994 -6.06328 -0.821358
0.681339 -9.99947 9.89748
-1.1146 -6.36843 -18.8883
8.5682 -1.37819 -18.9998
4.00858 -2.48896 -19.0001
-4.76706 -2.43644 15.4357
-2.19785 3.77358 4.66447
0.106995 -9.99955 -7.9012
3.99914 6.57987 18.9999
4.13748 6.60791 11.8895
9.94152 -3.8225 -4.63653
-8.19949 -5.70674 8.3256
11.7998 0.830194 -9.92864
-4.66019 2.70807 17.0833
-4.42233 -3.2108 18.9093
-6.50652 6.62256 9.99946
-4.18626 3.63802 18.8998
-6.09705 -9.99963 -2.19681
11.6756 -4.5748 -3.90692
9.53619 -5.61615 2.16803
-6.02604 4.32441 -9.99956
11.7995 0.0197196 -7.93115
-5.00264 1.70895 11.9125
-1.96577 9.90023 -4.6675
-3.36628 -4.71258 18.905
4.22247 7.92548 -5.4883
-0.530292 9.9991 -5.67947
10.0441 9.99954 -4.77587
-4.3867 6.17078 -9.99954
-1.68908 7.97725 -4.88292
-4.82492 0.958427 5.93132
10.1198 -2.4969 9.99959
0.868784 6.96322 -11.8982
6.28207 8.27285 4.02726
-3.83731 -9.99915 2.40313
0.557891 4.73525 5.90163
6.32232 -8.23409 3.97555
6.29723 -6.30934 3.99249
-8.06083 9.99967 -9.81916
1.81153 -7.00971 18.9082
1.80564 7.00842 -13.6552
8.30243 -9.99969 -4.6392
-4.23127 9.99948 -5.54447
11.7994 -8.00374 -7.98821
-6.31876 2.80103 -5.31309
6.97699 4.72089 -18.9051
8.44513 1.94911 -18.9995
-4.55517 4.26653 4.21534
-8.19948 -3.57056 -9.86106
11.7995 -2.75071 7.66777
8.79683 0.13622 15.4569
-0.946034 5.89224 -5.3337
-4.95809 1.8408 15.3255
8.78732 -9.99953 -6.59255
-8.19949 7.96475 5.94945
-8.19953 8.09061 -0.0130503
-8.19952 8.0158 3.77991
11.7072 2.54975 -9.99945
0.00826599 -0.705114 -19.0001
4.92073 -6.80923 5.12222
8.26029 -2.68791 13.6393
1.74962 9.9995 8.00096
-8.19943 8.32385 7.99978
-5.06172 -1.40008 13.6598
4.82154 8.23428 5.1865
1.65035 -7.00154 -15.4093
9.81755 -5.69345 -1.94309
1.70966 -7.00172 11.972
8.07063 -3.11124 -18.9068
-3.97966 -5.87328 1.65902
5.89979 -5.67528 -15.3396
11.7997 6.03858 1.1121
-4.2666 -3.52632 17.1215
-3.4353 -5.35426 2.9797
9.36769 9.99963 2.79478
-1.25779 -6.3056 13.6503
9.96343 3.89505 -4.58575
-8.1997 5.54436 2.66412
-6.21615 9.9996 0.171148
3.96119 1.4556 5.82196
-2.68018 2.32667 -18.9998
11.7995 -0.760466 8.04301
-1.388 -9.99943 9.8947
-0.504355 -8.26099 9.99956
-1.45538 -8.16329 -9.99951
-0.233403 9.99961 -7.84609
0.643399 -4.89549 18.9999
11.7995 -1.7761 -8.17132
0.816921 -4.04986 5.9404
10.3463 -0.154879 9.99964
-1.87348 -5.96286 18.8952
2.29561 6.90463 -18.9996
-8.09921 9.9993 -0.915928
2.55589 -1.20726 -5.96252
-0.792181 -4.92912 5.4347
-3.81403 -9.99939 -2.54113
-4.15966 3.68216 -15.3287
0.771828 -6.94986 13.7338
8.78525 4.85246 -3.53476
-2.87642 -5.22001 17.1302
9.89756 5.52633 -2.3233
1.74702 9.99965 -7.96717
-4.85643 1.8432 18.9999
8.53973 1.94686 -15.3314
-2.70123 -5.23743 -18.9997
-8.09741 -4.72262 9.99955
4.53785 -0.723623 -5.98955
0.942483 9.90146 -9.99945
8.95677 0.893575 -10.0001
6.75571 -9.99964 3.57712
11.7061 -9.99935 -8.3374
-8.19955 -8.10266 -0.297226
-5.97004 5.39881 2.62308
-0.501262 -6.62328 -16.6715
11.7998 -4.44741 4.19669
0.291062 6.75482 18.9995
-3.64241 4.41755 17.0029
8.39126 2.66346 -9.99986
-8.08698 1.40899 -9.9996
6.77465 -9.99966 -6.02357
9.75577 6.00781 -0.498696
-6.05356 -2.54096 5.42819
-5.90689 -5.30808 2.81979
-1.47451 0.588004 -18.9999
-8.19948 -5.26424 -8.16125
7.40475 -4.20448 -15.264
1.33327 -5.88516 5.9774
-1.8199 -5.98899 -13.6947
11.7994 -8.16977 9.91065
-3.64643 -9.99963 6.08364
6.32717 -5.34478 16.599
8.04177 -3.20834 -13.6169
11.7108 8.23652 9.99927
-2.13493 -5.98698 -10.0001
11.6053 -0.903091 -9.99948
11.7007 -1.63667 5.77241
-5.19228 -0.11724 -18.9076
5.44215 -6.01096 -4.77194
2.17822 1.45145 6.00846
8.36466 -9.99964 4.1901
4.84806 9.88614 -5.15612
11.7996 4.46099 4.21784
8.6955 -1.20472 -13.6546
-6.048 -9.9996 1.89786
1.6898 5.00849 -6.00427
7.67794 -9.99947 8.04904
3.88851 6.62628 5.62196
-6.01082 5.89665 -1.16275
-1.57235 6.13606 18.9106
-0.369712 -9.99869 -5.76566
7.7292 9.99927 1.51476
2.06206 -9.99941 -8.02252
11.723 0.708556 9.9995
-1.59088 -9.99972 5.08114
11.7996 9.87821 -6.365
5.39561 -3.7087 -18.9999
-2.39426 5.61155 15.3767
2.19158 -9.99995 6.11012
-6.71609 -0.901473 -9.99973
11.7995 8.00252 -0.0926753
8.63292 -0.991199 18.9997
11.7996 6.40434 9.89673
-0.734858 -6.52296 -12.2652
-1.0524 9.90684 -9.99929
1.19568 9.99951 9.95316
-5.20333 -0.3793 11.8681
5.72315 5.79024 18.9041
9.81685 2.08286 -5.64336
7.77177 -8.0456 0.656761
11.6994 0.579679 -5.9706
11.7995 -7.80321 1.88395
3.63509 9.9996 -8.2059
11.6812 -8.21917 -9.99966
11.7995 8.18592 -9.90098
4.73124 -6.3576 13.5449
5.86581 9.99958 -8.2944
3.92086 -4.48999 -5.61738
11.7997 -9.88684 2.77222
-4.95681 5.06076 -3.2325
-8.19954 9.82785 -4.55487
-2.03897 6.57203 4.60571
-4.76792 -2.42174 11.8824
1.74768 -9.99962 8.04259
8.9688 -0.819278 -10.0001
3.49758 4.85674 18.9999
0.618244 -1.94368 -5.91
-8.19957 5.64132 -5.71253
-2.8842 5.2129 -11.8813
10.0363 -9.88233 -9.9994
-5.6574 2.94024 5.25172
11.7998 2.21003 -5.70628
-8.19949 9.89177 4.82539
-8.1126 -0.165726 5.99869
-6.41745 4.23114 -4.25171
11.7995 -5.58779 -2.5181
-4.18463 3.64676 -11.8654
7.92317 -9.9994 0.251115
-6.28135 -2.85406 -5.28385
0.000924037 8.38269 -9.99958
-8.09425 -9.99945 -1.33765
11.7995 -6.70043 -6.32347
1.6382 -5.01279 -19
-2.03284 -5.86264 -17.3242
2.5183 -0.410525 5.9933
-3.61152 4.45276 -17.1168
-0.47712 -6.69709 5.57836
1.70263 -1.12618 -19
-1.59182 -3.28654 5.03757
-6.66512 0.135434 9.99962
5.54635 -3.85275 -4.68091
-3.10879 9.99949 -3.6611
-5.98369 -7.83962 -9.99943
-3.00459 9.89803 -9.99925
7.76736 9.99954 -7.82168
7.11115 -4.55515 -18.9029
7.16866 9.9994 9.91541
6.05482 7.99135 9.99945
11.7994 5.91823 -7.81735
-4.79877 -6.17876 9.99966
-5.28051 -0.453601 -9.99963
-3.25589 -6.67845 -3.22921
-5.19717 -0.313992 15.3818
9.88903 9.99945 -6.73013
-2.19078 -5.76476 11.8826
7.86818 -3.40051 -4.93812
5.08497 -6.18259 -13.6507
9.36228 9.99935 9.91037
5.78991 6.42999 4.48394
-8.19952 0.295502 9.8629
3.7296 -6.62535 18.9998
5.85476 -1.37025 5.8372
-3.85877 -4.1285 -11.9347
-8.19952 -6.59871 6.78918
6.11208 -5.52772 14.4642
-4.63674 2.76353 -17.0878
-8.19955 -6.59394 -4.22411
-3.24279 4.8557 13.6797
-4.51718 -3.01111 -17.1544
-2.98354 4.96894 18.9998
6.00613 4.1105 -4.3949
8.79724 -0.302818 17.2579
9.90746 -9.99958 -3.26153
-6.41893 -5.45601 -2.48821
-0.990067 8.28226 9.99951
-1.44357 -1.54899 -19
3.96955 -9.99946 5.75832
-6.29125 -0.634389 5.98304
-6.2738 -5.23062 9.99947
10.0573 2.95526 -9.9996
8.06138 -2.92738 19
-8.19935 6.71803 -9.88376
-6.39485 -3.36491 -9.9997
-5.15965 0.878539 10.0978
6.52117 1.81447 -19
-5.02146 -2.0013 -9.99998
-1.12226 6.36784 -11.8278
5.95796 -7.92038 9.99939
7.01151 6.8773 -2.98472
2.88055 8.24795 5.89992
-5.17128 0.715174 17.1301
10.0859 9.99948 8.09047
-4.79999 -9.99951 -9.90158
5.94065 4.22609 4.34199
11.6591 5.25628 2.91514
-4.65557 2.72855 -13.5912
6.17369 -5.47937 -11.8795
11.7997 -9.8336 9.85467
7.98221 6.2552 -9.99959
-8.19935 -8.41964 -9.89326
4.17372 -2.50901 -5.51197
-3.99699 -9.99949 -7.89853
2.45063 9.99977 6.10303
8.03328 3.22179 13.6837
7.07243 -4.60233 18.8864
6.0422 5.5801 11.8162
11.7996 9.91102 4.6498
9.82905 -0.0817219 -5.99713
-0.0103255 8.10669 -5.72369
-8.10714 -3.7255 -4.72376
6.74733 -4.82755 -3.6057
3.41046 -0.637033 -19.0001
-8.19947 1.55931 5.93291
-8.19946 -8.00273 7.94624
-5.158 0.847185 -17.1246
6.5386 -2.16451 -19
-1.36405 6.25793 13.7381
7.2768 -7.67619 2.46033
-8.19952 1.79837 -7.96597
7.56462 -5.64587 -2.05718
0.850398 -6.9371 10.1097
4.72576 6.36321 -11.8066
6.10753 9.99952 8.2712
-2.37083 5.62541 -10.0817
-5.19568 -0.342622 -11.8182
5.14701 3.89478 18.9998
7.46991 -9.89516 1.96757
9.44998 -7.76889 -9.99946
-8.19966 -6.09213 0.679478
8.57364 1.83671 -11.8601
11.7995 9.86835 8.12634
-8.19944 0.600977 -6.10896
10.0369 0.775749 5.97249
-4.11228 9.9056 1.05513
6.52781 2.34169 18.9999
-3.85147 9.99951 8.17015
8.15832 1.06758 -5.90766
6.62979 -5.06486 12.053
7.53713 -9.99948 -8.07992
-4.10567 -4.04042 10.0001
6.34229 5.32792 -10.082
-3.70128 4.33208 -10.0916
-8.19963 -2.41068 -5.62912
8.42142 -2.30258 -17.2562
8.00882 8.25041 9.99951
-1.91483 3.95453 -4.7232
7.4936 9.92544 -1.89039
11.7995 -6.25958 4.95392
4.78202 -5.03585 5.24369
11.7995 -4.73323 8.26616
11.7994 8.33574 -4.04621
4.8604 -9.99946 9.86642
2.04713 -7.01805 15.4706
8.10934 4.06369 4.43232
8.20975 2.81651 -13.6278
-3.74677 -4.28469 11.9016
-2.83972 -5.24365 10.1061
3.08738 -6.88872 -13.8121
3.39545 4.25825 -5.81412
1.60796 4.87681 19
7.3911 -9.99952 -2.57415
4.09687 9.99924 5.65827
6.80384 -6.75628 -3.29588
6.31262 -9.91076 -3.96971
7.70918 8.04989 1.05382
-6.22398 -4.32784 -4.15907
-5.89254 9.99953 2.19381
6.77371 -4.93788 -13.5897
-4.66524 2.69823 10.0907
9.80581 -9.99933 -8.04843
-1.99292 -3.36525 -18.9999
-8.19952 -0.449577 -8.01746
-3.44518 -4.63446 -17.2219
-4.54438 6.33771 9.99949
5.23013 -0.909122 -19.0001
7.91717 9.99931 -0.169014
2.02175 -5.11129 -6.0255
-8.09454 9.9993 1.05336
-3.97786 7.91821 -1.68976
-2.23238 7.93572 -9.99945
-3.79247 5.44422 2.54648
-8.19952 0.927005 7.85873
-1.79203 -9.89502 -4.81793
-3.57433 4.49501 -13.5901
4.84349 3.12722 -5.17226
11.7996 -8.18398 -3.84217
6.54608 9.99969 -6.05267
1.86729 3.07346 -6.0184
8.22429 2.62955 18.9998
11.7995 7.86983 -2.09292
11.6973 -9.99924 -0.759256
-8.19949 5.88956 9.88837
9.00923 -4.87721 -3.50309
2.36009 -7.20166 -10.0001
11.7994 -4.882 -6.11352
1.95188 7.01936 11.9128
-8.09252 -9.99946 0.705555
-8.19952 -6.83208 3.5793
-4.19668 -7.92689 -0.434167
4.50137 -6.46772 -11.9034
8.5053 -2.0894 17.2369
5.0933 6.17926 13.5848
9.89183 8.08403 9.9994
-2.64921 -8.20663 -4.02139
-2.10916 -5.81599 15.3908
-4.94073 1.90634 -18.9089
11.7997 4.40031 9.90163
9.98909 -4.73432 3.68965
11.7995 3.05783 5.29531
-8.19951 3.28216 6.83796
8.02645 3.38124 -4.95667
-3.62703 9.99914 2.79945
3.10697 6.88198 17.1458
-6.24374 -9.99964 -0.169172
-8.09377 -9.99957 6.52253
-2.12023 9.99955 -8.34674
7.66437 -7.74564 -1.29972
2.7194 -6.93642 -11.9826
9.73308 -5.35332 -9.99942
3.04178 9.99962 -5.98918
-8.10963 -4.71972 -3.72542
-8.19955 6.42785 4.69389
-0.159392 -6.63815 18.9997
3.72408 6.73205 -13.6271
9.48139 2.5776 5.4176
8.33679 9.88867 -9.99965
-5.16931 0.739648 -13.5305
0.402998 0.620202 5.99523
-3.88282 -4.09036 -15.443
-4.61476 -1.89227 -5.71771
11.7994 7.83549 8.17353
-2.96859 2.83726 -5.28599
11.6854 -9.99914 -6.62969
8.41637 -2.30698 -15.4035
-4.32946 -3.39562 13.6745
-2.7714 2.1663 18.9998
3.2271 -9.84513 -9.99946
-2.58669 -9.99951 8.24092
11.7995 -9.91716 8.19604
-3.21446 -1.34658 18.9998
3.7008 -2.03282 5.70808
8.01066 -6.29159 -9.99951
11.7997 -2.75543 -9.90177
-4.1435 8.03421 -9.99937
2.72788 9.81091 -9.9995
11.7995 -5.93676 -8.12142
0.736681 9.99964 6.06047
4.59901 6.42382 -15.3979
-4.19057 6.07992 -0.570413
-4.29514 9.9995 -0.611188
-0.513807 -8.48317 5.55474
11.7996 6.41329 -9.8953
11.7995 -8.01914 -0.0712142
0.617994 -8.29712 -5.9107
-8.19933 -9.89324 8.25463
11.7994 6.63971 -4.00654
-0.663435 1.30635 19
5.04618 2.89281 5.25092
3.51617 6.80045 -17.1953
-0.207886 -2.58976 19.0001
-8.19958 7.37032 -3.96413
11.7995 -2.94421 -6.84844
-6.14163 8.01868 -9.99932
5.31146 -6.06904 11.8306
6.32126 0.456929 19
-4.57677 9.99956 4.3659
-6.07854 9.99957 5.95218
6.63002 5.06697 17.1426
1.70175 3.33457 6.00576
0.670778 -0.616251 19.0001
-2.62315 -9.99965 -6.31329
6.54291 9.89933 -9.9994
11.7995 1.28622 8.03822
-2.88381 4.80997 3.77477
7.26783 -5.35041 2.76014
-2.73122 5.56012 10.0001
-3.27339 -4.82207 -13.7269
9.50684 -4.47501 9.99953
11.7991 -5.52082 2.7038
6.08647 5.70054 9.99991
-4.42479 -3.20343 -13.6656
2.92758 9.99951 9.91631
4.85007 -6.29802 17.3148
-2.03866 5.85877 -13.5849
10.1853 -9.99939 9.87353
6.75491 -1.42861 18.9999
-2.42842 -8.43533 9.99943
-8.19952 -4.12235 -6.63493
2.20315 -3.08715 -19.0001
4.00319 4.64602 -18.9998
-2.17232 5.77956 -17.1745
8.51206 -2.07147 15.4254
8.50398 -9.99941 9.88957
7.81496 -8.21282 9.9995
2.33664 -3.14967 -5.99067
11.7995 -8.35893 -5.83029
-5.16868 0.76492 13.6297
-3.39121 0.473542 -18.9998
5.39704 6.02174 -17.185
1.56242 6.99939 -17.1471
8.68724 1.24291 13.7217
-8.08827 9.9997 6.62989
11.7995 8.29232 4.01322
0.289383 2.22623 5.81159
11.7995 8.2243 6.0506
9.65842 -9.99945 7.67891
-8.03701 9.77683 9.99979
0.593933 -3.98794 -5.90174
-7.91956 -9.99958 9.87831
5.67111 -5.72975 -18.9995
2.58505 1.04615 -19
4.07788 -6.61743 -18.903
11.6726 9.99917 2.70622
8.80516 -1.06661 10.0002
10.1004 2.2263 9.99958
-8.19962 2.20412 -5.73476
0.017717 4.13091 -5.72619
-4.83685 -2.22033 -15.3664
5.92525 5.65771 15.3469
-8.19955 -5.8928 5.14215
-8.19947 -8.36473 9.90344
7.91324 -5.99872 -0.444915
7.00395 -7.99575 -9.99937
-2.89317 5.20264 -15.3674
7.78939 -5.87848 1.20158
-3.30991 -7.62292 3.13778
-4.70494 2.82188 -10
-1.60564 -9.99962 6.77319
-8.10003 -4.73655 3.7015
6.12101 -5.66873 9.99979
-8.05397 -1.40885 9.99941
10.1199 9.99951 4.48844
11.7079 9.99921 0.75694
-1.90365 -6.24774 -4.71601
3.16198 6.88954 10.1128
8.46813 2.18848 11.897
8.15021 9.9995 8.12031
4.77798 -1.08366 19.0001
5.91236 -8.07665 -4.36727
-4.98133 1.77063 -15.3211
2.8168 -9.99948 9.88661
-5.86477 -9.99938 9.90406
-1.00232 -2.71753 -5.3416
3.07028 -6.89417 -17.0108
4.83397 -8.45313 5.17766
-3.20205 4.90111 11.775
1.00745 -6.96472 -13.5025
-8.19866 -9.89648 -7.64534
-8.09283 9.99962 -8.06378
-5.07913 -1.29146 -13.5749
2.68078 6.94027 -15.4286
8.78115 -0.777745 13.6995
2.87582 -6.9145 13.7822
-6.59727 5.33485 -2.73573
7.41859 4.18783 15.4245
9.76236 -9.99954 5.57005
9.84538 -5.99351 0.149316
8.09511 -1.294 -5.85506
-5.11522 0.0463202 18.9997
-8.19904 8.39201 -9.90105
-8.19952 1.96483 9.91401
6.23362 -2.14368 -5.63557
8.71674 1.14301 -17.0558
-3.9317 9.99903 -2.15929
-8.0652 -9.99814 -9.7351
11.6689 9.99936 6.40853
-4.5612 2.91979 13.6517
-8.10294 9.9994 2.85449
-4.7615 -5.06932 -3.22239
0.421219 6.87178 -18.9141
-8.19948 4.56874 4.07987
1.07056 6.97118 17.0981
11.7995 -7.77761 -2.04226
6.44826 5.23367 -11.862
9.73501 5.18312 -9.99949
-8.19961 7.99974 -2.06911
-8.19946 4.91915 -9.86959
-8.19963 6.09751 -0.607834
-0.366836 9.99954 8.00044
7.66911 3.81887 -15.3766
3.41186 3.31437 5.80876
-1.35389 6.1484 -19
8.09496 9.99964 4.5413
-4.4452 -1.08867 5.90682
11.7996 9.91119 -4.59936
-6.2556 5.96963 0.728607
-0.207736 6.71721 -13.5815
0.337056 -9.9998 5.95938
-6.58051 1.46567 5.8165
11.7995 3.92339 -6.68798
-8.19955 -3.60584 8.42126
-3.20573 7.92852 9.99934
5.50569 9.99962 6.63672
7.10311 8.55751 -2.81561
-8.06328 9.99964 8.35753
0.821715 1.67198 -5.93541
2.58592 -0.986985 19.0001
-8.1995 6.59639 7.64935
11.7994 -8.10537 5.83626
10.0748 9.85634 -9.99966
-0.158591 -6.72583 15.4009
11.7997 -9.89311 1.01713
-6.54122 2.32717 -9.99962
11.7186 2.62599 9.99944
-8.09901 -1.82219 5.73701
-1.62163 4.00295 -18.9999
-8.1995 -8.39018 -4.23145
-4.02812 -3.72099 -18.9995
-3.95556 -2.9756 5.2268
0.814309 6.54673 -5.94302
-1.56848 3.46089 18.9999
7.97576 -6.3457 9.99953
-5.25835 -1.07515 10.0005
11.7995 3.85128 -8.41039
7.90797 6.0115 0.215332
-4.15553 3.67159 -18.9066
-6.39597 -9.99959 -6.10885
-4.58231 -9.99945 7.93073
-3.04985 -9.99991 -3.8364
-3.77787 -8.11276 -2.19846
3.61868 -6.32871 -5.74224
11.7995 3.22999 7.77837
-2.9526 5.05465 -18.9988
-1.11277 -7.99356 -5.24067
11.799 -3.08878 5.30591
7.11658 4.55419 -13.6115
6.54466 -9.99939 -9.89276
-3.20201 -1.49615 -18.9999
7.14919 7.39167 2.73138
11.7991 -3.14713 -5.21347
11.7998 1.63696 5.91815
8.18297 0.961039 5.93255
-1.12679 5.05458 5.23957
-8.19946 -8.11819 -6.19528
5.44992 8.08594 -9.9995
11.6886 -4.66008 -9.99933
8.63471 0.857671 18.9998
-5.93277 -9.99957 5.94391
4.91715 -6.26532 -17.1402
10.0928 -3.23481 5.05913
-0.784836 6.50505 17.1173
3.58555 2.12707 -5.75307
1.50708 -9.99972 -6.11809
-0.382082 -4.67726 -19
-8.19963 -5.65937 -2.37942
4.07538 6.61818 15.3028
-8.08883 -9.99943 4.74962
-4.98901 1.75672 -11.8082
9.76019 -1.08117 5.90105
11.7994 -8.05097 7.96781
2.73637 -8.35191 -5.92453
6.97142 4.72959 -17.083
-0.880073 2.50007 -5.46501
-8.08976 -5.59728 2.20056
-4.35596 -3.61809 -10.0002
0.925382 -6.96586 -11.6542
-8.19967 4.92552 -3.6906
9.59289 9.99948 -8.38518
-8.12015 -2.95434 9.99953
6.23568 -4.33102 4.15305
-1.21111 6.32613 -15.3654
-0.235859 6.63447 5.64991
5.5609 -9.99957 -7.54799
3.80801 -9.99963 7.91605
4.48303 -7.96042 -5.39314
7.51096 -9.99966 6.03559
8.01715 6.28445 9.9996
-0.460101 9.90573 9.99943
5.7327 -5.7895 18.8895
8.20462 2.84614 10.0853
7.54427 -4.02613 15.3456
0.12439 -9.8446 -9.99948
11.7995 6.55244 6.86545
3.04528 6.39826 -5.87367
11.6895 -1.20097 -5.87944
8.79848 -0.247639 -15.3627
-3.87809 9.99961 6.20238
0.059245 -6.28434 -5.73763
4.58239 4.91974 5.33438
5.85943 9.99957 4.59956
1.60074 -2.90483 19.0001
11.7997 -3.13482 9.8756
-4.22518 5.89749 1.06949
8.83427 0.933967 10
8.25764 -4.32983 4.15536
8.21593 9.99964 -3.73677
-3.99036 -5.89777 -1.66422
0.766608 -1.02164 5.9342
-2.10366 9.99958 7.28874
11.6652 9.84811 -9.9978
-2.24835 -6.20222 4.42488
5.04073 9.99946 9.90421
-0.344622 -2.34684 5.62571
2.13624 8.14359 -6.02472
-8.19954 7.78176 -5.9151
0.529469 -6.79524 -18.9992
2.8024 2.93497 18.9999
-4.48429 3.78307 -4.66651
-6.03523 -9.99942 -7.9751
-4.31096 -3.67338 -4.74109
9.77611 -9.99953 1.0502
6.30364 5.36679 -15.337
3.8922 -8.40194 9.9995
-8.06975 3.1518 5.10637
11.7997 -9.89714 -2.56102
0.2203 4.6599 -19
-1.10283 -6.3709 17.1256
-3.06719 -9.90644 -9.99946
-8.19951 4.79439 8.16516
-6.51435 2.49106 9.99974
-3.12307 -6.92781 9.99966
3.64055 -2.77645 19.0001
-2.2616 -2.81081 19
0.248876 -2.85077 -19
-2.24409 -3.95416 -4.52744
7.28187 4.35358 10.0861
11.7995 -4.63008 6.33017
-2.07447 -8.10406 4.58274
1.66994 -8.48944 9.99964
-0.984071 0.756462 -5.98458
3.03581 6.89543 13.6089
-8.1995 -5.98517 -6.08709
6.7241 -5.11375 -9.99982
-6.44046 -9.9996 3.79779
6.85792 5.17947 3.22753
-8.19962 5.75409 -2.19666
11.7995 8.21131 1.75915
11.7997 9.89743 -1.04447
8.6107 1.61893 17.1078
4.45513 -0.308821 5.99337
-2.82818 8.41142 3.81773
-8.19946 -7.499 -8.0106
-8.1995 -1.89093 -9.88634
-2.57899 -4.26168 4.22064
-6.44964 -4.11132 4.3753
5.87986 8.20676 -4.39993
9.28844 5.17305 3.05637
3.45017 -9.99923 -5.9353
-3.67037 -9.9994 9.89257
5.21828 6.26054 -9.99985
-6.45565 9.99955 4.00109
9.43224 9.99958 6.29369
5.55099 -9.99934 4.90912
-8.19953 5.19925 6.12067
9.75587 -8.14693 9.99934
3.58291 -6.77423 11.8906
6.80254 4.91183 13.629
6.09403 0.858051 5.95604
5.454 3.35229 -18.9998
-3.91948 4.24603 10.0006
7.56201 -3.98152 -11.8678
-4.63149 -4.31611 4.16516
8.79896 -0.672095 -17.1635
11.6701 4.80685 -3.57983
-3.06366 -4.97918 -3.50849
4.66013 2.08709 18.9999
11.7997 -9.91699 -4.5404
7.71897 7.86576 -0.975134
-4.79247 -2.35518 -11.8328
2.12507 4.95881 -19
-0.991117 3.02755 5.31885
0.715019 0.984577 -19
4.73981 -8.21537 -9.99951
-8.0758 -6.7458 -9.99958
8.79337 -0.1421 -11.8535
7.35156 9.99965 6.30102
-1.42813 -9.99949 -9.88492
-2.8128 -2.3864 -5.50675
0.843825 -0.142281 -5.9921
9.80414 9.99955 -2.77086
-0.885159 -4.76498 -5.38066
3.14566 -8.13661 5.8511
-8.19954 2.81391 8.4198
-1.83307 -9.99954 -7.97064
8.79164 0.2903 11.8543
-6.10281 4.59657 9.99959
-8.09374 9.99929 -2.83441
-0.506477 2.49385 -19
11.6662 -4.76478 9.99935
3.79378 0.610467 19
4.96138 -9.99942 -9.8701
-8.19952 3.63563 -4.96716
1.77102 6.61294 6.00948
-5.89498 9.99945 7.88165
-4.31384 -5.99683 0.105596
2.78838 -6.93107 10.0926
9.58027 4.29786 9.99956
-4.34086 9.99943 9.91472
-4.90447 -2.0087 -18.9011
-8.06678 -9.99941 -3.29305
9.8196 -9.9995 3.09288
-8.19957 -4.62346 6.62345
11.6939 9.99909 -8.18729
11.7994 7.95964 -7.9427
-2.79224 -9.88304 3.84953
7.66015 -3.82907 17.1727
8.77215 0.81977 -13.6391
-0.239809 -9.99955 8.08136
3.79879 8.44445 9.99956
11.7994 -6.40609 7.27314
0.304194 6.98486 9.99997
-4.11106 9.99952 -7.78433
4.67278 6.5082 9.99967
-8.19963 -2.75432 7.02948
7.66295 -0.827706 5.96982
-4.43832 -9.9996 -5.68268
11.69 -9.99923 6.46709
1.96803 7.01484 15.3551
8.26076 9.99963 -5.68009
6.58174 2.20098 -5.60437
-1.19076 -0.488608 5.99555
11.6972 -5.91709 0.987546
8.11347 3.04009 -17.1257
9.96669 -6.31012 9.9994
7.53598 8.04167 -9.99951
-6.10812 9.99951 -6.42715
-3.01391 -5.10174 13.648
-6.04558 -5.97104 -0.824358
8.56101 -2.52922 5.43341
-1.20891 -4.32253 18.9999
-1.86045 5.96382 11.974
0.85922 -6.95409 17.1477
11.7059 9.99917 -2.77861
-2.9264 4.79335 -3.70162
-2.54202 -1.75532 5.74645
4.77597 9.99968 -6.8878
-0.878249 9.99906 5.52974
11.6883 -9.9992 4.57344
-1.04032 6.51799 -10
-8.19948 7.87426 9.90961
-5.04454 9.99953 -3.62906
-3.03822 0.390877 5.99479
2.98396 -6.89695 17.1716
-6.37929 -0.963247 -5.93148
-8.19955 3.87351 -7.44435
-3.70002 -4.35547 15.4056
11.7996 -6.47286 9.84333
7.39898 -4.3989 10.0002
11.7996 5.73255 -2.16048
-8.19968 -6.06905 -0.891311
-2.36564 9.99968 -6.54834
-0.285924 6.69313 15.3405
-1.07278 -0.977419 -5.93421
-8.08502 -5.11484 -9.99948
-3.75826 5.71436 -2.26873
5.73785 -3.1335 19
10.152 -9.9995 -5.38397
1.71737 7.25578 9.99983
-4.02893 3.8735 15.2792
10.0276 -3.03121 -9.99956
-6.01908 9.99943 -8.22757
11.7996 -4.02298 -8.22128
11.7996 5.31489 8.2657
7.11445 -8.52813 -2.77531
7.66586 -9.85214 -1.25102
-2.8954 -0.634024 -5.99664
-4.65587 0.110971 -5.99659
11.7997 4.59385 -9.91932
9.81969 5.84662 1.40874
1.89859 -2.513 6.01699
-2.34168 9.9995 9.8682
3.62192 -4.6672 -19
11.718 3.67676 -4.75825
0.694173 6.93236 -15.3631
-6.09453 -5.4674 -9.99961
-1.25106 -0.778047 19
-3.25395 6.78548 3.23165
-6.47331 -9.99947 -9.9126
3.87015 -9.99954 -8.00018
0.444143 6.86738 -10.1063
7.88069 3.47059 17.1839
4.71318 1.08508 -19
-4.41581 -6.28681 -9.99971
-8.19951 -0.083991 -9.89206
-4.78562 -2.62752 10
8.20144 -2.82971 10.0902
-8.19958 -7.93333 1.7123
9.85044 9.99953 0.973276
7.51948 4.05116 11.9221
1.15108 -6.97201 -17.2862
-0.0814663 6.74106 11.9364
8.80265 0.344193 -18.9006
-1.30439 6.39838 10.0006
7.84757 -3.51902 11.8116
3.47593 2.81442 -18.9999
3.85905 9.9995 7.95245
7.8158 -3.89146 -10
2.41321 -6.98342 -18.908
-2.8075 1.15462 -5.88893
8.36706 -2.40537 -10.1008
-8.19943 7.96946 -7.90756
-6.44843 -9.99943 7.94589
3.5769 6.9771 -9.99989
8.4907 -2.13351 -11.8945
-0.296106 4.78288 18.9999
-0.323718 -6.68475 11.9014
-1.66523 1.52439 5.79993
-3.29 -4.80777 -10.0989
-5.19911 -0.240309 -15.3197
4.98752 1.04895 -5.91646
5.72956 -9.99961 7.42338
-4.74947 9.90728 -9.99936
0.720898 8.28612 5.92463
-6.40959 -3.0728 9.99963
5.44508 -6.15275 -10.0004
0.83785 6.9542 13.6699
-5.2678 0.998181 -9.99949
-1.14197 -6.34598 10.0962
6.53608 -0.0819027 -5.99501
-3.8632 7.9862 1.98564
-8.09418 3.96669 9.9996
-2.97079 0.400364 18.9998
8.60212 -1.68504 11.8811
9.75317 7.58035 -9.99946
4.42987 -4.61915 19
-6.18921 9.99959 -1.96605
11.7995 4.68479 6.29906
4.57907 -6.54307 10.0004
2.98287 -4.19373 5.88089
-5.75563 -9.9996 -4.08737
-6.49003 9.99944 -9.92139
-5.10711 -1.11995 -17.1119
-6.23245 -5.91664 1.00278
6.89386 -0.0293586 -18.9999
9.75156 9.99953 -0.955285
-6.28025 9.99948 9.89418
-0.662705 -6.5592 -10.1282
7.01046 9.87826 2.96962
10.1009 4.08818 4.39938
1.50499 2.95211 -19
0.770955 -7.19217 -9.99991
-2.44928 -5.56609 -11.866
11.6669 -6.54097 -9.99931
1.99118 7.20799 -9.99994
6.87414 -2.91681 5.24336
