-0.855907 -0.0427037 0.372186
-0.543529 0.247395 -0.312043
0.4911 -0.339039 0.169764
0.77186 0.0208742 -0.587939
0.375036 -0.0241564 0.23985
0.145012 -0.555612 0.00923692
0.806108 -0.0761199 -0.265694
-0.619153 -0.576981 -0.124774
0.734036 -0.35053 -0.145325
-0.400116 0.0167344 0.732529
0.276528 0.110067 -0.941951
0.102459 -0.741515 -0.262257
0.0164634 -0.66321 -0.730435
0.530186 0.100634 -0.881383
-0.0658848 -0.593397 -0.668585
-0.410285 -0.0636054 0.441494
-0.728491 0.111751 -0.448685
-0.890182 -0.354554 0.0378527
0.592255 0.0996607 -0.852263
0.0868404 0.190927 0.706127
-0.944338 -0.111536 0.212592
0.456664 -0.393699 0.148736
-0.950905 -0.291712 0.329326
0.361295 0.154293 0.142816
0.651352 -0.47427 -0.155788
0.320574 -0.726369 -0.514657
-0.517596 -0.460295 -0.580215
0.193754 -0.177437 0.26712
-0.537633 -0.362141 -0.97945
0.384519 0.233274 -0.98381
-0.103951 -0.618774 -0.470036
0.756822 0.0493654 -0.200654
-0.24503 -0.0484419 0.770822
-0.681527 0.166656 -0.431806
-0.796658 -0.0980286 0.580241
0.0637423 -0.577723 -0.121445
-0.222422 0.169218 0.74307
-0.858414 0.0124028 -0.351722
-0.201357 -0.565976 -0.320406
-0.630668 -0.631936 0.338415
-0.0560265 -0.47851 0.0712003
-0.0326079 0.130626 0.735475
-0.488146 0.182809 0.0625625
-0.619992 -0.397656 -0.862577
-0.0270207 -0.0172268 -0.933158
0.304226 -0.686886 -0.705532
-0.3792 0.179593 -0.84267
0.38069 0.0874806 0.179326
-0.287555 0.236137 -0.401219
-0.734897 -0.546387 -0.16216
0.126606 -0.406692 0.193776
-0.0825639 0.130668 0.129232
0.665737 -0.491473 -0.541409
-0.765981 -0.152179 0.602934
-0.591802 0.577349 0.76575
0.90551 -0.33712 -0.730121
-0.941469 -0.301875 0.0569853
0.427132 -0.610681 -0.754723
0.35635 -0.507334 -0.996096
0.404975 0.240783 -0.0457106
-0.0476422 0.207255 -0.928573
0.742268 -0.372747 -0.595602
0.730904 -0.421748 -0.267038
-0.592672 -0.393 -0.596664
-0.810559 -0.472016 -0.361259
-0.499733 -0.569932 -0.0708098
-0.378437 -0.387627 0.227723
0.221908 0.395814 -0.739275
0.37808 0.288288 -0.934703
0.383625 0.232756 0.0206368
-0.469706 -0.582152 -0.127666
-0.821038 0.038871 -0.412887
0.506221 0.30969 -0.259968
0.772514 -0.200623 -0.921124
0.950889 -0.280219 -0.713294
-0.0761389 -0.724059 -0.361482
-0.659193 -0.389827 0.604128
-0.25391 0.0429488 0.207428
-0.574168 0.211271 0.617875
0.0271617 -0.738215 -0.263825
-0.196422 0.0561656 0.169641
0.723337 0.0889705 -0.149068
0.463229 -0.649208 -0.336865
-0.890809 -0.295065 -0.00452057
0.132166 0.444197 -0.648771
0.937227 -0.225622 -0.526093
-0.605889 0.195374 -0.0555105
-0.258131 -0.595065 -0.970002
-0.942418 -0.244842 0.429392
-0.643241 0.0791044 0.224631
0.20776 0.441759 -0.612235
-0.611505 -0.528357 -0.00257413
-0.124621 0.0274812 0.58931
-0.433861 -0.599603 -0.220206
-0.291339 -0.0781279 0.733208
-0.703815 0.0672752 -0.499187
-0.25257 -0.186659 -0.985113
0.0736635 0.205821 0.0701655
0.746944 0.131371 -0.319056
0.262762 -0.165482 -0.997763
-0.814718 0.0081926 0.341647
-0.639395 0.723113 0.718323
-0.115349 0.0707663 -0.929604
0.253647 -0.137955 0.269799
-0.530834 -0.000714788 -0.703075
-0.653884 0.728262 0.873243
0.594209 0.214968 -0.714284
-0.375949 0.330634 -0.958529
0.331025 -0.665608 -0.774254
0.642126 -0.542548 -0.296344
-0.85086 -0.0749141 -0.444469
-0.122973 -0.46532 0.0528395
-0.875428 -0.352021 -0.0364958
0.671941 -0.487453 -0.616776
0.682523 -0.374731 -0.865461
-0.532297 -0.143563 0.61249
0.622547 -0.552301 -0.448683
-0.919441 -0.096738 -0.206924
-0.450593 0.0961121 0.182081
-0.345833 -0.344217 0.17657
-0.00870323 0.496322 -0.455109
-0.55922 -0.496251 -0.805617
-0.764265 -0.536947 -0.224407
-0.498863 -0.210797 0.599979
0.749696 -0.0708219 -0.933898
-0.0951458 -0.56093 -0.603364
0.316728 0.425832 -0.40095
-0.703587 -0.364717 -0.551733
-0.907456 -0.237314 0.0191769
-0.55599 -0.0339409 -0.645948
0.639596 -0.0176147 0.0650253
-0.250213 -0.607726 -0.889951
-0.694443 -0.12261 -0.852107
-0.953898 -0.473555 0.092208
0.0849447 0.336221 -0.874728
0.260991 0.252862 -0.992239
0.601673 0.155941 -0.0351986
0.603918 -0.357097 0.0773672
-0.305097 0.0881503 0.197247
0.465953 -0.62209 -0.640254
0.753073 0.101394 -0.387837
-0.268587 -0.0322954 0.234301
-0.923137 -0.288537 -0.0807611
-0.131966 0.397458 -0.66222
-0.595414 0.691419 0.877234
-0.459229 -0.612341 -0.335241
0.797588 -0.0148241 -0.321903
0.56729 -0.576137 -0.485892
-0.508308 0.0577077 -0.68303
0.130147 -0.631848 -0.82363
0.433777 0.371208 -0.441348
-0.805995 0.418004 0.762225
-0.77089 0.0508212 -0.47099
-0.000898397 0.457335 -0.656635
-0.886878 -0.282831 0.576233
-0.923658 -0.493677 0.327814
0.628443 -0.195893 0.0938273
-0.59046 0.434546 0.623227
0.797361 -0.392431 -0.786217
-0.214866 0.307827 -0.260597
-0.272131 -0.527821 -0.707938
-0.643555 0.658979 0.91649
-0.067979 -0.0465861 0.205019
0.736687 0.0306991 -0.113751
-0.175116 0.372674 -0.882053
0.699953 -0.268208 -0.00954496
-0.693244 -0.736409 0.160157
-0.754751 0.0392637 0.372755
-0.524344 -0.429583 -0.797644
-0.462192 -0.0624195 -0.985723
0.561371 -0.557306 -0.555835
-0.0534595 0.156431 0.808202
0.063332 0.246253 0.0180911
-0.39577 -0.168427 0.36973
0.720508 -0.0479398 -0.0406619
0.636801 -0.337888 -0.916957
-0.754693 0.208819 0.727224
-0.201778 0.375711 -0.510076
-0.695489 0.0762628 0.172458
0.508008 0.338341 -0.419081
0.875735 -0.220062 -0.858363
-0.722901 0.443506 0.599346
0.350644 -0.704824 -0.586944
0.016159 -0.499687 0.0699601
-0.207798 -0.0804374 0.219586
0.0777998 0.119899 -0.9274
-0.368862 -0.58936 -0.223275
0.0590705 0.48662 -0.469087
-0.389769 -0.0618927 0.292208
0.665046 0.196241 -0.595339
0.0651486 -0.63185 -0.838291
-0.412604 -0.427448 -0.977987
-0.84413 0.0128928 -0.0455835
-0.760003 0.21781 0.539761
-0.447111 0.102861 -0.812298
0.125995 0.175852 0.117076
-0.615391 0.734809 0.924763
-0.231198 -0.52821 -0.651052
-0.838262 0.0491527 -0.115803
-0.499108 -0.432207 -0.976694
-0.329275 -0.107878 0.674119
-0.468762 -0.352473 0.569246
-0.898772 -0.430899 0.0551564
0.638273 0.20432 -0.658679
-0.0531523 0.295382 -0.0978074
0.716207 0.156509 -0.262584
0.487514 -0.489338 -0.00548937
-0.372077 0.242256 -0.356551
0.20923 -0.652382 -0.814839
-0.3327 0.142935 -0.794003
0.25642 -0.0777258 0.265316
-0.49448 -0.545708 0.212908
0.325635 -0.0606408 0.258575
-0.701004 0.321503 0.797994
0.175072 -0.0682474 -0.948179
-0.90605 -0.18815 -0.367753
0.339663 -0.723349 -0.317361
-0.139921 -0.23463 0.197131
0.532452 0.23056 -0.826976
-0.697443 -0.140299 0.609663
-0.00793411 -0.0906009 0.227324
0.0192459 0.0894342 0.67451
0.318031 0.0964445 0.192912
-0.305177 -0.100602 0.545564
0.00558738 0.287983 0.817963
-0.22141 -0.374237 -0.97515
-0.586248 0.647789 0.772136
0.375483 0.371611 -0.746701
-0.87104 -0.56421 0.0243385
-0.135504 -0.0277733 0.190567
0.685127 0.137931 -0.126116
0.249133 0.359148 -0.173682
-0.0434553 -0.357651 -0.935243
-0.147363 0.452699 -0.287982
0.203515 -0.698596 -0.187088
-0.29864 -0.0594432 0.508825
0.346927 0.38821 -0.679196
-0.66694 -0.578871 -0.339817
0.234619 0.433219 -0.540966
-0.120729 0.0445068 0.170444
-0.947521 -0.168603 0.0656549
0.551724 0.274908 -0.218386
-0.23469 -0.42144 0.112842
0.403149 -0.689062 -0.331234
-0.974423 -0.225431 0.271366
-0.680706 -0.538277 -0.415888
-0.674871 0.0347081 -0.548769
0.490929 -0.571328 -0.768461
-0.743183 0.230675 0.59527
-0.0529797 -0.623904 -0.603791
-0.80454 0.00494922 0.420993
0.359662 0.4026 -0.462169
-0.333097 0.182893 -0.543065
-0.847893 -0.486258 0.0189627
0.267083 -0.520929 -0.994848
0.376627 -0.284284 0.242673
-0.460273 0.15495 -0.526561
-0.943654 -0.296412 0.395583
-0.290493 -0.573923 -0.219719
-0.141649 -0.512505 -0.585688
-0.057445 -0.667561 -0.516913
-0.446055 -0.0375969 0.398978
-0.0391045 0.488807 -0.521017
-0.076045 0.00261647 0.644367
-0.919349 -0.272114 -0.295163
0.0405587 -0.696887 -0.651435
-0.548458 -0.586645 -0.136871
0.37359 -0.702002 -0.39017
-0.885626 -0.115051 0.0147382
-0.0107327 0.196441 0.860794
-0.020926 -0.220375 -0.9377
-0.810476 -0.665781 0.374162
-0.198006 -0.295454 0.190327
-0.258773 0.201414 -0.944201
-0.471898 0.194753 -0.454137
-0.467205 -0.412261 -0.623658
0.126789 0.422588 -0.713743
0.213671 -0.500884 0.111623
-0.0890407 -0.424694 0.112623
-0.319075 0.37144 -0.950962
-0.883365 -0.0736552 -0.357575
0.10915 0.126665 0.165889
0.142036 0.299003 -0.122181
0.0121093 0.251836 -0.00800356
-0.657231 0.175836 -0.107869
-0.529478 -0.411176 0.584212
0.399395 -0.641109 -0.202027
0.290474 -0.238005 -0.995397
-0.252761 0.38038 -0.90553
0.23162 -0.599084 -0.861032
-0.408455 -0.0910055 0.361047
0.166799 -0.75008 -0.396087
-0.967156 -0.36666 0.283292
0.0149346 0.181589 -0.925887
-0.85401 -0.675153 0.311123
-0.662573 -0.642569 0.40422
0.20382 0.41521 -0.201522
0.00273067 -0.700208 -0.214957
-0.742755 0.385126 0.533465
0.421053 0.160844 0.107887
0.26442 -0.686585 -0.770332
-0.287419 -0.570914 -0.452859
-0.897649 -0.17566 0.00983592
-0.233728 -0.00218961 -0.936729
-0.0156882 0.401457 -0.776602
0.211933 -0.404685 -0.9326
0.0483649 -0.657264 -0.169959
-0.498541 0.109296 -0.871561
-0.38044 0.261115 -0.165935
-0.836885 -0.164886 0.584017
-0.633174 0.0616523 0.403407
0.927763 -0.224987 -0.810106
-0.0513686 0.0501719 -0.92974
-0.747112 -0.21378 0.6121
0.57116 0.295965 -0.421293
0.811295 -0.223108 -0.471815
-0.611839 0.0263115 -0.98306
0.557278 0.0926346 0.0728644
-0.874673 -0.0649193 0.0604248
0.668656 0.0899457 -0.862079
-0.883183 -0.356334 0.564631
0.729471 -0.299558 -0.0769176
-0.441811 -0.194604 -0.973517
-0.682883 0.0360968 -0.97582
-0.0657341 -0.705244 -0.883272
0.280769 -0.197156 0.271078
-0.232032 0.112812 0.138115
-0.6842 -0.0324 0.6226
-0.342024 -0.568775 -0.500306
0.415034 0.277452 -0.0987752
-0.608552 -0.54115 -0.46636
-0.0830523 0.495484 -0.463194
0.112892 -0.315504 -0.9377
-0.901943 -0.0326135 -0.187365
0.561506 0.144251 0.0147256
-0.594839 -0.102653 -0.646506
-0.69764 -0.541371 -0.0978697
0.798043 -0.350698 -0.841618
0.655318 0.106213 -0.794472
-0.265698 -0.256515 0.221643
-0.633267 0.554861 0.832841
-0.251712 0.162302 -0.615374
-0.463104 0.103648 -0.666462
0.792519 -0.300042 -0.462629
-0.933054 -0.381085 0.502972
0.045055 0.298817 0.979888
-0.683982 -0.0103673 -0.869374
0.98725 -0.215422 -0.594719
0.314615 -0.33159 0.241277
-0.449444 -0.249025 -0.721494
0.52136 -0.513573 -0.793247
-0.47701 -0.413825 0.543053
0.278163 0.422712 -0.597666
0.229795 -0.72961 -0.649189
0.118635 -0.182021 0.25779
-0.880624 -0.392929 -0.28733
0.45989 0.342815 -0.760764
-0.576221 0.0916983 -0.897184
0.581442 -0.506685 -0.740365
-0.430436 -0.0103484 0.482075
-0.082552 0.466121 -0.57342
0.277829 0.17478 -0.96226
-0.182146 0.213719 -0.925864
0.0209132 0.0396743 -0.930005
0.538263 0.280144 -0.707665
-0.964188 -0.234656 0.0679874
0.113155 0.384843 -0.82664
0.424645 -0.564967 -0.904811
-0.573554 0.100801 -0.971878
-0.474815 -0.461901 0.330625
0.963934 -0.281027 -0.638009
-0.76849 0.35693 0.792517
0.699857 -0.370409 -0.0888191
-0.615325 -0.000293477 -0.827602
-0.064943 0.496475 -0.392615
-0.4658 -0.260093 -0.820007
-0.498033 -0.10174 0.648419
-0.202859 0.423356 -0.430546
-0.164294 -0.34223 -0.940595
-0.328763 0.191546 -0.981009
0.4782 -0.00324417 0.186875
0.827594 -0.143461 -0.499079
-0.187828 0.372944 -0.263605
-0.443788 -0.440245 -0.681125
-0.329795 0.20938 -0.48068
-0.653969 -0.43055 -0.962246
0.756969 0.0925089 -0.262891
-0.491573 -0.351654 -0.802741
-0.191325 -0.49534 0.00810533
-0.69169 0.249576 0.767406
-0.731458 0.362153 0.598206
0.16764 -0.740651 -0.537877
-0.745875 0.0413399 0.450929
-0.0786691 0.343901 -0.971311
-0.88902 -0.157733 0.536187
0.453643 0.362406 -0.37444
0.047327 -0.2713 -0.938885
-0.648406 -0.600484 -0.273583
-0.787653 -0.702541 0.170892
-0.182429 -0.411328 -0.936893
-0.403381 0.200732 -0.458215
-0.808553 0.478263 0.80835
0.665874 -0.15376 0.0501372
0.859422 0.0766604 -0.732276
-0.784341 -0.732881 0.251214
0.159704 -0.461391 -0.934682
-0.531923 0.18 -0.488528
-0.914498 -0.162287 -0.0528807
-0.137963 0.195087 0.0511715
-0.715666 0.289874 0.50446
-0.157072 -0.408882 0.108701
-0.84615 -0.0959981 0.543708
-0.910869 -0.132509 -0.3245
0.152419 0.404062 -0.769866
-0.682539 0.0978191 0.0485689
-0.740221 0.59688 0.843525
0.130185 0.452438 -0.234731
0.00528345 -0.0799801 -0.934132
-0.109683 0.100406 0.846308
0.32783 0.358845 -0.813108
0.463315 0.0531111 0.164558
-0.57846 -0.63747 0.138364
-0.660998 0.124838 -0.488218
-0.674467 -0.577632 -0.163939
-0.370894 0.281088 -0.881347
-0.324624 -0.393631 0.136552
0.0523933 -0.554087 -0.973825
0.305423 0.421858 -0.530406
-0.826816 0.0695837 -0.341677
0.425519 -0.239465 0.232815
0.414344 -0.640724 -0.672566
0.231566 -0.0813117 -0.994807
-0.587196 0.369377 0.588691
-0.725018 -0.0540196 -0.888951
-0.12779 0.367644 -0.722468
-0.199555 0.215978 0.019702
0.660551 -0.309945 0.0394795
0.152238 0.0365749 -0.929493
0.347936 -0.567394 -0.983063
-0.660936 -0.484267 0.567556
-0.59102 0.70621 0.720496
-0.510625 -0.151757 -0.737844
0.660128 0.243182 -0.345514
-0.599095 0.0372704 0.573131
-0.224468 -0.594766 -0.24633
-0.604511 0.4445 0.757502
0.276247 -0.744972 -0.342824
-0.5497 0.161856 0.0665389
0.450353 -0.15973 0.224688
-0.858174 -0.179185 -0.433397
0.857746 -0.336734 -0.796903
0.222095 -0.734564 -0.58413
0.0548504 0.161576 0.12251
0.810256 -0.205304 -0.402852
-0.788929 0.104594 -0.122376
-0.68067 -0.504778 -0.472906
0.804058 -0.269298 -0.401397
0.414089 -0.451642 0.117983
-0.780364 0.0228772 0.0742451
-0.201301 -0.590747 -0.818824
-0.109551 0.224338 -0.934168
-0.495756 0.140331 0.122124
-0.173216 0.438658 -0.484407
0.39799 -0.404011 0.180062
-0.926086 -0.0834889 -0.275279
0.472975 0.364872 -0.558217
-0.574631 0.366733 0.657451
-0.574747 -0.52729 0.392081
-0.647471 0.0850701 0.10486
-0.830997 -0.126936 -0.48267
0.441649 0.338158 -0.258708
-0.1195 -0.135091 -0.936355
-0.90499 -0.266902 -0.357661
0.395327 -0.611156 -0.123632
-0.789052 -0.501508 -0.153011
0.484481 -0.524656 -0.934181
0.0510663 -0.0227792 -0.932583
0.171991 -0.699075 -0.691128
-0.915627 -0.432876 0.379554
0.448993 -0.262207 -0.994447
-0.928789 -0.139807 -0.110413
-0.828124 -0.197597 -0.494558
-0.374169 -0.373472 -0.985055
-0.147413 -0.529457 -0.959293
0.173079 -0.607017 -0.865171
0.5455 0.159203 -0.842247
-0.778097 0.0907616 -0.398565
-0.885911 -0.333066 -0.329997
0.536899 0.198091 -0.0428645
-0.627718 0.527016 0.60041
-0.53819 -0.575155 0.166083
-0.689784 0.577934 0.577627
-0.0994636 -0.676341 -0.300144
-0.858155 -0.410011 -0.0771956
0.43307 0.105993 0.146571
-0.550859 -0.271269 0.607599
-0.508879 -0.188451 -0.803978
-0.738263 0.289075 0.620551
-0.75626 0.0539885 0.302473
-0.391005 0.158465 -0.587367
0.533452 -0.375204 0.129272
-0.480697 -0.281099 0.586568
0.127329 -0.752565 -0.464334
0.0643815 -0.750966 -0.31854
-0.677365 -0.529567 -0.00243238
-0.609398 -0.565966 -0.900432
-0.229778 0.357614 -0.442896
-0.50379 0.091289 -0.594293
-0.110577 -0.619499 -0.243366
0.132786 0.485437 -0.356806
0.399223 -0.548392 -0.0593912
0.915414 -0.286776 -0.783133
-0.185526 -0.0239648 0.579812
-0.455482 -0.349837 0.492403
0.182463 0.138854 0.149712
-0.766624 0.0551437 0.148138
0.637802 -0.459724 -0.744929
0.808706 -0.0851081 -0.334112
0.596919 0.127792 -0.797743
0.613731 -0.513105 -0.674832
-0.206801 -0.658903 -0.880452
-0.812983 -0.374254 0.586327
-0.199828 0.282061 -0.63576
0.407426 -0.314092 -0.994807
-0.571617 -0.0850742 0.594453
-0.322636 0.152328 -0.605205
0.658085 -0.434243 -0.0988534
0.708926 -0.202093 -0.94858
0.217659 0.154502 -0.930261
-0.442265 0.209453 0.0234606
0.306393 0.242934 0.0448966
0.635541 0.247607 -0.420411
-0.448835 -0.481676 0.255355
0.0787009 -0.0888319 -0.935111
0.383732 0.043076 -0.995095
-0.185656 -0.356973 0.151266
-0.627966 0.37513 0.532507
0.150512 -0.484537 0.128582
-0.0680721 -0.0817469 -0.934119
0.331063 0.280204 -0.981476
-0.813597 -0.625948 0.0311524
-0.95649 -0.156702 0.289176
-0.825131 0.0901275 -0.185125
0.759975 -0.370699 -0.450819
-0.754174 0.301862 0.546287
-0.949501 -0.574912 0.229914
-0.859085 -0.517663 0.487752
0.492109 0.353556 -0.488561
0.668997 -0.23371 0.0429597
-0.0204133 0.239042 0.754859
-0.685974 -0.680745 0.347223
0.396706 0.314786 -0.194241
-0.39293 -0.567555 -0.842553
0.510818 -0.06726 0.183858
-0.106504 -0.536914 -0.680216
0.0114796 0.190293 0.790124
0.0748035 0.295371 0.902534
0.626071 0.154998 -0.736726
-0.0273424 -0.170327 0.227426
-0.619183 -0.510383 -0.858632
0.340818 0.407345 -0.328095
0.923395 -0.331914 -0.661808
0.563104 0.0488573 -0.9421
0.108743 -0.717913 -0.670714
0.748339 -0.264518 -0.917275
0.119267 -0.63568 -0.893909
0.659501 -0.0829297 0.0535552
-0.43287 -0.469182 -0.605656
0.638134 -0.374328 0.024067
-0.512424 -0.544109 -0.804402
-0.899318 -0.0197458 -0.248715
-0.492727 0.0113669 0.388444
0.754848 -0.285873 -0.140227
-0.636576 0.199407 -0.16473
-0.577601 0.0406374 0.503655
-0.775708 0.170574 0.607429
-0.188891 -0.591782 -0.980499
-0.442563 -0.294289 0.443466
-0.392871 0.224582 -0.0227138
-0.473542 -0.0428904 0.672361
0.753882 -0.0380902 -0.103027
-0.142046 0.0479229 0.892224
0.408108 0.0308789 0.204059
0.424128 0.387244 -0.507457
0.538148 0.232753 -0.101615
-0.314983 0.111315 0.670512
-0.505846 0.0700098 -0.813391
0.699275 -0.11947 -0.960102
-0.575593 -0.17789 -0.829391
0.616997 0.101291 0.0186249
-0.752112 -0.508519 -0.0861467
-0.524053 0.129773 -0.538252
0.684056 -0.0316591 0.0101667
0.805408 -0.218586 -0.328919
-0.498061 -0.23891 -0.984082
-0.0536241 0.255421 0.821427
-0.0851631 0.377366 -0.774468
-0.607649 0.158099 0.657067
0.512092 0.147548 0.0637189
-0.258307 -0.503687 -0.0106879
-0.301289 0.0182673 -0.960144
-0.223113 -0.561799 -0.401769
-0.364606 -0.201023 0.299576
-0.768974 0.142122 -0.17999
0.276187 -0.421404 -0.936411
-0.944943 -0.27821 -0.228597
-0.721729 -0.639671 0.437617
-0.882113 -0.0285245 -0.086068
-0.200455 -0.533461 -0.0586133
-0.21033 0.209177 -0.75981
-0.746481 0.0670125 0.0318794
0.771436 -0.338264 -0.520767
-0.648771 0.305157 0.500387
-0.635811 0.0542599 -0.872714
-0.540596 -0.512708 0.50548
-0.131231 0.239594 0.00405821
0.535666 -0.0100477 0.150841
0.810686 -0.0715798 -0.484038
0.151087 -0.727767 -0.222217
-0.81785 -0.57106 0.471719
0.18295 0.26749 -0.990702
0.0819714 0.191392 -0.931001
0.199119 -0.699992 -0.767885
-0.609989 -0.14704 0.604627
-0.914794 -0.51004 0.0438539
0.326334 0.353317 -0.194107
0.862478 -0.0785943 -0.514567
-0.572988 -0.621293 -0.266584
-0.141795 0.203566 0.830135
0.0287389 0.100854 0.151065
-0.352655 0.0278476 0.780855
0.39283 -0.0979691 0.246329
-0.465987 -0.367958 -0.704526
-0.4709 -0.510172 0.0149968
0.589289 -0.24614 0.129071
0.703414 -0.113931 -0.00634341
0.237657 -0.746349 -0.402348
-0.118902 0.351174 -0.823375
-0.761886 0.501804 0.866328
0.266133 -0.560234 -0.0848813
0.437324 -0.68251 -0.395023
0.259507 0.375463 -0.793117
-0.261548 -0.381786 0.159892
-0.555144 -0.373266 -0.832512
-0.821373 -0.42191 -0.402381
-0.896846 -0.0316243 -0.31317
-0.256568 -0.54727 -0.833049
0.260118 -0.657314 -0.162585
-0.329922 0.257816 -0.129133
0.766608 -0.00281054 -0.160154
-0.780124 -0.536719 0.519733
0.247318 -0.305483 0.252099
-0.342418 0.227507 -0.820845
-0.214246 0.169967 0.0869056
-0.637125 0.736358 0.796476
0.549591 -0.48939 -0.0356103
-0.267995 0.209171 0.0403335
-0.440632 -0.483227 -0.976693
-0.040776 0.275413 -0.0314253
0.555818 0.259163 -0.76688
-0.226364 0.380907 -0.38157
0.6984 -0.453767 -0.213007
0.11463 -0.636755 -0.971029
0.515326 -0.589758 -0.592711
-0.681991 0.196342 -0.287021
-0.415787 -0.307697 0.363537
0.17929 -0.318853 0.248063
-0.863582 -0.678421 0.17967
-0.412266 -0.525058 -0.542038
-0.263951 0.230336 -0.474676
0.32593 -0.610059 -0.141489
0.2435 0.448239 -0.40989
-0.601752 -0.605334 -0.334992
-0.400372 -0.594977 -0.151566
-0.732212 -0.275944 -0.57657
-0.174359 0.0164632 0.855325
0.528761 -0.452758 0.0312454
-0.750583 -0.592792 0.486115
0.0394144 0.383404 -0.819498
0.040435 0.334334 -0.936499
0.103678 -0.758608 -0.385253
0.439925 0.223687 -0.926188
-0.77143 0.420521 0.818181
0.25691 0.261986 -0.0136253
0.780534 -0.242613 -0.186804
0.0280825 -0.470701 -0.929025
-0.535596 -0.151755 -0.67247
-0.620696 -0.0322033 -0.622243
-0.289882 0.167872 0.0942872
-0.130437 -0.467467 -0.930009
-0.065073 0.265899 -0.986669
-0.429058 -0.110727 0.679032
-0.0286857 -0.399691 0.152842
-0.642804 -0.454671 -0.894718
0.00485106 0.430962 -0.718624
0.80286 -0.0304066 -0.397108
-0.168428 0.0966345 0.595665
0.615 0.0461835 0.0597896
-0.418757 -0.00525579 -0.984372
-0.449039 -0.504457 0.177641
-0.00291421 -0.535088 0.0115151
-0.30687 0.0715683 0.804618
-0.434139 0.254377 -0.328784
-0.617082 -0.704972 0.151166
0.866347 -0.119304 -0.871316
-0.618886 0.0805047 0.157942
-0.68216 -0.156692 -0.622202
0.446135 0.0716365 -0.974019
0.220236 0.0690363 -0.929456
0.376669 -0.666298 -0.725503
0.579095 -0.555999 -0.196121
-0.746662 0.167542 -0.310933
-0.736823 -0.596099 0.00612827
-0.0444174 -0.7188 -0.283967
-0.962967 -0.537717 0.107078
0.267041 -0.705584 -0.212966
-0.578627 0.15692 0.579489
0.795204 -0.123216 -0.209938
-0.780434 -0.174551 -0.533735
-0.925116 -0.0670599 0.144498
-0.620214 -0.559102 -0.961927
0.963827 -0.226604 -0.74856
-0.622678 -0.571784 -0.40158
-0.534683 0.0459253 0.345057
0.595848 -0.485712 -0.0971624
-0.634361 0.208954 0.718725
-0.653664 0.185163 0.467105
-0.512343 -0.500343 -0.9767
-0.291136 0.137142 -0.932532
-0.0118511 0.187067 0.683276
-0.691781 -0.688325 0.0526176
-0.68395 -0.322758 0.614671
-0.312597 0.0773143 -0.948525
0.801303 -0.020375 -0.537618
-0.555658 -0.61054 -0.891204
-0.114822 0.131058 0.628951
0.661179 0.0394169 0.00742167
0.139335 -0.74618 -0.317345
-0.380892 0.0678455 0.66559
-0.321539 0.226446 -0.00024291
0.0101284 0.498983 -0.386796
-0.948846 -0.307624 0.468686
0.725346 0.053705 -0.883025
-0.468008 0.0239318 0.313682
-0.0973498 -0.314758 -0.937634
-0.428342 0.148018 0.136313
-0.397024 0.253159 -0.0868017
0.500798 0.0794589 -0.931625
0.501089 0.332751 -0.694563
-0.877127 -0.632774 0.0569848
-0.266813 -0.587991 -0.299328
-0.50985 -0.601446 -0.843875
-0.640576 0.400999 0.792693
-0.0483382 0.0854447 0.162287
0.155782 0.329116 -0.872828
0.872762 0.038406 -0.789769
-0.603993 0.0949464 0.613216
0.952114 -0.270848 -0.573271
0.335015 -0.181053 -0.991181
0.694583 0.0781396 -0.0853535
0.620111 -0.382291 -0.861456
-0.592795 -0.561681 0.323316
-0.399305 -0.0802188 -0.986718
-0.546838 -0.292727 -0.981724
-0.630851 -0.488259 -0.516799
0.327681 -0.134148 0.266371
-0.674684 0.149678 -0.0521072
-0.601983 0.134195 0.470028
-0.680511 -0.0147214 -0.587858
0.195382 0.423713 -0.683211
-0.215362 0.202663 -0.679497
0.305884 -0.464659 -0.982509
-0.820053 -0.481262 0.53881
-0.638993 -0.373816 -0.918311
-0.133416 -0.0323836 0.634047
0.690432 -0.404763 -0.721678
-0.648664 0.203888 -0.229731
-0.213994 0.255811 -0.975944
0.0120785 -0.624086 -0.796629
-0.697364 0.356384 0.508196
0.470264 -0.614252 -0.234097
0.253918 0.341181 -0.84747
0.0309867 0.495822 -0.317624
0.197328 -0.137088 -0.985383
-0.227099 0.147904 -0.923494
-0.404458 -0.48755 0.0416545
-0.996239 -0.292198 0.197201
-0.407358 -0.61448 -0.282533
0.424133 -0.510326 -0.00397612
0.112159 0.350501 0.81889
0.80489 -0.156783 -0.284446
-0.480691 -0.198062 -0.697801
-0.580241 -0.460875 -0.562631
-0.603911 -0.616468 0.274154
-0.230344 0.257475 -0.541633
0.539696 -0.601426 -0.234546
0.733919 0.0990228 -0.82058
0.00506686 -0.0197711 0.215182
-0.00273826 0.296896 0.943607
-0.254039 0.0676501 0.560878
0.511269 0.273519 -0.149368
-0.152858 0.168005 0.881658
-0.532769 -0.336688 0.598583
-0.247903 -0.0209117 0.698311
-0.839714 -0.0570345 0.429521
-0.929862 -0.333979 -0.175704
0.581917 -0.584755 -0.320361
0.813711 -0.148599 -0.439713
0.373883 -0.437742 -0.994777
-0.52368 0.243895 -0.147655
-0.681737 -0.594888 0.483845
0.649333 -0.169337 -0.975683
0.671303 0.152083 -0.678301
-0.128002 -0.514208 -0.00931778
0.255106 -0.366702 0.22617
-0.691302 0.527727 0.865419
-0.925069 -0.0912521 0.280971
-0.41911 0.17849 0.0780225
-0.00248659 -0.522348 -0.939062
-0.194004 0.375961 -0.964436
0.107591 0.330538 -0.939184
0.277396 0.431058 -0.282569
-0.586413 -0.499538 0.552248
-0.553535 -0.557545 0.260992
0.278873 -0.00804978 0.250643
-0.652734 -0.677787 0.280843
0.210811 0.441296 -0.264564
-0.579663 0.74718 0.779743
-0.203549 0.0257186 0.735349
0.385716 0.363022 -0.240768
-0.723878 0.169021 0.484134
-0.262506 -0.565673 -0.141543
-0.592302 0.173866 0.0074372
0.0338147 0.293662 -0.98924
-0.267399 -0.537675 -0.0812989
0.0609593 -0.655489 -0.926881
0.957292 -0.0140685 -0.675326
-0.651609 0.0282975 0.632162
-0.615312 -0.173377 -0.651301
0.236442 0.237349 0.0671847
0.536888 0.315483 -0.355243
-0.862453 -0.674649 0.1102
0.513253 -0.397558 -0.958171
0.669858 -0.504514 -0.452067
0.674462 0.033228 -0.930102
-0.153686 -0.495577 -0.649091
-0.856157 -0.102434 0.478101
0.0477357 0.278525 0.76096
0.503857 0.182575 0.0122197
0.858436 0.0762313 -0.66848
-0.445514 -0.551017 -0.977991
-0.581363 0.696306 0.817765
0.347894 -0.577963 -0.915521
0.366822 0.412053 -0.535215
0.850408 -0.348637 -0.613637
-0.128582 -0.29955 0.168878
0.236912 0.109029 0.182258
0.701668 -0.458817 -0.499519
-0.584088 0.240603 0.554071
0.704303 0.136112 -0.617745
-0.643468 0.33206 0.774791
-0.614215 0.131749 0.0634885
-0.794521 -0.513416 -0.281304
-0.0710785 -0.640399 -0.984368
0.781414 0.0331768 -0.393984
0.441127 0.294674 -0.823986
-0.708939 0.662494 0.876908
-0.530905 -0.402982 -0.609248
-0.668998 0.1174 0.447215
-0.135063 -0.697222 -0.882396
0.522662 0.32105 -0.558151
-0.140751 0.26266 -0.981598
0.0287787 0.479395 -0.535892
-0.707764 0.0769405 0.255388
-0.916863 -0.0489468 0.223239
-0.674944 -0.629579 0.0268288
-0.776361 0.0104082 0.501318
0.411802 0.385589 -0.581857
-0.313519 0.130405 -0.66715
0.11534 -0.113449 0.254622
-0.597061 0.0769027 0.449765
-0.398647 -0.173596 0.509012
-0.159597 0.0579569 0.798831
0.795972 -0.254421 -0.263075
-0.436082 -0.39267 0.345944
0.205474 -0.578243 -0.118592
-0.0191628 0.32575 -0.973879
0.269497 -0.726562 -0.280598
0.553227 -0.0105557 -0.979108
-0.721412 0.456636 0.846261
0.744039 -0.162909 -0.0752447
-0.068782 -0.232054 0.208456
-0.839066 -0.459153 -0.289503
-0.680898 -0.224961 -0.622513
-0.838101 -0.259932 -0.463893
-0.663725 -0.720151 0.101163
-0.213401 -0.534829 -0.585507
-0.939075 -0.273036 -0.151867
-0.488775 -0.529826 0.124257
0.702835 -0.411623 -0.15734
0.104139 -0.731006 -0.532298
-0.590886 0.182792 0.512466
-0.626457 0.0867988 -0.540047
0.811172 -0.0903486 -0.41046
-0.605392 -0.0704346 -0.982657
0.687583 -0.289233 -0.935068
0.690126 -0.336512 -0.0240786
0.608329 0.267403 -0.481568
-0.661247 -0.194738 0.613837
-0.498702 -0.010252 -0.9844
-0.486561 -0.0138669 0.455152
-0.484371 0.069735 -0.747578
-0.572739 0.292187 0.616637
-0.431551 -0.235862 0.482574
-0.300437 0.13266 0.152305
-0.0326178 0.351847 -0.910947
0.668777 -0.466835 -0.684923
-0.573898 -0.42296 -0.976687
-0.159358 0.197987 0.758986
-0.625423 0.276372 0.737651
-0.107147 -0.396374 -0.933882
-0.859274 -0.419126 0.553395
-0.436963 0.225369 -0.398023
0.410243 -0.673899 -0.600969
-0.186656 0.261326 -0.0420672
-0.914775 -0.0778813 -0.137493
0.736711 0.0953421 -0.570446
-0.667869 -0.0863071 -0.615186
-0.0754256 0.0739681 0.608185
-0.255699 0.12029 0.816247
-0.15651 -0.652349 -0.831261
-0.706607 -0.433211 0.588614
0.0729596 0.0100906 0.224183
0.786022 -0.0610558 -0.182766
-0.0574848 0.0188772 0.190048
-0.573463 0.0785813 0.204554
0.483681 0.12107 0.106634
0.337762 0.0327285 0.225697
-0.890273 -0.398702 -0.148981
-0.732837 0.103761 0.47408
0.458274 0.215219 -0.0162671
-0.937163 -0.427587 0.310789
0.578958 0.276715 -0.551662
-0.271009 -0.582617 -0.377749
0.912669 -0.319741 -0.594458
-0.459527 -0.37442 -0.980185
-0.545961 -0.507896 0.336229
0.641321 0.226759 -0.529933
-0.711195 0.53221 0.710436
0.996428 -0.145842 -0.637795
-0.728957 0.452191 0.535694
0.0828693 -0.527437 0.0522954
0.771849 -0.310049 -0.205895
0.808946 0.0853519 -0.789632
-0.169313 -0.562554 -0.37754
-0.930904 -0.359337 0.417287
-0.941122 -0.151913 -0.251846
-0.631221 -0.59699 0.450316
-0.787669 0.135254 -0.250228
-0.309752 0.26279 -0.32932
-0.729625 -0.727561 0.215892
-0.19328 -0.00573437 0.66938
-0.194572 0.0435253 0.562169
-0.498574 0.118327 -0.981833
-0.475986 -0.499314 -0.55745
-0.90572 -0.0869098 0.345654
-0.672059 0.684429 0.825108
-0.742116 -0.365311 0.604008
-0.388096 -0.140631 -0.964996
-0.314125 -0.160014 -0.964544
0.263353 -0.594966 -0.136301
-0.988716 -0.232922 0.189122
-0.701488 0.173651 -0.171929
0.174008 0.3561 -0.156619
0.0975757 -0.505838 -0.949538
-0.840692 -0.705381 0.243124
0.628786 -0.280433 0.0880103
0.584792 0.256486 -0.66133
-0.177533 0.453326 -0.366647
-0.00779101 -0.705679 -0.534929
-0.560174 -0.584685 -0.39126
-0.213565 -0.510873 -0.773725
0.195663 -0.446137 0.16956
-0.617749 -0.247819 -0.64392
-0.64734 0.0774869 0.289422
-0.698543 -0.434789 -0.519787
-0.383803 -0.515675 -0.613403
0.308201 0.323614 -0.884845
0.689194 -0.490616 -0.27039
0.0191836 0.339973 -0.865346
-0.340453 -0.0376413 0.248339
-0.421387 -0.0432453 0.718456
-0.464532 -0.311306 -0.757851
0.165136 -0.263992 -0.939115
0.598203 -0.295643 -0.957019
0.405934 -0.185834 -0.983196
-0.757803 0.142058 0.549624
0.31305 -0.723976 -0.395345
-0.241851 -0.017664 0.534127
-0.359414 -0.0342604 0.47486
0.356204 -0.516683 0.00352368
0.241541 -0.737968 -0.515843
0.0675831 0.422872 -0.190828
-0.63375 -0.545224 0.522942
0.485575 0.174331 -0.877162
-0.074741 0.407551 -0.198946
0.348008 0.265007 -0.085113
0.431352 0.287674 -0.889174
-0.967373 -0.496167 0.175841
0.580928 -0.586514 -0.398863
-0.0918816 0.0893535 0.92753
0.320272 0.0118316 -0.996888
-0.252408 0.24374 -0.0315368
0.265752 0.0438547 -0.97663
0.212309 -0.542357 0.0457246
0.201262 -0.00396599 -0.940981
0.0776872 0.224745 0.779904
0.785036 0.0533299 -0.853808
0.98389 -0.219507 -0.671314
-0.488159 -0.345145 -0.648416
-0.170692 0.31998 -0.215656
0.551294 0.317097 -0.488327
0.145489 -0.520704 0.0747873
0.54469 -0.333472 -0.958807
0.494961 -0.433273 0.103423
0.278914 0.278608 -0.08794
-0.517491 0.0502599 0.27639
-0.438701 -0.616587 -0.958494
-0.306809 0.00532453 0.507007
0.370334 -0.251848 -0.991946
-0.548164 -0.218789 -0.670394
0.171183 0.323621 -0.95743
-0.342156 -0.528325 -0.736246
-0.3126 -0.372321 -0.983115
0.717622 -0.447467 -0.327617
-0.284666 -0.554875 -0.61605
-0.545982 -0.281543 -0.657855
-0.204348 -0.46863 -0.960729
-0.451766 -0.603645 -0.859772
-0.0959132 0.174151 0.937025
0.148675 0.217959 0.0599436
-0.167228 -0.0176467 -0.930978
-0.419132 0.258106 -0.234883
0.636119 -0.092787 -0.981108
-0.0858747 -0.669541 -0.81887
0.351461 -0.215324 0.260544
0.590232 -0.525167 -0.146059
0.694883 -0.47424 -0.394238
-0.637346 -0.577039 0.0288798
0.737921 -0.0058901 -0.921608
0.374115 -0.350815 0.2214
-0.414533 0.224178 -0.974201
-0.862753 -0.623016 0.375511
0.0883328 0.0455254 -0.929992
0.0895812 -0.442573 -0.931393
-0.752043 -0.660629 0.0426992
-0.407258 -0.121845 0.428483
0.725459 0.160447 -0.376367
-0.980497 -0.201653 0.128025
0.0683744 0.349724 0.948
0.912659 -0.0953201 -0.828472
-0.73658 -0.00239543 -0.517558
-0.202859 -0.499815 -0.704887
0.369932 0.204442 0.0791984
-0.125329 -0.609396 -0.786934
-0.665111 -0.0645706 -0.826611
-0.635228 -0.181916 -0.977973
-0.442668 -0.224842 0.554917
-0.734769 -0.125627 -0.906203
-0.376963 -0.516657 -0.978886
-0.52528 -0.503266 0.0548465
-0.133753 0.367217 -0.953413
0.584325 -0.467723 -0.802393
0.433441 -0.484207 -0.991361
-0.315993 0.292849 -0.83376
-0.578583 -0.0503558 -0.798722
0.460289 0.13784 -0.930895
-0.74291 -0.717791 0.105513
-0.949554 -0.502328 0.252568
-0.314501 -0.105574 0.609139
0.865654 -0.369024 -0.671728
0.462757 -0.579301 -0.104908
-0.788757 -0.710274 0.320619
0.699351 0.171442 -0.540799
-0.475105 -0.422363 0.400037
-0.929514 -0.583488 0.0698526
0.109673 0.287207 -0.986717
0.0884435 0.480199 -0.305131
-0.552567 -0.557321 0.102815
-0.0718769 0.183641 0.0771711
-0.557672 -0.545957 -0.975393
0.712905 -0.43942 -0.571994
0.432439 -0.0729087 -0.982826
-0.568669 -0.606567 0.211969
-0.279043 -0.525208 -0.777872
0.444804 0.190943 0.0526102
-0.726976 -0.55958 -0.288765
-0.109699 -0.170665 0.206769
-0.529813 0.202228 -0.0020124
0.494453 -0.0516343 -0.997133
-0.770439 0.0988858 0.622768
0.482545 0.337417 -0.320294
0.214393 -0.211667 -0.988846
0.21175 0.207224 -0.977088
-0.140003 -0.191642 -0.942216
-0.689476 0.19005 -0.356059
-0.719174 -0.717529 0.293273
-0.674754 0.671882 0.675068
0.41023 0.372322 -0.645976
-0.819252 -0.0402858 0.49529
0.385415 -0.374728 -0.993067
0.32952 -0.391872 -0.954506
0.208126 0.458559 -0.34258
-0.27571 0.175559 -0.786703
0.305198 0.198943 0.103371
-0.250219 0.0431033 0.849265
-0.924176 -0.635604 0.122184
-0.100434 0.228411 0.790071
0.150969 0.177251 -0.928807
-0.113287 0.48367 -0.342142
-0.988255 -0.355117 0.219405
0.0578248 0.328408 0.819702
0.193255 0.256715 0.0100074
-0.612401 -0.322288 0.613194
-0.260583 -0.468128 0.0491256
-0.228995 0.317125 -0.987038
-0.845053 -0.399739 0.0109565
-0.101294 -0.359826 0.149061
0.294882 0.310981 -0.945707
-0.816416 -0.482902 -0.219268
0.596551 0.271467 -0.358984
0.530611 -0.493666 -0.859084
0.0230617 0.239624 0.926817
-0.0848185 -0.609907 -0.544082
-0.986122 -0.35296 0.145366
-0.0288018 -0.287024 -0.9377
-0.877164 -0.0301727 0.301858
-0.658755 0.469678 0.823035
-0.014448 -0.669892 -0.837176
-0.361702 -0.321143 0.252424
0.673773 0.101408 -0.734756
0.681728 -0.0406274 -0.957426
0.0362321 0.226317 0.711713
0.799317 -0.0161132 -0.891503
-0.573029 -0.204832 0.609829
-0.152564 -0.265217 -0.944805
-0.744018 -0.680305 0.381455
-0.423525 0.131507 -0.881297
0.0607482 -0.554795 -0.00421825
-0.0700622 -0.506194 -0.930285
0.861864 -0.0117509 -0.550802
-0.856181 -0.0257556 -0.402152
0.987012 -0.15319 -0.565294
-0.767273 0.392463 0.712253
-0.386764 0.122827 -0.806829
-0.174139 0.116443 -0.927382
-0.334836 -0.541422 -0.813308
0.470903 -0.205005 -0.978429
0.619672 -0.00509343 -0.963368
0.23572 0.311484 -0.970787
0.740389 -0.400148 -0.517896
0.0465965 -0.722457 -0.502204
0.273621 -0.513031 0.0834321
0.677011 -0.505376 -0.340613
-0.379472 -0.142531 0.633953
-0.95545 -0.422866 0.123851
0.291285 0.442441 -0.467944
-0.333204 -0.578031 -0.283873
0.45344 -0.608047 -0.16913
-0.289133 -0.00883716 0.809542
0.173658 -0.577019 -0.0518648
-0.828179 0.0793904 -0.262038
-0.905249 -0.381915 -0.215565
-0.697803 -0.577268 -0.228804
-0.520703 0.126261 -0.930515
-0.700213 -0.180888 -0.958912
-0.126123 -0.59599 -0.981289
0.460268 -0.134484 -0.981289
0.786974 -0.358497 -0.642077
-0.572037 0.111805 0.11628
-0.905623 -0.569289 0.362799
-0.566201 0.0774206 -0.567712
-0.157965 -0.588024 -0.262101
0.657079 0.102185 -0.0386263
-0.443324 0.263167 -0.152135
-0.444596 -0.540283 -0.0276616
0.285986 -0.586578 -0.973104
-0.582017 -0.140375 -0.982361
0.00464753 -0.665336 -0.9769
0.228041 -0.470639 -0.958673
-0.889421 -0.110467 0.409907
-0.6148 0.50637 0.788183
-0.208229 0.325884 -0.569141
-0.254971 0.299691 -0.310392
0.0619381 -0.061182 0.239308
0.355598 0.299116 -0.143968
-0.604409 -0.296483 -0.961906
-0.375141 0.0237428 0.521597
0.0153637 0.0458098 0.190153
0.842326 0.0182915 -0.840947
-0.343987 -0.546923 -0.568785
-0.00905049 -0.75335 -0.333833
-0.553821 -0.343337 -0.629091
0.373974 0.322604 -0.867007
0.803085 -0.2651 -0.531847
0.144685 0.0270813 0.231971
-0.769235 0.536373 0.812431
-0.287496 0.124826 0.746397
0.0682328 0.417335 -0.760139
-0.336237 -0.104758 0.256361
-0.623284 -0.256046 0.614281
0.533818 -0.532622 -0.0960657
-0.282482 -0.0606701 0.648125
-0.100153 0.114757 0.774764
0.541806 -0.553252 -0.71374
0.338025 0.399676 -0.25758
-0.595099 0.310494 0.544015
0.632448 -0.543088 -0.376522
-0.0471102 0.336901 -0.168507
-0.460641 -0.128839 -0.980589
-0.965827 -0.578375 0.158175
-0.32718 0.0259691 0.230619
0.703418 0.0179959 -0.0497419
-0.194948 -0.452401 0.0621908
-0.0216546 0.183717 0.924304
0.373809 -0.0374875 -0.987098
-0.732702 -0.463318 -0.473035
-0.480331 -0.307682 -0.983174
0.666155 0.189771 -0.473928
0.29565 -0.72417 -0.638805
-0.183796 -0.156116 0.214456
-0.371565 -0.59065 -0.962445
0.907236 -0.165253 -0.839211
-0.301745 -0.23842 -0.965817
0.199338 -0.0314285 0.25533
-0.678818 0.707117 0.941657
0.283101 -0.645868 -0.827738
0.171355 0.466425 -0.410406
-0.178523 0.363974 -0.61485
-0.341641 -0.295828 -0.970632
-0.533084 0.254068 -0.235576
-0.799257 -0.674804 0.0972036
-0.503341 -0.594682 -0.974416
0.301676 -0.11342 -0.9926
-0.600635 0.0630993 0.34386
-0.890647 -0.649675 0.247185
-0.212465 -0.555083 -0.460776
-0.770916 -0.516605 -0.339576
-0.248697 -0.0813574 0.595272
-0.152324 0.103924 0.140041
-0.898629 -0.0938939 -0.0605747
-0.225911 0.227172 -0.603474
-0.776286 -0.487681 -0.0210098
-0.77976 -0.432069 0.577792
0.244734 0.175445 0.123671
-0.582899 -0.524899 0.0444698
0.721577 0.112814 -0.209218
0.677408 0.16122 -0.195823
-0.599183 -0.446467 -0.827724
-0.813543 -0.0078793 -0.463757
0.392137 -0.486868 0.0553745
0.0731617 -0.660381 -0.781624
-0.0717831 -0.113966 0.214527
-0.0600414 -0.160692 -0.936448
-0.79156 0.12095 -0.324603
-0.696381 0.585595 0.660511
0.948838 -0.0384391 -0.736218
-0.489552 -0.602298 -0.187328
0.557961 -0.406339 0.0713878
-0.0487778 0.237405 0.948286
0.328225 0.25653 -0.0233135
-0.121841 0.159143 -0.925712
-0.887991 -0.153966 0.465308
-0.140805 -0.616484 -0.325376
-0.358885 0.267227 -0.984401
-0.433229 0.0191954 0.667336
-0.924489 -0.205811 -0.297833
-0.0720843 -0.560673 -0.962731
-0.326468 0.245133 -0.0617903
-0.981398 -0.295364 0.268369
0.478821 0.344027 -0.627149
0.151506 0.106765 -0.926674
-0.747458 0.111712 -0.0610347
-0.063047 0.145802 0.880606
-0.516586 -0.469995 0.549498
0.073522 0.31095 -0.130001
0.818937 -0.24023 -0.890776
-0.589415 0.222103 -0.262464
-0.591312 0.146908 -0.514706
-0.2069 -0.0153571 0.818072
0.380573 -0.617531 -0.796305
0.127814 -0.683645 -0.170924
0.0957232 0.363596 -0.156411
-0.886196 -0.00847378 0.170394
-0.266275 -0.325627 0.193527
-0.284839 0.253461 -0.983507
0.729908 -0.337366 -0.893219
-0.322757 0.345412 -0.889054
-0.150837 -0.0800465 -0.933271
-0.418995 -0.259903 -0.973833
-0.333627 -0.0992767 -0.987299
-0.249498 0.0711846 -0.926077
-0.539216 0.0132577 -0.780027
0.683106 -0.391626 -0.785869
-0.455754 -0.158024 0.624486
0.911875 -0.0226642 -0.802862
-0.5659 -0.611418 -0.955673
0.440088 -0.553241 -0.81693
0.475913 0.241204 -0.081954
-0.866591 0.0296305 -0.285995
-0.665867 0.600266 0.891274
0.213595 0.0318359 0.231544
-0.385063 0.064613 0.220689
-0.445405 -0.356887 0.409459
0.0802481 -0.683908 -0.716857
0.955237 -0.156596 -0.780656
-0.0846569 0.460828 -0.254324
-0.87136 0.0391307 -0.20988
0.563201 0.292448 -0.290258
-0.891213 -0.448757 0.504898
-0.595991 0.629475 0.700973
-0.709699 0.528921 0.621571
-0.618523 -0.593419 -0.20153
0.335377 -0.611185 -0.843584
-0.255981 0.306891 -0.810031
-0.621206 -0.667259 0.0759313
0.715273 0.140689 -0.446091
0.616918 -0.526244 -0.516509
-0.411124 -0.60313 -0.907225
0.289861 0.301427 -0.153654
-0.497087 -0.601774 -0.395944
-0.412781 -0.425433 0.281698
-0.661737 -0.715112 0.223175
-0.756567 -0.289541 0.611545
-0.760718 0.079049 0.532756
-0.629575 0.599643 0.621901
-0.739647 -0.0699905 -0.961757
0.862255 -0.285098 -0.840317
-0.0246145 0.0429143 0.651257
-0.0187704 -0.71697 -0.469393
-0.385696 -0.40002 0.14744
-0.140315 0.407839 -0.232408
-0.381395 -0.601542 -0.342983
-0.147661 0.115507 0.912313
-0.739619 0.449056 0.718802
0.613771 0.250169 -0.599805
-0.380118 -0.532608 -0.0152775
0.598691 -0.564016 -0.256477
0.617902 -0.522929 -0.592526
-0.611873 -0.224435 -0.881676
0.442834 -0.657054 -0.271567
-0.57639 -0.564383 -0.068315
0.445361 0.297789 -0.14243
-0.267155 0.264587 -0.104455
-0.0251488 0.186308 0.990406
-0.244487 -0.258712 -0.985779
-0.863898 -0.431347 -0.223466
-0.0147932 0.477304 -0.593396
0.754707 -0.22419 -0.114719
0.642482 -0.516359 -0.212632
0.327092 -0.693842 -0.245101
-0.163043 0.296453 -0.159002
0.579085 -0.439184 -0.862505
-0.119643 0.469293 -0.516146
0.795098 -0.294413 -0.332543
0.105378 -0.23086 -0.938919
-0.573596 -0.275285 -0.902308
0.137387 0.221374 -0.979552
-0.241821 0.132978 -0.680817
-0.193986 0.413053 -0.318415
0.416197 -0.550456 -0.973528
-0.763733 0.0617324 0.222266
-0.330536 -0.575835 -0.157641
0.00879608 -0.590503 -0.150626
0.485012 -0.209342 0.205493
0.33274 -0.654929 -0.188047
0.977077 -0.0871613 -0.571559
0.0822433 0.488393 -0.40087
0.337675 -0.489972 0.0908723
0.648248 -0.243256 -0.962974
-0.204641 0.273369 -0.781903
-0.730396 -0.0580564 -0.564034
-0.347917 -0.0223933 -0.986188
-0.78007 -0.433871 -0.441926
-0.717421 0.105707 -0.00969321
-0.0391111 -0.583099 -0.108145
-0.717823 0.0618289 0.0983242
-0.97446 -0.170877 0.210252
-0.296893 -0.55482 -0.876979
-0.787211 0.230539 0.653434
-0.357933 0.164177 0.118057
-0.632131 0.202809 -0.393779
-0.595742 -0.605565 0.0735
-0.645262 -0.241219 -0.954016
0.159862 -0.192001 -0.944744
0.791748 0.00062566 -0.463431
-0.876424 -0.238801 -0.409115
-0.0660033 0.41453 -0.712059
-0.407223 -0.00293842 0.257018
0.77412 -0.329282 -0.270029
-0.470283 0.249688 -0.0971279
-0.667732 0.675717 0.753498
-0.537952 -0.0891832 -0.690865
-0.15067 0.175161 0.691188
0.0461462 -0.704477 -0.576069
-0.0827507 -0.686786 -0.438642
-0.90998 -0.186106 0.413777
0.0962025 0.46643 -0.536075
-0.473859 -0.485354 -0.785327
-0.19211 -0.142873 -0.966942
0.74647 -0.409447 -0.381677
-0.354687 0.226899 -0.416296
0.289457 -0.584705 -0.879511
-0.694823 0.0600321 0.415779
0.574919 0.0237567 0.105541
0.41717 0.176129 -0.977017
-0.733818 -0.126441 -0.962885
-0.421786 -0.460629 0.130198
-0.656429 0.0840582 0.668254
-0.872798 0.000944871 0.240872
-0.262977 -0.118831 -0.98841
0.982471 -0.163445 -0.712986
0.339787 0.153889 -0.992849
-0.261844 -0.418352 -0.982506
0.0686623 0.234948 -0.982063
-0.0206882 0.118754 0.635578
-0.768951 0.0400254 0.579412
-0.207979 0.0964125 0.876043
-0.104084 0.276556 -0.0418601
-0.404653 0.275985 -0.942015
0.92939 -0.106716 -0.514288
-0.457833 0.0520068 -0.984403
-0.273302 -0.476487 -0.983015
-0.748716 -0.494581 -0.409303
-0.722306 0.657696 0.940848
0.616799 0.0668137 -0.909732
-0.692033 -0.255881 0.6161
-0.931261 -0.415488 0.446222
-0.468817 -0.410754 -0.759989
0.285787 -0.722578 -0.568547
-0.37113 -0.278837 0.302428
0.771397 -0.10901 -0.132606
-0.11746 0.348783 -0.192953
0.115901 -0.355033 0.225021
0.847657 -0.373661 -0.742921
0.122199 -0.030437 -0.932796
-0.452642 0.0358334 0.236501
-0.859234 -0.364981 -0.382259
0.269373 0.057575 0.218912
-0.598382 0.367921 0.732447
0.136029 -0.685094 -0.758609
-0.574132 -0.223689 -0.981974
-0.282298 -0.559534 -0.54819
0.580071 0.19422 -0.78251
-0.447737 0.131631 -0.597287
-0.373314 0.118455 0.17727
-0.620608 -0.36014 -0.973029
-0.539969 -0.567389 -0.46047
-0.808916 -0.439917 -0.0153836
-0.205101 -0.0659848 0.636677
0.652983 -0.397128 -0.0358374
0.028153 -0.33218 -0.936383
-0.406666 0.210154 -0.900355
0.181893 -0.522758 -0.984324
0.354991 -0.682409 -0.654307
-0.78893 -0.0546432 -0.49763
-0.906498 -0.481867 0.446527
0.269279 -0.348318 -0.938371
0.477323 -0.535764 -0.862395
-0.315366 -0.533622 -0.0269312
0.467867 -0.638255 -0.576897
-0.943622 -0.256947 0.528874
-0.570388 -0.0236215 0.548543
-0.350757 0.274688 -0.22559
-0.76672 0.633334 0.912953
0.889533 -0.168117 -0.501775
0.0745191 -0.490373 0.111858
0.0109342 -0.560963 -0.0604188
-0.754189 0.290035 0.770855
-0.803025 -0.315153 -0.487142
-0.352119 -0.580657 -0.889404
-0.591577 -0.548525 0.469412
0.586922 -0.150508 -0.993388
0.139552 0.451192 -0.590051
-0.573466 0.225244 -0.372911
0.892764 -0.272597 -0.534535
0.237268 -0.704044 -0.704527
-0.489938 -0.61193 -0.264722
-0.295215 0.276772 -0.182186
-0.502197 -0.0125246 0.536247
-0.252741 0.294713 -0.371482
-0.535075 0.0513271 -0.984416
-0.115123 -0.668929 -0.372662
-0.752962 -0.322487 -0.532093
-0.679075 -0.299451 -0.604974
-0.844726 -0.451365 -0.151392
-0.0136982 -0.591469 -0.983927
-0.0140846 0.153514 0.112843
0.170408 -0.621232 -0.962775
-0.162354 0.324941 -0.765236
-0.00299633 -0.249612 0.225654
-0.583381 0.309371 0.689679
0.518585 0.061303 0.127759
-0.863614 -0.0500047 -0.0125804
0.103503 -0.628117 -0.142714
-0.517912 -0.170053 -0.985692
-0.541748 -0.00138986 0.477697
-0.741657 -0.00256069 0.618272
-0.533443 -0.535568 -0.0160262
0.493203 -0.656218 -0.406907
-0.151313 -0.552782 -0.451517
-0.924554 -0.107156 0.0817242
0.106248 -0.300223 0.242691
-0.749955 0.490283 0.763338
0.223366 0.318392 -0.897985
-0.222029 -0.649183 -0.9585
0.808684 -0.148812 -0.360735
-0.969891 -0.416248 0.186733
-0.190172 0.144404 0.644548
-0.898954 -0.615353 0.302592
-0.611296 -0.314113 -0.625474
-0.0822492 0.205948 0.726496
0.207863 -0.746416 -0.331903
-0.701971 0.39026 0.820872
0.595442 -0.429307 0.0155563
-0.373856 0.0522205 -0.983258
0.733881 -0.373596 -0.675952
-0.396613 -0.517292 -0.779504
-0.446161 0.153695 -0.942513
0.618772 -0.117522 0.103287
-0.588492 0.240346 0.674773
-0.269195 -0.324496 -0.977566
-0.0641721 -0.599092 -0.186106
0.0860988 0.0762295 0.199537
-0.859086 -0.308655 -0.412112
-0.139327 0.0724153 0.734093
-0.121303 -0.558231 -0.523294
-0.0685166 0.0799644 0.699911
-0.148575 -0.66098 -0.981787
-0.392858 -0.236681 0.350348
0.738686 0.111419 -0.756963
-0.959438 -0.436187 0.24582
0.341394 -0.569044 -0.0891575
0.712256 0.0803495 -0.685321
0.780057 -0.340637 -0.388687
-0.0193196 -0.640182 -0.185187
-0.689556 0.612425 0.724819
-0.726 0.146387 -0.113072
-0.280891 -0.0498281 -0.97552
0.00511905 -0.678647 -0.901108
-0.946794 -0.215986 -0.209797
0.764639 0.0477945 -0.520125
-0.541053 0.216306 -0.430303
-0.307449 -0.526334 -0.979907
-0.74633 0.342295 0.664164
0.443272 -0.664185 -0.523546
-0.721166 0.51253 0.55567
-0.550969 -0.614983 -0.205842
-0.651913 -0.507949 -0.946004
-0.302563 0.319367 -0.985736
0.478384 -0.334699 -0.988459
-0.623228 0.217277 -0.319983
-0.139623 -0.0970933 0.201772
0.0314069 0.33097 0.885809
-0.28856 0.288781 -0.2547
-0.531136 0.216045 -0.0733205
-0.0759688 0.165497 0.666444
0.49375 0.020617 -0.975859
0.518892 -0.619728 -0.524528
0.140281 -0.578698 -0.116165
-0.302931 -0.440322 0.0941971
-0.0158949 -0.348279 0.18111
0.314961 -0.540299 -0.0411769
-0.225929 0.350028 -0.327598
-0.14688 0.154618 0.10349
-0.159216 -0.547781 -0.769768
-0.332297 -0.487715 0.0352544
-0.36946 -0.090082 0.719516
-0.225405 -0.531042 -0.982674
-0.208265 0.275607 -0.109369
-0.0440185 0.494942 -0.319245
-0.548088 -0.0565202 -0.742349
-0.79358 0.590221 0.891266
0.108763 -0.450833 0.16079
-0.399959 0.184385 -0.521406
0.910849 0.0381536 -0.660486
-0.479019 0.256825 -0.203671
0.0401298 -0.204233 -0.9377
-0.814809 -0.364678 -0.445312
0.539682 -0.291578 0.163161
-0.896954 -0.215628 0.567436
-0.149712 0.320309 -0.988976
0.204647 0.283053 -0.0694638
0.524576 -0.26614 -0.989423
0.291216 -0.536739 0.0269103
-0.428034 -0.472761 -0.738484
0.121455 0.262374 0.0212987
0.129084 -0.0410464 0.248229
0.131996 0.468915 -0.466116
-0.62323 0.447246 0.570961
-0.807949 -0.46111 -0.0880108
-0.357242 0.126505 -0.728747
