-0.59506 0.630547 0.815898
-0.330242 -0.233424 0.241478
0.0661255 0.436044 -0.680236
0.104841 -0.572673 -0.0643515
0.667883 0.21965 -0.273129
-0.200948 0.257438 -0.705553
0.594801 0.199286 -0.0918604
0.245684 -0.438112 0.172818
0.67787 0.211371 -0.407204
-0.165964 0.0375888 -0.929613
0.240272 -0.557436 -0.0071389
-0.428574 -0.575882 -0.459311
0.0606988 -0.652252 -0.971741
0.461365 -0.272674 0.206513
-0.613354 0.56231 0.640036
0.77854 0.0991703 -0.711211
0.575666 -0.550553 -0.670152
0.0591543 0.155691 0.675535
-0.924085 -0.331568 -0.257903
0.528004 -0.45591 -0.924941
-0.827238 -0.236622 0.597703
-0.577716 0.761093 0.848993
-0.707053 0.569624 0.746937
0.812085 0.071074 -0.652153
-0.828443 0.00555893 0.111586
-0.68441 0.0657337 0.355681
0.405023 0.38266 -0.307274
0.0606599 0.284797 -0.0468457
-0.068215 0.233432 0.0255658
-0.26912 0.238983 -0.798218
-0.100271 -0.70978 -0.959036
-0.350249 -0.116459 0.499756
-0.240556 0.290925 -0.199395
0.398222 0.344515 -0.783876
-0.2049 -0.564829 -0.113494
0.958404 -0.0214376 -0.6094
-0.34609 -0.453318 0.076365
0.719877 -0.441142 -0.456237
0.358308 -0.466784 0.126111
-0.488459 0.249948 -0.359586
-0.043864 -0.697984 -0.960202
-0.450396 -0.226205 -0.77156
-0.887918 -0.108612 -0.394225
-0.792839 -0.552702 0.00200976
0.829891 -0.151878 -0.896791
-0.396326 0.0563651 0.613942
0.915234 0.0268927 -0.719905
-0.934945 -0.148654 -0.190619
0.0237496 0.265336 0.999232
-0.448496 -0.470499 0.0828368
-0.205197 0.164566 0.815431
0.742277 0.108284 -0.488634
-0.279571 -0.100652 0.243285
0.0429088 0.239363 0.853563
0.742049 0.0576509 -0.638389
-0.716299 -0.551424 0.522898
-0.256905 0.178079 -0.57601
0.434586 -0.0454292 0.222289
-0.636184 -0.16328 -0.842692
-0.612518 -0.3442 -0.901339
-0.8438 -0.0312071 0.369573
-0.548568 0.246669 -0.316527
0.479455 -0.331475 0.178646
0.768617 0.0252551 -0.592849
0.363191 -0.0260268 0.243636
0.148063 -0.560832 -0.000790422
0.806131 -0.0785207 -0.267431
-0.596657 -0.579266 -0.107001
0.731022 -0.354356 -0.139926
-0.387498 0.0157243 0.75002
0.27911 0.152049 -0.946686
0.0842347 -0.742124 -0.271246
0.0259317 -0.664861 -0.72802
0.525728 0.096707 -0.88774
-0.070357 -0.585921 -0.696854
-0.413133 -0.0622774 0.437988
-0.729018 0.107324 -0.452102
-0.900836 -0.363233 0.0495329
0.570847 0.109806 -0.841352
0.0920925 0.206666 0.710642
-0.944318 -0.111387 0.214301
0.454966 -0.387492 0.153733
-0.958306 -0.285557 0.318619
0.360186 0.157065 0.140537
0.644857 -0.481768 -0.156712
0.310639 -0.723782 -0.529601
-0.508109 -0.478588 -0.568723
0.180325 -0.172705 0.265706
-0.541784 -0.365733 -0.979187
0.404078 0.244818 -0.958715
-0.109662 -0.597964 -0.48535
0.760619 0.0506521 -0.220655
-0.239438 -0.0441586 0.779016
-0.683693 0.160332 -0.438497
-0.782578 -0.111754 0.590028
0.0778747 -0.583131 -0.130205
-0.214173 0.172741 0.742481
-0.853566 0.0136049 -0.360447
-0.193897 -0.569665 -0.311335
-0.640605 -0.648049 0.324723
-0.0488545 -0.47882 0.0755836
-0.0233403 0.137138 0.737302
-0.472134 0.175501 0.0800263
-0.626176 -0.399311 -0.869594
-0.0297185 -0.00940747 -0.932549
0.304155 -0.686979 -0.705185
-0.390067 0.190875 -0.86419
0.380029 0.084773 0.181583
-0.284336 0.237139 -0.398905
-0.726972 -0.549693 -0.155217
0.12554 -0.406781 0.193445
-0.0927446 0.12721 0.130741
0.65454 -0.498584 -0.573287
-0.777887 -0.17748 0.603658
-0.590119 0.588993 0.762292
0.896717 -0.350142 -0.71663
-0.943337 -0.291219 0.0553539
0.418566 -0.62315 -0.73815
0.364793 -0.510366 -0.996092
0.395701 0.249741 -0.0652467
-0.0527641 0.213571 -0.93195
0.741658 -0.380248 -0.58102
0.731961 -0.419028 -0.264044
-0.599762 -0.38463 -0.598374
-0.813259 -0.470173 -0.360098
-0.524536 -0.573915 -0.0772214
-0.382291 -0.39508 0.233175
0.2082 0.397865 -0.740139
0.374401 0.297868 -0.919077
0.383319 0.237829 0.00992594
-0.465303 -0.579247 -0.121541
-0.822918 0.0322432 -0.420844
0.518416 0.314733 -0.285356
0.779248 -0.204981 -0.917048
0.940297 -0.303019 -0.693801
-0.0786678 -0.714885 -0.329786
-0.65335 -0.421719 0.594229
-0.258014 0.0576068 0.201769
-0.576779 0.223373 0.637067
0.0186958 -0.736135 -0.264082
-0.192701 0.0533337 0.170697
0.73537 0.0683178 -0.152212
0.474802 -0.644263 -0.336391
-0.889284 -0.306779 0.0138679
0.12446 0.449924 -0.639114
0.906 -0.2153 -0.5084
-0.611706 0.197512 -0.06927
-0.250598 -0.603819 -0.97069
-0.925985 -0.223851 0.437605
-0.643313 0.0791056 0.226366
0.192072 0.447043 -0.602241
-0.615905 -0.52848 0.0184116
-0.127422 0.0394885 0.586828
-0.429913 -0.600996 -0.235698
-0.282763 -0.0752302 0.73274
-0.70692 0.060898 -0.500397
-0.255135 -0.184693 -0.982884
0.0839623 0.213063 0.0587993
0.742111 0.140241 -0.334502
0.267059 -0.1572 -0.997127
-0.806938 0.0151922 0.336525
-0.642633 0.726292 0.746395
-0.103809 0.0853792 -0.92922
0.241579 -0.133226 0.269037
-0.527437 0.0100382 -0.704934
-0.643639 0.73876 0.870875
0.589594 0.218729 -0.716209
-0.373077 0.32771 -0.97266
0.345691 -0.659164 -0.775943
0.650593 -0.537203 -0.291495
-0.843848 -0.0848081 -0.456889
-0.106612 -0.470678 0.0475441
-0.867918 -0.356999 -0.020746
0.667783 -0.488389 -0.636268
0.684728 -0.364593 -0.882274
-0.540048 -0.146292 0.609821
0.630054 -0.544795 -0.458755
-0.912076 -0.0808769 -0.209546
-0.445606 0.0959262 0.184603
-0.345126 -0.342532 0.177826
-0.0227813 0.497346 -0.475806
-0.560085 -0.504016 -0.806305
-0.760606 -0.540538 -0.224006
-0.494964 -0.206742 0.600034
0.754007 -0.0542484 -0.928737
-0.100336 -0.548717 -0.633938
0.328779 0.421631 -0.410085
-0.714395 -0.381151 -0.538612
-0.900327 -0.245056 0.00619973
-0.547948 -0.0108151 -0.64355
0.638917 -0.00464841 0.0625982
-0.251195 -0.610189 -0.898156
-0.691324 -0.122207 -0.849467
-0.9558 -0.472765 0.0956713
0.0913221 0.337093 -0.871656
0.2736 0.263197 -0.991378
0.597769 0.158676 -0.0338683
0.620487 -0.333209 0.0758403
-0.323903 0.0802126 0.207081
0.466555 -0.621689 -0.63718
0.74807 0.103734 -0.410809
-0.278458 -0.025754 0.235736
-0.908408 -0.290227 -0.0523076
-0.130598 0.388708 -0.680666
-0.607163 0.675977 0.886229
-0.448073 -0.618056 -0.313814
0.800142 -0.0231406 -0.316643
0.57092 -0.574237 -0.481807
-0.50572 0.0674975 -0.66735
0.11077 -0.619845 -0.833636
0.436258 0.370444 -0.449419
-0.805659 0.408868 0.759302
-0.773057 0.0517309 -0.468641
-0.00476649 0.45331 -0.669557
-0.900997 -0.280756 0.570593
-0.928337 -0.502434 0.301782
0.629286 -0.192014 0.093273
-0.589403 0.431064 0.623674
0.800691 -0.38876 -0.793677
-0.209244 0.3109 -0.264181
-0.282337 -0.53954 -0.671179
-0.666032 0.649615 0.927823
-0.0813763 -0.0554931 0.204231
0.737363 0.0156683 -0.101815
-0.170752 0.371596 -0.879728
0.704418 -0.260759 -0.0157389
-0.741221 -0.726694 0.180424
-0.75328 0.0399202 0.3772
-0.542723 -0.418549 -0.807608
-0.473565 -0.0567725 -0.985706
0.566624 -0.554216 -0.543422
-0.0562593 0.153933 0.805439
0.0468878 0.237549 0.0203025
-0.39801 -0.186128 0.37927
0.724324 -0.039927 -0.0497505
0.617965 -0.340049 -0.921454
-0.76638 0.202781 0.71223
-0.206292 0.374353 -0.499123
-0.697433 0.0760718 0.167728
0.510183 0.338744 -0.438222
0.883027 -0.190345 -0.857621
-0.723053 0.438899 0.600586
0.348222 -0.706375 -0.589563
0.0142424 -0.509738 0.0554658
-0.21333 -0.0659421 0.220025
0.105176 0.111553 -0.927505
-0.362809 -0.586791 -0.234944
0.0551078 0.487077 -0.467006
-0.395766 -0.0776867 0.311381
0.670901 0.186211 -0.601414
0.0492916 -0.628546 -0.823452
-0.395529 -0.44932 -0.977984
-0.842977 0.0226773 -0.0603378
-0.759164 0.232871 0.542574
-0.45278 0.108367 -0.833942
0.117286 0.180992 0.111295
-0.602175 0.745102 0.908462
-0.213544 -0.522859 -0.62988
-0.820497 0.066472 -0.106592
-0.523444 -0.43558 -0.9767
-0.328738 -0.106545 0.680972
-0.465726 -0.352823 0.565496
-0.892385 -0.435009 0.0503693
0.63478 0.206716 -0.665174
-0.0697487 0.297679 -0.102515
0.717108 0.161726 -0.273384
0.502807 -0.479754 0.0046475
-0.344671 0.245319 -0.359466
0.212268 -0.658059 -0.809599
-0.352761 0.13548 -0.796442
0.248487 -0.0634432 0.263972
-0.484826 -0.542388 0.197053
0.316644 -0.0740768 0.262023
-0.69346 0.32365 0.797612
0.178672 -0.0372322 -0.939031
-0.900944 -0.184731 -0.378718
0.3465 -0.723256 -0.338613
-0.138565 -0.24586 0.193704
0.542868 0.226397 -0.820887
-0.708208 -0.149721 0.610429
-0.0184663 -0.0942842 0.225338
0.0281233 0.099489 0.677618
0.313372 0.104438 0.185689
-0.298908 -0.0996526 0.555941
-0.00548007 0.283003 0.822538
-0.226542 -0.360177 -0.980855
-0.587815 0.664393 0.742027
0.347369 0.385413 -0.733265
-0.858072 -0.568028 0.0209533
-0.14813 -0.0167491 0.187588
0.693429 0.135844 -0.146994
0.249326 0.358494 -0.173425
-0.0494743 -0.370502 -0.935074
-0.143619 0.455756 -0.288197
0.211189 -0.702755 -0.192604
-0.296528 -0.0547697 0.508701
0.319808 0.393502 -0.658012
-0.66275 -0.584768 -0.329661
0.232968 0.432041 -0.544943
-0.11498 0.0521626 0.167746
-0.947887 -0.158854 0.0697692
0.564257 0.271768 -0.229164
-0.225023 -0.412304 0.122873
0.416028 -0.676884 -0.329873
-0.975064 -0.22904 0.26992
-0.687675 -0.526893 -0.430502
-0.688525 0.022255 -0.548915
0.475541 -0.581622 -0.773486
-0.746939 0.191636 0.583079
-0.0625514 -0.602072 -0.621109
-0.804252 0.00555699 0.419998
0.366981 0.399915 -0.459649
-0.315734 0.182693 -0.53873
-0.844614 -0.491989 0.0170171
0.274173 -0.528251 -0.995898
0.371658 -0.294799 0.242211
-0.441998 0.162811 -0.522689
-0.942167 -0.278273 0.391482
-0.301948 -0.571256 -0.210671
-0.143973 -0.510679 -0.587208
-0.0690151 -0.665985 -0.49052
-0.42957 -0.0523741 0.378319
-0.0557229 0.48493 -0.53803
-0.0696983 0.00729593 0.642927
-0.917436 -0.268489 -0.298537
0.0252647 -0.687593 -0.657258
-0.544572 -0.588945 -0.149558
0.381271 -0.698392 -0.394722
-0.889875 -0.128209 0.0147212
-0.0134068 0.193577 0.852467
-0.0150753 -0.220619 -0.9377
-0.816662 -0.668311 0.364633
-0.202048 -0.283039 0.198389
-0.239738 0.202768 -0.932204
-0.492273 0.215098 -0.42892
-0.470547 -0.403473 -0.627963
0.136675 0.422987 -0.707119
0.218655 -0.497 0.117097
-0.0908467 -0.424054 0.112568
-0.323834 0.36755 -0.9377
-0.883376 -0.0662982 -0.345915
0.0945678 0.133484 0.15379
0.142665 0.301487 -0.130195
0.00304698 0.253622 -0.00928051
-0.665993 0.172827 -0.119173
-0.527737 -0.411627 0.583741
0.401815 -0.628248 -0.184237
0.279072 -0.234163 -0.997087
-0.240752 0.380778 -0.896819
0.227566 -0.597297 -0.863497
-0.406596 -0.115191 0.379757
0.161753 -0.750128 -0.397492
-0.960599 -0.372054 0.294682
0.0135682 0.201535 -0.929697
-0.864616 -0.661916 0.315775
-0.67124 -0.650301 0.399227
0.207766 0.413078 -0.199842
0.00831718 -0.697708 -0.209213
-0.741286 0.396185 0.534298
0.429196 0.168276 0.0949463
0.279091 -0.686723 -0.7694
-0.291983 -0.568713 -0.46748
-0.897424 -0.190718 0.00844964
-0.226417 0.00254779 -0.932337
0.00279776 0.39053 -0.802342
0.221381 -0.433101 -0.931985
0.065096 -0.657019 -0.164845
-0.505427 0.108953 -0.875804
-0.388822 0.261216 -0.184169
-0.844436 -0.161562 0.580999
-0.638296 0.0675351 0.417556
0.918602 -0.236571 -0.815244
-0.0377571 0.0679353 -0.929595
-0.74227 -0.231316 0.613642
0.568569 0.301611 -0.442362
0.809881 -0.240665 -0.454158
-0.614223 0.00920289 -0.983033
0.550999 0.0955712 0.0773553
-0.866814 -0.0739815 0.0272308
0.647273 0.0952741 -0.856113
-0.893164 -0.358763 0.558163
0.725727 -0.313076 -0.0740378
-0.441328 -0.194325 -0.973409
-0.685799 0.0442034 -0.972655
-0.0648214 -0.704509 -0.880345
0.262205 -0.200874 0.270247
-0.227656 0.116233 0.133383
-0.681769 -0.0271454 0.623821
-0.356144 -0.568086 -0.495047
0.400176 0.291323 -0.115825
-0.615882 -0.535075 -0.469986
-0.100085 0.489486 -0.481946
0.128397 -0.315788 -0.9377
-0.897149 -0.0213164 -0.172282
0.550497 0.149467 0.0180873
-0.606383 -0.11604 -0.645123
-0.699082 -0.534253 -0.0827327
0.804823 -0.338623 -0.846627
0.650771 0.107669 -0.763847
-0.263727 -0.24992 0.223631
-0.627229 0.554246 0.825685
-0.249693 0.149466 -0.64037
-0.444294 0.113168 -0.679611
0.789409 -0.307166 -0.46108
-0.940514 -0.37395 0.491725
0.0466413 0.322702 0.972595
-0.667055 0.00856618 -0.860046
0.985949 -0.223268 -0.600127
0.30989 -0.332227 0.241525
-0.452614 -0.229791 -0.711388
0.50124 -0.518798 -0.805876
-0.476826 -0.413544 0.546656
0.266299 0.424175 -0.601841
0.214738 -0.730208 -0.645008
0.101502 -0.18303 0.255162
-0.88233 -0.394061 -0.280075
0.468926 0.33329 -0.765517
-0.573089 0.0970102 -0.907813
0.576628 -0.507836 -0.743797
-0.413549 -0.00393273 0.487959
-0.0836346 0.458253 -0.590649
0.273983 0.201923 -0.988691
-0.175607 0.219775 -0.927862
0.0257608 0.0541374 -0.928986
0.525973 0.287882 -0.720369
-0.957412 -0.225519 0.0604256
0.139244 0.37691 -0.832474
0.42809 -0.564448 -0.900645
-0.568887 0.10393 -0.969997
-0.485084 -0.472622 0.327064
0.958064 -0.289199 -0.626806
-0.766907 0.372082 0.80143
0.693205 -0.376399 -0.084441
-0.609617 -0.00170344 -0.824985
-0.0748508 0.496126 -0.411695
-0.469469 -0.254713 -0.82564
-0.512663 -0.0849149 0.640179
-0.210189 0.415632 -0.427837
-0.172874 -0.338698 -0.941595
-0.314742 0.197808 -0.978802
0.481705 -0.00221199 0.184264
0.824112 -0.130228 -0.498844
-0.159217 0.393704 -0.241877
-0.449508 -0.429174 -0.697014
-0.303626 0.211136 -0.465665
-0.655084 -0.463709 -0.959428
0.756613 0.102276 -0.274606
-0.492872 -0.343055 -0.809377
-0.172901 -0.490403 0.0155128
-0.699873 0.245592 0.76673
-0.733873 0.344969 0.593399
0.143023 -0.737836 -0.536374
-0.747542 0.0404044 0.45814
-0.0779536 0.348585 -0.967157
-0.88174 -0.14399 0.528881
0.459234 0.35958 -0.385862
0.050329 -0.290446 -0.937702
-0.645223 -0.601006 -0.264673
-0.803901 -0.68763 0.160951
-0.194259 -0.409128 -0.940322
-0.433702 0.189334 -0.462245
-0.807637 0.468966 0.790432
0.66986 -0.148435 0.0447672
0.839154 0.0904433 -0.719065
-0.793276 -0.729358 0.228668
0.162379 -0.46299 -0.935696
-0.513972 0.175326 -0.493766
-0.911192 -0.157524 -0.047358
-0.145964 0.196735 0.0496175
-0.709585 0.270622 0.495862
-0.156579 -0.384466 0.128085
-0.839299 -0.0916213 0.548366
-0.909562 -0.13336 -0.326978
0.14405 0.404155 -0.77351
-0.678091 0.104125 0.0414477
-0.726186 0.632208 0.864321
0.135363 0.458961 -0.251988
-0.0139939 -0.0836559 -0.934558
-0.109192 0.104638 0.839987
0.336368 0.355552 -0.814175
0.453068 0.0615759 0.165944
-0.579229 -0.633305 0.124407
-0.658172 0.117934 -0.496103
-0.661642 -0.571499 -0.136165
-0.383786 0.264672 -0.878998
-0.319315 -0.40535 0.126755
0.0627809 -0.568328 -0.984616
0.30162 0.413554 -0.547795
-0.82551 0.07039 -0.344608
0.410953 -0.238185 0.239274
0.410719 -0.642909 -0.669212
0.207781 -0.0852844 -0.98769
-0.586981 0.366354 0.587347
-0.721889 -0.0366497 -0.890006
-0.122171 0.363353 -0.74499
-0.21053 0.220844 0.00863371
0.666987 -0.296603 0.0361391
0.1514 0.0405118 -0.929199
0.345417 -0.567462 -0.98398
-0.663535 -0.496072 0.561026
-0.599995 0.720301 0.709865
-0.525503 -0.129846 -0.733828
0.647933 0.251638 -0.353568
-0.594737 0.0388735 0.566857
-0.21217 -0.597755 -0.238609
-0.604888 0.456646 0.761289
0.274887 -0.745584 -0.351068
-0.543734 0.162817 0.0686356
0.426137 -0.16467 0.235916
-0.858186 -0.154248 -0.441489
0.860057 -0.336712 -0.794313
0.195772 -0.736072 -0.579387
0.0410114 0.174608 0.1092
0.808814 -0.205297 -0.381142
-0.783131 0.113471 -0.130318
-0.673407 -0.497088 -0.485928
0.801515 -0.275286 -0.389222
0.428069 -0.446982 0.116096
-0.775591 0.023527 0.0677178
-0.214642 -0.597779 -0.834206
-0.110986 0.224461 -0.934103
-0.500281 0.129247 0.132755
-0.171366 0.43906 -0.488251
0.396942 -0.411886 0.173127
-0.923528 -0.0788202 -0.282967
0.470634 0.365579 -0.568051
-0.575094 0.377817 0.660922
-0.585842 -0.547957 0.399132
-0.650206 0.0842315 0.104198
-0.815819 -0.13951 -0.499586
0.446247 0.33772 -0.261059
-0.127808 -0.138845 -0.937171
-0.901535 -0.260406 -0.370808
0.409177 -0.605861 -0.117475
-0.783787 -0.50562 -0.15819
0.481553 -0.522117 -0.941642
0.0385181 -0.0232901 -0.932838
0.157235 -0.700203 -0.703757
-0.912773 -0.402437 0.368492
0.433471 -0.27116 -0.9948
-0.93462 -0.154711 -0.114734
-0.828404 -0.209646 -0.494271
-0.370723 -0.380034 -0.984214
-0.139359 -0.531388 -0.957495
0.166251 -0.608162 -0.851703
0.532854 0.16844 -0.851216
-0.780579 0.0876844 -0.399661
-0.88813 -0.331632 -0.327151
0.533873 0.201385 -0.0466451
-0.649832 0.554369 0.572871
-0.541787 -0.578749 0.169536
-0.699472 0.59311 0.594328
-0.106711 -0.656241 -0.284935
-0.8569 -0.410231 -0.0746949
0.420595 0.12136 0.142642
-0.542147 -0.267733 0.60714
-0.50431 -0.180989 -0.790871
-0.740097 0.264193 0.612484
-0.750248 0.0557958 0.304273
-0.382883 0.170482 -0.56775
0.528413 -0.365973 0.138261
-0.471942 -0.280594 0.581322
0.117493 -0.749226 -0.469733
0.0556805 -0.749986 -0.336546
-0.670719 -0.522625 -0.0091697
-0.598817 -0.580606 -0.897656
-0.237729 0.343558 -0.441364
-0.493931 0.0993461 -0.603964
-0.106571 -0.599974 -0.218517
0.128876 0.481001 -0.389936
0.411515 -0.548542 -0.0600153
0.915954 -0.298968 -0.770297
-0.174033 -0.017156 0.582053
-0.45838 -0.35698 0.492332
0.175124 0.144242 0.145772
-0.769027 0.0531523 0.141749
0.635314 -0.458014 -0.750617
0.809028 -0.0860183 -0.341222
0.612285 0.109838 -0.798635
0.62744 -0.501538 -0.68894
-0.207676 -0.663818 -0.891771
-0.807215 -0.366057 0.59015
-0.196733 0.291998 -0.636083
0.410871 -0.329713 -0.9946
-0.569932 -0.0829438 0.593852
-0.320632 0.151086 -0.607453
0.652524 -0.438078 -0.0950338
0.71733 -0.181298 -0.948185
0.218566 0.174268 -0.936419
-0.434604 0.208168 0.026174
0.310265 0.24772 0.0348646
0.626672 0.255417 -0.428702
-0.449342 -0.485168 0.244452
0.0676367 -0.0912831 -0.935114
0.357435 0.0333283 -0.996488
-0.207671 -0.349867 0.16681
-0.630613 0.368405 0.528383
0.135125 -0.493786 0.117544
-0.0864801 -0.0702964 -0.933899
0.347161 0.282961 -0.976369
-0.803029 -0.626116 0.0269504
-0.959228 -0.1623 0.285538
-0.826197 0.0886579 -0.182486
0.757288 -0.376685 -0.455613
-0.753234 0.309755 0.538854
-0.952363 -0.581404 0.216144
-0.859963 -0.515977 0.48812
0.493461 0.352704 -0.505063
0.673671 -0.220685 0.0372615
-0.0252397 0.234142 0.749185
-0.691533 -0.689393 0.332803
0.416177 0.312184 -0.196481
-0.355027 -0.562335 -0.843279
0.504511 -0.0699946 0.188348
-0.112789 -0.527201 -0.699172
0.0151146 0.191784 0.788349
0.0826306 0.300317 0.890718
0.630415 0.161596 -0.72602
-0.0267596 -0.168509 0.227729
-0.617759 -0.520754 -0.863583
0.34096 0.406895 -0.334538
0.902894 -0.343677 -0.636935
0.546677 0.0487784 -0.94564
0.0901854 -0.720765 -0.649601
0.731924 -0.258308 -0.926858
0.151948 -0.624304 -0.908511
0.656353 -0.0747598 0.0573013
-0.445946 -0.454271 -0.607458
0.637506 -0.370546 0.0275771
-0.498897 -0.547452 -0.803813
-0.898459 -0.0154804 -0.245678
-0.476028 -0.00342711 0.370964
0.75295 -0.285229 -0.134001
-0.617064 0.196588 -0.147515
-0.576019 0.0353945 0.496109
-0.775493 0.13494 0.603789
-0.174391 -0.591967 -0.981648
-0.442949 -0.304632 0.436716
-0.378247 0.224174 -0.0149458
-0.474097 -0.0368039 0.668829
0.759837 -0.0540385 -0.113248
-0.119879 0.0640783 0.905693
0.410045 0.0210929 0.208997
0.42589 0.387308 -0.514818
0.531849 0.237905 -0.106036
-0.31019 0.1148 0.697671
-0.501554 0.06927 -0.805163
0.704765 -0.101297 -0.956983
-0.575005 -0.173293 -0.827
0.609434 0.110957 0.0172766
-0.755269 -0.508076 -0.0908705
-0.498738 0.12736 -0.54666
0.683994 -0.0272795 0.0082161
0.803321 -0.233807 -0.319918
-0.496597 -0.246173 -0.983886
-0.0669011 0.249102 0.819752
-0.0623311 0.386195 -0.778132
-0.607224 0.163703 0.660111
0.49837 0.153774 0.0675894
-0.24816 -0.50156 -0.00603805
-0.291341 0.0259106 -0.951889
-0.248163 -0.587066 -0.34053
-0.369262 -0.216438 0.306982
-0.776307 0.141532 -0.197974
0.273876 -0.421258 -0.93569
-0.945499 -0.27804 -0.215842
-0.733344 -0.645931 0.430406
-0.883739 -0.0238001 -0.0968275
-0.190702 -0.531328 -0.0482915
-0.215275 0.198338 -0.763691
-0.749627 0.0696742 0.0228219
0.769627 -0.342664 -0.519211
-0.643836 0.300053 0.500425
-0.627214 0.064127 -0.879877
-0.534018 -0.510245 0.498616
-0.138696 0.233948 0.00621889
0.54391 -0.0251277 0.148465
0.820342 -0.0674036 -0.5114
0.151352 -0.735754 -0.239149
-0.836632 -0.577184 0.45219
0.178051 0.275128 -0.989348
0.0816579 0.189804 -0.929852
0.207277 -0.705054 -0.759192
-0.618082 -0.148733 0.605243
-0.914533 -0.507814 0.0438645
0.31704 0.359256 -0.196355
0.890902 -0.0840712 -0.512271
-0.577568 -0.620813 -0.268347
-0.138057 0.207683 0.822659
0.0256498 0.103576 0.148581
-0.33965 0.0217832 0.791147
0.387311 -0.0987423 0.247978
-0.467819 -0.358472 -0.727437
-0.448995 -0.510447 0.0144028
0.583083 -0.241005 0.134844
0.699959 -0.101257 -0.00220913
0.234777 -0.747444 -0.407987
-0.119648 0.348802 -0.81763
-0.754486 0.528733 0.884107
0.276324 -0.557006 -0.0820351
0.454019 -0.678954 -0.40304
0.274574 0.378977 -0.78404
-0.273535 -0.377051 0.162906
-0.56177 -0.352239 -0.847686
-0.834492 -0.406432 -0.398603
-0.892062 -0.0140912 -0.313431
-0.245094 -0.527088 -0.80565
0.270811 -0.664284 -0.170864
-0.348526 0.256599 -0.133669
0.767727 -0.000358015 -0.166522
-0.793173 -0.541598 0.511718
0.238496 -0.33381 0.243805
-0.342515 0.212327 -0.817172
-0.217995 0.178205 0.078624
-0.633179 0.7412 0.806976
0.557262 -0.482582 -0.0290898
-0.273005 0.203715 0.0497658
-0.453502 -0.477017 -0.9767
-0.047876 0.277011 -0.0334466
0.560156 0.254301 -0.762155
-0.227813 0.376776 -0.36721
0.691443 -0.460239 -0.207101
0.115864 -0.633862 -0.97432
0.526317 -0.580619 -0.588989
-0.669344 0.202848 -0.297939
-0.42288 -0.325061 0.364339
0.174826 -0.318567 0.247572
-0.865282 -0.678448 0.198628
-0.417115 -0.534791 -0.508883
-0.257677 0.214058 -0.512124
0.336635 -0.628147 -0.165357
0.264547 0.446671 -0.426544
-0.601889 -0.604842 -0.339694
-0.404994 -0.602727 -0.175441
-0.733999 -0.252711 -0.58249
-0.158734 0.0297635 0.872417
0.538301 -0.43982 0.0463712
-0.764497 -0.596119 0.478349
0.0707152 0.384084 -0.82653
0.0399625 0.337545 -0.92278
0.0963767 -0.758375 -0.39531
0.446761 0.207481 -0.922704
-0.778065 0.444689 0.827068
0.253686 0.261158 -0.019505
0.781378 -0.250785 -0.193415
0.0491975 -0.496784 -0.93227
-0.533711 -0.141794 -0.674737
-0.611617 -0.0430308 -0.629644
-0.286807 0.159346 0.104691
-0.13932 -0.462139 -0.930002
-0.0747809 0.270805 -0.988541
-0.439943 -0.0963249 0.685808
-0.025257 -0.398561 0.154683
-0.645365 -0.465684 -0.896183
0.0100802 0.42445 -0.73556
0.803978 -0.0368414 -0.396449
-0.19897 0.0927782 0.587196
0.606456 0.0595112 0.059984
-0.413051 0.00897631 -0.984654
-0.439396 -0.492043 0.160832
0.0010181 -0.544824 -0.00510637
-0.29629 0.0649319 0.819773
-0.413129 0.253742 -0.33164
-0.615382 -0.702798 0.126704
0.873968 -0.107211 -0.862876
-0.61472 0.0806069 0.158156
-0.662538 -0.158126 -0.631173
0.428708 0.0599758 -0.986871
0.261564 0.0923687 -0.936044
0.370859 -0.671783 -0.719197
0.579265 -0.560139 -0.203955
-0.739907 0.170634 -0.325844
-0.738251 -0.604266 0.0085536
-0.0467073 -0.710968 -0.271555
-0.955652 -0.550248 0.0917123
0.281299 -0.707341 -0.225407
-0.578578 0.159807 0.593891
0.798857 -0.131949 -0.227751
-0.769203 -0.188702 -0.546742
-0.928909 -0.0700936 0.152574
-0.614905 -0.568037 -0.960309
0.958756 -0.248451 -0.746279
-0.627139 -0.569274 -0.40368
-0.536058 0.0467776 0.34169
0.598583 -0.483088 -0.0963562
-0.634901 0.205657 0.717931
-0.624279 0.176565 0.472308
-0.51492 -0.502458 -0.9767
-0.278024 0.150394 -0.928252
-0.0146583 0.17939 0.675873
-0.67129 -0.700833 0.0673214
-0.661417 -0.348606 0.611722
-0.302357 0.0972465 -0.935203
0.796887 -0.0127845 -0.546947
-0.533641 -0.626956 -0.897476
-0.136 0.115133 0.615008
0.655417 0.04604 0.0123365
0.138747 -0.746462 -0.314837
-0.373747 0.0673451 0.691507
-0.299681 0.231717 -0.00415941
0.0018023 0.493158 -0.408354
-0.952079 -0.28774 0.460041
0.707977 0.0694751 -0.878121
-0.469069 0.0267502 0.307135
-0.0990256 -0.316267 -0.93764
-0.428146 0.148512 0.135737
-0.40353 0.25186 -0.0850779
0.482297 0.0821183 -0.939962
0.48335 0.34666 -0.700061
-0.863899 -0.64096 0.0565996
-0.263746 -0.585 -0.268081
-0.498304 -0.601631 -0.843659
-0.644042 0.399809 0.795363
-0.0445311 0.0848815 0.162829
0.174676 0.328292 -0.870251
0.871107 0.0566402 -0.766881
-0.60436 0.0982431 0.617129
0.94851 -0.255453 -0.553015
0.338076 -0.192271 -0.991007
0.696917 0.0846835 -0.094017
0.620532 -0.380478 -0.86328
-0.600489 -0.582426 0.308205
-0.403977 -0.0662405 -0.988106
-0.547529 -0.29523 -0.981514
-0.621024 -0.483875 -0.526352
0.312345 -0.142941 0.268732
-0.680779 0.152813 -0.0646111
-0.597537 0.1124 0.464494
-0.668275 -0.0114487 -0.595793
0.194618 0.428554 -0.668214
-0.214619 0.185713 -0.697492
0.307591 -0.472268 -0.988106
-0.829304 -0.477894 0.536458
-0.653047 -0.403861 -0.951326
-0.128568 -0.0304245 0.639491
0.685602 -0.39197 -0.756043
-0.64284 0.206387 -0.224269
-0.203854 0.265452 -0.98156
-0.00816779 -0.618261 -0.793816
-0.699845 0.347484 0.50707
0.458603 -0.616129 -0.216192
0.263053 0.341491 -0.843727
0.0303736 0.495583 -0.313989
0.198828 -0.147148 -0.986474
-0.204721 0.150601 -0.923977
-0.382026 -0.491872 0.0347264
-0.996541 -0.314884 0.176884
-0.387663 -0.61044 -0.286853
0.436713 -0.504331 0.00309014
0.11198 0.352664 0.829291
0.806062 -0.154077 -0.304709
-0.485736 -0.180121 -0.706079
-0.577043 -0.454899 -0.56787
-0.606739 -0.634505 0.259535
-0.224529 0.253095 -0.569041
0.524691 -0.604092 -0.220966
0.707836 0.105548 -0.810996
-0.00473508 -0.0252894 0.214386
-0.0109118 0.285562 0.948191
-0.271715 0.0787481 0.571244
0.523161 0.274277 -0.165742
-0.156055 0.170104 0.875714
-0.525394 -0.337848 0.596519
-0.250047 -0.0223037 0.688443
-0.83865 -0.0558437 0.430265
-0.928665 -0.335117 -0.170197
0.60545 -0.557296 -0.333459
0.813012 -0.167803 -0.443862
0.366246 -0.438501 -0.993834
-0.520918 0.249712 -0.170528
-0.691278 -0.605856 0.473859
0.655373 -0.151872 -0.977773
0.679234 0.149449 -0.6681
-0.120931 -0.523269 -0.0190507
0.274723 -0.387566 0.210998
-0.685601 0.539169 0.868356
-0.924234 -0.0899769 0.278648
-0.401461 0.178976 0.0789573
-0.00982627 -0.511451 -0.930608
-0.197207 0.375504 -0.967105
0.114675 0.333601 -0.925851
0.279986 0.43091 -0.288858
-0.591002 -0.516255 0.53759
-0.556109 -0.56874 0.247142
0.282144 -0.0027621 0.248611
-0.657337 -0.691397 0.26215
0.206806 0.442856 -0.265359
-0.58273 0.748766 0.772434
-0.206572 0.0223507 0.736681
0.382528 0.356532 -0.231509
-0.719372 0.187238 0.483587
-0.287763 -0.558465 -0.128067
-0.579607 0.18182 0.00149328
0.0431684 0.305356 -0.983178
-0.26641 -0.52907 -0.0667082
0.0793941 -0.649898 -0.892636
0.962352 -0.0239334 -0.681892
-0.637993 0.0286671 0.621113
-0.593643 -0.186642 -0.658622
0.237611 0.24169 0.0611514
0.527696 0.324827 -0.365649
-0.86724 -0.677739 0.12511
0.510836 -0.387423 -0.962498
0.676022 -0.498661 -0.448696
0.663173 0.0465504 -0.923328
-0.149898 -0.49267 -0.658443
-0.85942 -0.109889 0.47039
0.0399792 0.274697 0.762565
0.496166 0.190098 0.0069581
0.878199 0.069869 -0.671657
-0.470154 -0.559943 -0.977883
-0.58158 0.69455 0.819089
0.351973 -0.576906 -0.920177
0.364215 0.413418 -0.529443
0.830157 -0.349685 -0.614552
-0.141398 -0.315237 0.160369
0.231965 0.113852 0.17652
0.687783 -0.475554 -0.515785
-0.577564 0.235459 0.573671
0.712468 0.124759 -0.612298
-0.628631 0.338042 0.763075
-0.614299 0.137134 0.0547899
-0.791498 -0.515826 -0.286852
-0.0597887 -0.640331 -0.984373
0.78148 0.0233349 -0.374485
0.445315 0.290512 -0.827343
-0.689055 0.691931 0.889503
-0.530307 -0.414965 -0.603753
-0.67126 0.130775 0.451992
-0.130249 -0.702866 -0.887003
0.51264 0.317174 -0.587247
-0.137302 0.263364 -0.982617
0.022287 0.480168 -0.540488
-0.711988 0.0767419 0.24641
-0.913449 -0.0433453 0.232357
-0.677158 -0.641483 0.0299189
-0.781336 0.00112062 0.500017
0.410093 0.386007 -0.589008
-0.312058 0.128607 -0.676188
0.116834 -0.113927 0.254911
-0.582486 0.0472367 0.430973
-0.40125 -0.177177 0.515501
-0.159092 0.0603711 0.796769
0.791405 -0.277179 -0.260365
-0.449242 -0.407338 0.354783
0.22404 -0.580873 -0.123357
-0.0171534 0.330356 -0.970789
0.285394 -0.726911 -0.289242
0.543759 -0.0101961 -0.981295
-0.723593 0.471502 0.853617
0.747248 -0.170286 -0.0824885
-0.0766248 -0.212145 0.21045
-0.840193 -0.457794 -0.292264
-0.652535 -0.23248 -0.635155
-0.822687 -0.281049 -0.480848
-0.68444 -0.731757 0.125034
-0.210251 -0.539908 -0.561897
-0.936465 -0.280927 -0.122156
-0.491201 -0.530537 0.120251
0.694079 -0.419341 -0.147821
0.0627133 -0.716245 -0.52785
-0.584809 0.170959 0.524785
-0.632303 0.0750239 -0.544316
0.810555 -0.0912369 -0.437204
-0.607051 -0.0742768 -0.982336
0.676989 -0.304182 -0.931463
0.687789 -0.33527 -0.0190879
0.606856 0.263769 -0.499881
-0.665641 -0.208221 0.614794
-0.486359 0.00851999 -0.984391
-0.465058 -0.0205517 0.447666
-0.490576 0.0646109 -0.735242
-0.572539 0.301439 0.628391
-0.433687 -0.241843 0.47834
-0.289716 0.119776 0.166862
-0.0336868 0.352924 -0.905214
0.677813 -0.446116 -0.697633
-0.592531 -0.419706 -0.976132
-0.155608 0.197334 0.749873
-0.638552 0.273478 0.749682
-0.119658 -0.391653 -0.934727
-0.852312 -0.414973 0.55893
-0.424603 0.227069 -0.395862
0.41445 -0.672027 -0.596807
-0.17684 0.265694 -0.0436093
-0.920353 -0.0882947 -0.141261
0.740655 0.0935761 -0.559619
-0.673036 -0.0852203 -0.612251
-0.0670382 0.0747788 0.610467
-0.251745 0.110075 0.833827
-0.159262 -0.655376 -0.836009
-0.713901 -0.444329 0.584331
0.0677457 0.00733543 0.223875
0.788113 -0.0727176 -0.185057
-0.0630275 0.0136443 0.191099
-0.572434 0.074706 0.223685
0.485806 0.107333 0.116164
0.338211 0.0396697 0.222826
-0.887098 -0.402125 -0.146381
-0.730406 0.113616 0.474709
0.456844 0.223256 -0.0456705
-0.928242 -0.439927 0.322265
0.570431 0.274559 -0.573969
-0.283947 -0.576995 -0.399406
0.914231 -0.3086 -0.577249
-0.460348 -0.397211 -0.978
-0.571386 -0.530439 0.329881
0.645119 0.225671 -0.548352
-0.715961 0.514343 0.709321
0.995235 -0.164524 -0.652067
-0.729255 0.470274 0.541914
0.0860915 -0.528503 0.0516539
0.765733 -0.319953 -0.199074
0.80495 0.0869852 -0.789864
-0.18026 -0.55556 -0.374107
-0.934735 -0.347606 0.422613
-0.939259 -0.142332 -0.258223
-0.628968 -0.598343 0.444902
-0.77687 0.147564 -0.263866
-0.274791 0.273229 -0.340794
-0.711671 -0.724722 0.237986
-0.18288 0.00173334 0.671852
-0.209103 0.0337966 0.553776
-0.514599 0.104678 -0.982545
-0.448455 -0.502017 -0.553387
-0.895259 -0.0666895 0.335916
-0.674623 0.680246 0.827004
-0.72992 -0.370933 0.604947
-0.39846 -0.127179 -0.965133
-0.315426 -0.151547 -0.965191
0.283013 -0.59739 -0.13871
-0.990846 -0.246895 0.194443
-0.691371 0.177008 -0.185315
0.174351 0.35822 -0.158074
0.11387 -0.509714 -0.957188
-0.853544 -0.695372 0.257252
0.630891 -0.263718 0.0882503
0.575364 0.263292 -0.658476
-0.175913 0.45562 -0.371523
-0.0338542 -0.686829 -0.54542
-0.555591 -0.586552 -0.388003
-0.207454 -0.501448 -0.763593
0.176381 -0.455626 0.164262
-0.586364 -0.255233 -0.651688
-0.664118 0.0757363 0.296557
-0.696309 -0.442394 -0.516768
-0.395792 -0.507841 -0.590962
0.319182 0.325191 -0.883589
0.693312 -0.484907 -0.269085
0.0155281 0.342711 -0.859512
-0.358697 -0.0537795 0.255444
-0.422281 -0.0287124 0.719885
-0.460653 -0.295714 -0.766447
0.179126 -0.257996 -0.941877
0.608968 -0.278794 -0.961813
0.410961 -0.206692 -0.984211
-0.762756 0.141327 0.539815
0.310743 -0.721522 -0.408623
-0.23533 -0.0406221 0.549029
-0.360236 -0.0537824 0.470139
0.37211 -0.512507 -0.00720634
0.231299 -0.7368 -0.52843
0.0789944 0.429768 -0.197154
-0.647164 -0.557286 0.514599
0.478379 0.151102 -0.892757
-0.0425747 0.406317 -0.191691
0.331029 0.270939 -0.0994078
0.439211 0.280041 -0.890609
-0.970409 -0.517378 0.157053
0.593386 -0.574003 -0.407469
-0.0779196 0.104431 0.940913
0.306734 -0.0189165 -0.995645
-0.247517 0.247203 -0.0490483
0.274635 0.0395323 -0.985226
0.208464 -0.541107 0.0486096
0.220143 0.0305567 -0.937998
0.0826932 0.228664 0.779978
0.767116 0.0700901 -0.848879
0.979181 -0.240072 -0.675626
-0.480625 -0.350428 -0.652619
-0.16875 0.317449 -0.212056
0.552073 0.314985 -0.515341
0.150657 -0.525669 0.0659383
0.553748 -0.329269 -0.956589
0.501902 -0.42336 0.11137
0.26223 0.280807 -0.0843811
-0.521188 0.0518032 0.269703
-0.418604 -0.613196 -0.957738
-0.276649 0.0193655 0.523507
0.357791 -0.266205 -0.992744
-0.525213 -0.22376 -0.676813
0.177574 0.325356 -0.95137
-0.351275 -0.526735 -0.71494
-0.305567 -0.367951 -0.983671
0.720964 -0.442548 -0.328066
-0.278343 -0.556257 -0.60439
-0.529167 -0.292546 -0.661167
-0.199346 -0.47688 -0.961013
-0.428301 -0.585358 -0.847765
-0.0993917 0.169936 0.935873
0.155684 0.227229 0.0506761
-0.159944 -0.0321075 -0.931303
-0.405955 0.262012 -0.263204
0.640198 -0.0743908 -0.976561
-0.0854027 -0.666972 -0.816362
0.33546 -0.227357 0.262829
0.589518 -0.526598 -0.147742
0.698673 -0.469126 -0.393092
-0.667056 -0.579045 0.0159476
0.733325 0.011018 -0.911393
0.354419 -0.370675 0.214733
-0.406265 0.224527 -0.981868
-0.865421 -0.611574 0.388101
0.0856389 0.0370883 -0.929988
0.09618 -0.4466 -0.9313
-0.742227 -0.673531 0.0458028
-0.402115 -0.128884 0.446619
0.720361 0.164971 -0.390296
-0.980556 -0.201077 0.129577
0.0801142 0.354032 0.941327
0.918862 -0.0681932 -0.816074
-0.746866 -0.0039434 -0.510326
-0.215316 -0.507413 -0.695394
0.369356 0.20547 0.0768774
-0.131884 -0.614156 -0.790945
-0.678355 -0.057362 -0.836278
-0.640295 -0.177891 -0.977988
-0.439689 -0.225833 0.548981
-0.731614 -0.115972 -0.89482
-0.404619 -0.538896 -0.978
-0.502473 -0.497818 0.0543555
-0.138048 0.366186 -0.961126
0.557312 -0.483363 -0.805054
0.432628 -0.484236 -0.991496
-0.323566 0.281873 -0.830057
-0.567992 -0.0485019 -0.792334
0.441069 0.133453 -0.959496
-0.746337 -0.716707 0.105383
-0.956232 -0.510107 0.230076
-0.332669 -0.10959 0.609883
0.842872 -0.375427 -0.667508
0.477007 -0.565955 -0.0952277
-0.802994 -0.712326 0.306777
0.705248 0.164905 -0.538042
-0.496166 -0.444875 0.404585
-0.913297 -0.582115 0.052131
0.113392 0.305234 -0.9797
0.0980326 0.486576 -0.324417
-0.555098 -0.557375 0.100772
-0.0826311 0.181298 0.07792
-0.544321 -0.562621 -0.976288
0.707307 -0.447242 -0.579201
0.435276 -0.0806666 -0.982685
-0.576019 -0.627338 0.196829
-0.275925 -0.523086 -0.73645
0.43838 0.20372 0.0318251
-0.719979 -0.563825 -0.285167
-0.145174 -0.171222 0.203962
-0.508677 0.201784 0.0167664
0.486457 -0.0505023 -0.9974
-0.761764 0.071891 0.632235
0.467341 0.348383 -0.325183
0.212036 -0.213565 -0.986865
0.202985 0.218442 -0.985735
-0.135825 -0.197714 -0.940907
-0.684883 0.188826 -0.370185
-0.741382 -0.724741 0.293971
-0.660391 0.698702 0.688308
0.391218 0.37663 -0.661072
-0.824631 -0.0468571 0.494778
0.378125 -0.383526 -0.991923
0.324272 -0.395773 -0.949281
0.225424 0.449214 -0.339822
-0.28643 0.173795 -0.789878
0.301949 0.205886 0.0969467
-0.235011 0.043895 0.85655
-0.922096 -0.628717 0.101724
-0.0959694 0.223225 0.767041
0.148405 0.180066 -0.929491
-0.110945 0.485808 -0.351716
-0.98168 -0.377509 0.223654
0.0506283 0.324607 0.823608
0.192347 0.25938 0.00568508
-0.593836 -0.322951 0.610929
-0.227623 -0.460479 0.0493391
-0.241001 0.325806 -0.987015
-0.840477 -0.405582 0.0108089
-0.0864666 -0.359674 0.154707
0.296337 0.309322 -0.95651
-0.813086 -0.486074 -0.22331
0.585209 0.277568 -0.375112
0.53047 -0.495525 -0.876541
0.0394293 0.259217 0.93152
-0.0730332 -0.625999 -0.552578
-0.981385 -0.376315 0.152898
-0.0263785 -0.294156 -0.9377
-0.868357 -0.0176144 0.296535
-0.653547 0.474841 0.820552
-0.0156177 -0.669291 -0.835673
-0.364725 -0.334893 0.250779
0.683229 0.0969628 -0.722694
0.684411 -0.0226253 -0.952343
0.0326629 0.222621 0.708645
0.797428 0.000826227 -0.883949
-0.578936 -0.207437 0.610466
-0.152913 -0.267894 -0.944401
-0.749169 -0.687946 0.369382
-0.431493 0.13754 -0.907449
0.0673136 -0.557252 -0.0084719
-0.0810042 -0.502193 -0.929657
0.863349 -0.0211039 -0.542286
-0.856968 -0.0368991 -0.407872
0.991965 -0.152764 -0.580568
-0.755554 0.394125 0.704
-0.396659 0.129165 -0.836914
-0.170401 0.101877 -0.927373
-0.314339 -0.531686 -0.790319
0.4812 -0.232062 -0.990762
0.61401 0.00920004 -0.959358
0.234383 0.309011 -0.975261
0.733703 -0.411965 -0.518347
0.00396286 -0.719021 -0.508088
0.271261 -0.522891 0.0674617
0.680467 -0.501975 -0.335558
-0.388303 -0.140097 0.646259
-0.943839 -0.408124 0.0989787
0.295106 0.437785 -0.482808
-0.318746 -0.573307 -0.29442
0.471874 -0.600889 -0.153017
-0.278965 -0.00665866 0.814889
0.193944 -0.576605 -0.0571765
-0.820295 0.0898627 -0.257391
-0.905057 -0.382421 -0.213746
-0.694257 -0.578669 -0.210871
-0.510571 0.133577 -0.94114
-0.699903 -0.182221 -0.958095
-0.109353 -0.59555 -0.981825
0.470689 -0.155528 -0.979682
0.754599 -0.355948 -0.644946
-0.57723 0.114742 0.110028
-0.915264 -0.549118 0.35509
-0.561065 0.0853396 -0.561979
-0.148949 -0.589637 -0.262736
0.657018 0.100025 -0.035473
-0.445433 0.262288 -0.146103
-0.461467 -0.552659 -0.049286
0.29134 -0.585114 -0.974897
-0.585689 -0.144272 -0.981882
0.00623268 -0.669531 -0.974113
0.232603 -0.48513 -0.972401
-0.887232 -0.0924331 0.401474
-0.60197 0.521421 0.771355
-0.20615 0.333515 -0.571018
-0.23735 0.313895 -0.32263
0.0566862 -0.0627551 0.238383
0.353944 0.307007 -0.1686
-0.605369 -0.286099 -0.964215
-0.342597 0.00887769 0.499744
0.011005 0.0432404 0.190976
0.83756 0.0357066 -0.831638
-0.346388 -0.547453 -0.559297
-0.00962552 -0.753414 -0.334902
-0.548515 -0.348741 -0.628301
0.387245 0.321526 -0.851777
0.80312 -0.265669 -0.532392
0.137547 0.0345222 0.228379
-0.745614 0.573065 0.827638
-0.273664 0.129548 0.767205
0.0768976 0.418126 -0.758011
-0.346852 -0.113135 0.263672
-0.623653 -0.265782 0.614711
0.539524 -0.514502 -0.0895755
-0.287805 -0.0624437 0.650045
-0.101383 0.110625 0.763345
0.527376 -0.55523 -0.733844
0.341944 0.399203 -0.258191
-0.591088 0.304738 0.549992
0.649894 -0.531738 -0.386316
-0.0481713 0.317384 -0.160666
-0.466352 -0.127437 -0.982803
-0.961311 -0.589032 0.150756
-0.328953 0.0169026 0.233632
0.695603 0.0290255 -0.0437644
-0.164857 -0.439954 0.0808664
-0.00827034 0.202237 0.921826
0.363824 -0.0522025 -0.986415
-0.735235 -0.468378 -0.465679
-0.482183 -0.320104 -0.983598
0.657758 0.200601 -0.484051
0.293715 -0.722655 -0.647364
-0.21072 -0.137065 0.224686
-0.351287 -0.589263 -0.956535
0.921387 -0.146501 -0.825047
-0.310179 -0.234655 -0.965295
0.202281 -0.0103579 0.249286
-0.655042 0.717681 0.942907
0.278668 -0.643959 -0.830291
0.193468 0.462052 -0.404586
-0.176405 0.360712 -0.634228
-0.352131 -0.297609 -0.971847
-0.530517 0.255436 -0.246245
-0.801752 -0.669653 0.0899964
-0.491586 -0.621793 -0.959631
0.331743 -0.118586 -0.990289
-0.60586 0.0632285 0.358581
-0.903201 -0.634713 0.250397
-0.229496 -0.560976 -0.419352
-0.759996 -0.52331 -0.340445
-0.255521 -0.0929654 0.615947
-0.157831 0.100856 0.141812
-0.898519 -0.0919581 -0.0638287
-0.220156 0.219782 -0.634919
-0.775414 -0.486073 -0.0230724
-0.781434 -0.431921 0.577686
0.237151 0.179498 0.119087
-0.566859 -0.512684 0.0466947
0.72145 0.113585 -0.210113
0.673694 0.169891 -0.21284
-0.607579 -0.453748 -0.831994
-0.81039 -0.0163217 -0.467853
0.398956 -0.481778 0.0598313
0.0659579 -0.661793 -0.777439
-0.086232 -0.131051 0.211922
-0.0593733 -0.154683 -0.936453
-0.790999 0.120923 -0.325935
-0.697897 0.573262 0.665064
0.9459 -0.0421066 -0.749579
-0.478177 -0.596772 -0.183023
0.569859 -0.384881 0.0824094
-0.0544837 0.22519 0.952627
0.324893 0.258676 -0.0347198
-0.123523 0.158523 -0.925578
-0.888711 -0.15812 0.447042
-0.145215 -0.610202 -0.338194
-0.336606 0.266835 -0.984393
-0.427333 0.0223694 0.675652
-0.915657 -0.202739 -0.312756
-0.0561523 -0.560215 -0.962379
-0.325278 0.245824 -0.0691226
-0.986494 -0.307071 0.25285
0.460924 0.353441 -0.637871
0.187148 0.107323 -0.926269
-0.744724 0.12176 -0.0762371
-0.0600198 0.146565 0.885962
-0.514256 -0.47132 0.546486
0.0769976 0.312351 -0.134185
0.83791 -0.22727 -0.883647
-0.597607 0.219914 -0.274671
-0.580754 0.142272 -0.521699
-0.198894 -0.00834809 0.825988
0.400388 -0.600075 -0.795918
0.135437 -0.692533 -0.179185
0.0956303 0.37009 -0.159592
-0.892226 -0.0135318 0.166316
-0.269841 -0.316593 0.197743
-0.268743 0.25404 -0.982423
0.741734 -0.329311 -0.891927
-0.359523 0.319692 -0.899281
-0.162708 -0.0927455 -0.935368
-0.420903 -0.266988 -0.974762
-0.341745 -0.0985916 -0.987141
-0.239988 0.0755158 -0.926079
-0.540514 0.0141944 -0.784676
0.657655 -0.389555 -0.809716
-0.471203 -0.142409 0.637334
0.902107 0.000177623 -0.796047
-0.563778 -0.614972 -0.953269
0.437674 -0.54784 -0.828538
0.468413 0.257696 -0.0965331
-0.857174 0.0395337 -0.289349
-0.643423 0.606132 0.875472
0.204775 0.0556836 0.219089
-0.387182 0.0596267 0.223315
-0.44965 -0.374755 0.414595
0.0893434 -0.688338 -0.713341
0.953508 -0.188004 -0.78162
-0.0738684 0.478908 -0.290501
-0.870153 0.041737 -0.217705
0.57216 0.287315 -0.309338
-0.896797 -0.433231 0.510328
-0.5993 0.611331 0.688619
-0.711711 0.50783 0.630743
-0.618832 -0.588768 -0.189308
0.341133 -0.619274 -0.833834
-0.258618 0.307943 -0.811191
-0.619937 -0.655412 0.0680482
0.702167 0.155535 -0.45451
0.625162 -0.519736 -0.519136
-0.382252 -0.594427 -0.899953
0.288673 0.297467 -0.149159
-0.486955 -0.611948 -0.366977
-0.422259 -0.43431 0.286879
-0.659515 -0.727567 0.186299
-0.768409 -0.300461 0.60912
-0.75907 0.0759967 0.534683
-0.644123 0.62066 0.607091
-0.739609 -0.0643944 -0.961862
0.865618 -0.279605 -0.841238
-0.0194409 0.0475286 0.656379
-0.0274003 -0.717893 -0.452201
-0.37679 -0.38973 0.147535
-0.0948235 0.440672 -0.22908
-0.376585 -0.59739 -0.348775
-0.145039 0.117277 0.913625
-0.750989 0.459804 0.742685
0.616376 0.247055 -0.608231
-0.400306 -0.536814 -0.0265966
0.589514 -0.571542 -0.264941
0.601561 -0.53662 -0.605601
-0.614406 -0.227093 -0.886894
0.471615 -0.623092 -0.278191
-0.576162 -0.545906 -0.0334694
0.460957 0.295769 -0.148024
-0.273109 0.268589 -0.123729
-0.00650954 0.210077 0.995565
-0.247716 -0.250334 -0.984942
-0.860969 -0.435083 -0.22015
-0.0129015 0.474425 -0.601298
0.76279 -0.212631 -0.132399
0.639717 -0.521383 -0.219293
0.363252 -0.701392 -0.276789
-0.189845 0.287579 -0.153241
0.575098 -0.442755 -0.866202
-0.12692 0.454097 -0.540103
0.789562 -0.309492 -0.325557
0.110382 -0.243342 -0.938993
-0.571573 -0.285076 -0.902391
0.127928 0.228155 -0.98315
-0.24264 0.124871 -0.702855
-0.18867 0.424509 -0.318355
0.413089 -0.55386 -0.971884
-0.768945 0.0593061 0.217849
-0.348504 -0.579432 -0.154376
0.0136611 -0.586675 -0.146244
0.474388 -0.199885 0.211963
0.346166 -0.671829 -0.216589
0.977205 -0.0847086 -0.575384
0.063021 0.48734 -0.391774
0.334227 -0.506652 0.0628356
0.665266 -0.231291 -0.959548
-0.201106 0.267439 -0.775605
-0.729633 -0.0545148 -0.563174
-0.344164 -0.0163431 -0.986219
-0.786813 -0.432953 -0.431029
-0.712233 0.111842 -0.0169311
-0.0534035 -0.585524 -0.110376
-0.717675 0.0624071 0.0903051
-0.976377 -0.17387 0.203966
-0.275799 -0.552016 -0.858155
-0.785232 0.209465 0.638183
-0.351054 0.158458 0.1267
-0.62637 0.199352 -0.415693
-0.603747 -0.591091 0.0565868
-0.649076 -0.237425 -0.957304
0.155154 -0.186635 -0.943002
0.796882 -0.0156745 -0.46541
-0.85815 -0.227678 -0.428488
-0.0624296 0.414158 -0.716663
-0.402767 -0.00550842 0.256628
0.765068 -0.350047 -0.263231
-0.489222 0.245639 -0.0989747
-0.66948 0.670501 0.760536
-0.550106 -0.0759321 -0.665473
-0.151802 0.168585 0.676796
0.02897 -0.701466 -0.594169
-0.0918851 -0.677563 -0.432362
-0.911908 -0.170662 0.386834
0.0888383 0.4669 -0.524796
-0.48296 -0.479202 -0.786664
-0.198292 -0.144552 -0.970875
0.744787 -0.412289 -0.391796
-0.362702 0.222808 -0.426138
0.293913 -0.584492 -0.879896
-0.699276 0.0618507 0.422805
0.577829 0.0204611 0.104961
0.403594 0.182545 -0.984382
-0.743752 -0.134692 -0.949997
-0.398037 -0.434504 0.107372
-0.651712 0.0840698 0.664625
-0.866376 0.00642464 0.233158
-0.26567 -0.115927 -0.988647
0.979521 -0.177616 -0.717783
0.331267 0.156807 -0.991061
-0.251093 -0.423997 -0.981165
0.0609398 0.238287 -0.983657
-0.00477803 0.11116 0.636993
-0.770708 0.0282927 0.566023
-0.200728 0.103099 0.879573
-0.107389 0.273491 -0.0371842
-0.403519 0.278045 -0.965337
0.951847 -0.117554 -0.525311
-0.45534 0.0672353 -0.985064
-0.267793 -0.49161 -0.983136
-0.751899 -0.495426 -0.403004
-0.721448 0.671944 0.938263
0.597175 0.0724901 -0.904175
-0.695411 -0.28735 0.616758
-0.929734 -0.418824 0.435017
-0.475817 -0.413236 -0.772484
0.270772 -0.728803 -0.586633
-0.3679 -0.288681 0.294565
0.77148 -0.125014 -0.134982
-0.105763 0.372473 -0.195339
0.11607 -0.353584 0.225893
0.84168 -0.379383 -0.741279
0.11264 -0.0341995 -0.932938
-0.452603 0.0347755 0.238195
-0.860611 -0.34099 -0.386094
0.269322 0.0595601 0.217942
-0.593657 0.39467 0.729971
0.13957 -0.673201 -0.781122
-0.574011 -0.221198 -0.982052
-0.280106 -0.56026 -0.536245
0.585414 0.176324 -0.786605
-0.437558 0.136959 -0.599143
-0.374581 0.117921 0.17781
-0.620538 -0.345394 -0.970365
-0.555582 -0.564635 -0.459217
-0.809363 -0.44031 -0.0134513
-0.197914 -0.0645618 0.633963
0.650943 -0.397737 -0.0327863
0.0162109 -0.354376 -0.935866
-0.417306 0.211046 -0.922743
0.186669 -0.531316 -0.988649
0.356879 -0.681332 -0.652823
-0.786197 -0.0660827 -0.504347
-0.904374 -0.479031 0.455076
0.270603 -0.34902 -0.938487
0.482622 -0.534222 -0.874892
-0.324336 -0.526598 -0.0114182
0.477783 -0.631536 -0.573948
-0.944148 -0.250135 0.52242
-0.563653 -0.0215749 0.541116
-0.347819 0.274353 -0.234883
-0.770617 0.626468 0.91609
0.892527 -0.151314 -0.501531
0.0571784 -0.490226 0.107766
0.0180227 -0.563844 -0.0736228
-0.760697 0.311407 0.777188
-0.777565 -0.332315 -0.509547
-0.297707 -0.56195 -0.909988
-0.590541 -0.546548 0.473309
0.588542 -0.133916 -0.994612
0.117196 0.452831 -0.576266
-0.554262 0.22833 -0.385267
0.873378 -0.26515 -0.528402
0.236049 -0.705003 -0.695697
-0.489156 -0.614648 -0.254632
-0.305765 0.277207 -0.189213
-0.484381 -0.0067748 0.526164
-0.252098 0.300769 -0.392399
-0.547618 0.0414141 -0.984435
-0.116137 -0.669581 -0.365902
-0.727113 -0.317206 -0.555451
-0.681311 -0.288168 -0.608216
-0.840301 -0.456108 -0.151829
0.00378427 -0.590813 -0.985241
-0.0279439 0.145358 0.113971
0.179324 -0.613154 -0.976775
-0.169803 0.31782 -0.79089
-0.0127356 -0.258477 0.220756
-0.588667 0.323135 0.702186
0.520815 0.0465658 0.135253
-0.863015 -0.0342436 -0.0272992
0.130372 -0.63441 -0.142433
-0.514666 -0.176215 -0.985693
-0.533628 -0.00457703 0.46922
-0.743664 -0.00101174 0.617442
-0.515309 -0.530631 -0.00869277
0.512015 -0.645582 -0.395511
-0.162929 -0.54636 -0.444923
-0.919022 -0.09784 0.0841004
0.109586 -0.292583 0.244751
-0.747113 0.519507 0.782637
0.241033 0.316984 -0.900068
-0.212048 -0.65557 -0.964106
0.810601 -0.138421 -0.378505
-0.964286 -0.442834 0.17387
-0.201932 0.139341 0.639594
-0.89665 -0.608406 0.324781
-0.613592 -0.311934 -0.625789
-0.0828113 0.192034 0.705257
0.208851 -0.74696 -0.334715
-0.707604 0.401395 0.824616
0.59717 -0.425 0.0210049
-0.353891 0.0562313 -0.978564
0.720426 -0.382518 -0.699975
-0.374688 -0.523847 -0.784791
-0.461745 0.141989 -0.975575
0.620693 -0.122595 0.101819
-0.592979 0.256834 0.690309
-0.276896 -0.312284 -0.972312
-0.0534836 -0.600144 -0.181595
0.0795954 0.0769557 0.1968
-0.854718 -0.292109 -0.421964
-0.148669 0.0648609 0.730646
-0.105569 -0.566574 -0.56096
-0.0614916 0.0855988 0.701611
-0.138675 -0.661825 -0.981778
-0.397065 -0.259489 0.350876
0.74448 0.112596 -0.762824
-0.956673 -0.441446 0.252087
0.347541 -0.589792 -0.105529
0.708169 0.0825405 -0.680956
