4.68437 5.32382 -5.29008
4.018 6.53991 -19
-4.58681 2.09621 -5.64259
-4.64754 -9.99964 4.3515
1.21633 9.90333 -5.97077
5.63776 5.85441 -13.6039
11.7995 5.62839 -5.68625
-2.4475 5.56768 17.2634
6.83747 -9.99947 9.8642
-8.19954 -1.07972 8.04905
-6.32184 6.24218 -9.9994
-5.76916 8.14981 9.99945
2.66091 5.05656 5.93359
-4.19723 7.98409 0.224494
7.84703 3.51971 -11.7654
11.7994 1.95492 -7.7962
-8.07336 -9.99942 -5.3019
-2.44154 6.27546 -4.26617
-4.99971 -1.70993 17.1768
2.38314 -5.12492 19
11.7995 -6.32538 -4.36332
-6.31949 1.05839 -5.90771
5.6805 6.39923 -4.58427
1.47243 -9.80401 -9.99953
6.46916 9.91397 -3.76293
-8.1993 -6.65533 9.89094
5.10423 -9.90275 -5.00429
11.7996 6.11848 -0.582192
-8.19947 -3.46273 5.07498
1.91448 -6.83014 -6.02102
-0.498084 6.62527 -17.1439
-8.1995 7.90203 1.92876
7.6604 4.14231 -10.0003
8.36579 -9.99934 -9.88947
7.16141 2.54457 5.4317
11.7995 6.31737 4.79656
1.70828 1.16483 19
-4.46578 -8.40492 9.99951
10.1449 5.94925 9.99943
7.24914 4.39185 18.8911
-2.36812 9.99928 4.56963
-4.02387 -8.02398 1.47136
4.66961 -6.3887 15.3807
8.48054 2.15065 15.4639
4.79353 -3.11337 5.21756
11.7995 -0.00838529 6.14567
5.70065 5.68546 -18.9998
3.68336 -6.74248 -10.135
3.31796 -6.29248 5.82598
-8.1995 3.23835 -9.82632
7.74436 -3.693 -17.0542
-8.19954 -7.86817 -2.22099
9.74485 -9.99957 -1.07263
2.21009 6.88219 18.9992
7.91072 3.19786 -19.0001
-1.28849 8.26622 5.1475
6.49239 -5.19152 -17.0509
-6.36361 -7.76633 9.99938
0.597986 2.88011 19.0001
-8.1992 9.86596 -6.35872
11.7994 7.61227 -6.12911
2.72293 0.757749 -5.97435
1.27645 -7.98355 5.97485
-8.19961 -1.06765 -6.07836
11.6448 -9.8152 -9.99888
-3.68468 -8.00938 -9.9995
4.23337 -6.56897 -15.4148
11.7996 -1.3216 9.85145
-3.21769 7.88421 -3.27934
-8.19951 5.92477 -7.82178
-0.542007 -6.60698 -14.6103
9.82352 -2.1668 -5.60411
7.72578 5.79908 -1.6015
7.6883 5.75458 1.69995
11.7995 -7.86272 3.77152
11.4962 9.99956 9.8423
-4.25641 -9.99962 -1.01131
2.98446 6.90077 -11.8269
7.46853 -4.12062 13.5215
-6.47708 9.99953 -4.74211
4.35288 9.80903 -9.99945
-8.19954 -8.06283 5.63094
6.98703 5.02063 -3.29844
-4.17508 3.65204 12.2755
-4.92798 -1.56112 18.9993
4.96422 6.24087 17.0758
-4.28493 -9.99947 0.727317
-8.19955 -9.9043 2.56145
-6.40077 4.40537 4.08153
-8.19951 -2.73109 -7.86359
11.7995 6.90957 2.81804
-8.19994 6.04742 1.05829
-8.19956 -8.51921 3.72709
-3.63142 2.45927 5.47738
-2.42687 -5.5845 -15.4047
11.7994 -6.0769 -0.883689
1.06396 -9.99948 9.86416
-1.01231 -6.4101 -18.8472
8.56845 -1.32155 -18.9998
4.20504 -2.9977 -19.0001
-4.7145 -2.59966 15.3562
-2.2523 3.72996 4.69799
0.194545 -9.99955 -7.93613
4.0741 6.52321 18.9999
4.14495 6.60582 11.8798
9.92768 -3.79558 -4.65583
-8.19949 -5.76186 8.30511
11.7998 0.7978 -9.88642
-4.7013 2.62191 17.0762
-4.41592 -3.22426 18.884
-6.51791 6.39127 9.99946
-4.18927 3.63351 18.8515
-6.05483 -9.99963 -2.26579
11.6458 -4.5525 -3.92949
9.53376 -5.61855 2.159
-6.03955 4.39688 -9.99955
11.7995 0.0360195 -7.92293
-4.97602 1.79061 11.942
-1.8711 9.87394 -4.74449
-3.28883 -4.79827 18.8885
4.36157 8.00209 -5.43261
-0.517201 9.99932 -5.75597
9.95802 9.99955 -4.81364
-4.36008 6.15118 -9.99955
-1.83196 7.97484 -4.76941
-4.82491 0.867551 5.95165
10.1197 -2.94961 9.99957
0.963489 6.96906 -11.9355
6.31942 8.38261 3.9779
-3.85298 -9.99924 2.44675
0.474784 4.70711 5.87445
6.36697 -8.21939 3.91403
6.35881 -6.33881 3.93359
-8.04043 9.99967 -9.78337
2.11665 -7.03311 18.8458
1.87948 7.01267 -13.611
8.26931 -9.99969 -4.69262
-4.35271 9.99949 -5.4661
11.7994 -7.87027 -8.16255
-6.31555 2.82566 -5.30188
7.08296 4.58947 -18.8826
8.46503 1.71866 -18.9996
-4.47173 4.21752 4.2669
-8.19948 -3.54793 -9.82713
11.7995 -2.82208 7.63712
8.7934 -0.159415 15.5348
-0.750279 6.00321 -5.44841
-5.0165 1.65752 15.4701
8.91749 -9.99953 -6.5444
-8.19949 8.04736 5.95658
-8.19954 8.07614 -0.0534308
-8.19952 7.95297 3.77536
11.6655 2.47615 -9.99945
0.101938 -0.672548 -19.0001
5.01538 -6.68728 5.05978
8.32013 -2.53758 13.4476
1.82573 9.99951 8.02415
-8.19943 8.27303 8.06804
-5.04956 -1.47487 13.6023
4.90441 8.19632 5.13595
1.42731 -6.98679 -15.4388
9.80032 -5.71071 -1.90354
1.46238 -6.98827 12.0193
8.0719 -3.10867 -18.8916
-4.00135 -5.94392 1.60068
6.00242 -5.60562 -15.2349
11.7998 5.98906 1.09344
-4.16349 -3.67746 17.0804
-3.47668 -5.32624 2.90045
9.34495 9.99964 2.77111
-1.32524 -6.27741 13.7096
9.94548 3.85723 -4.62045
-8.1997 5.57689 2.65978
-6.20415 9.9996 0.267293
3.98425 1.4424 5.82397
-2.6772 2.39312 -18.9998
11.7995 -0.884768 7.98665
-1.14847 -9.99944 9.87541
0.176094 -8.48338 9.99956
-1.55251 -8.15085 -9.9995
-0.113177 9.99961 -7.92242
0.894602 -4.32334 19
11.7995 -1.73633 -8.14635
0.744081 -4.28753 5.93506
10.2599 -0.941694 9.99964
-1.78043 -6.01483 18.8831
2.21705 6.8823 -18.9996
-8.08676 9.9993 -0.924152
2.58085 -1.13764 -5.95941
-0.94807 -4.85636 5.34553
-3.78795 -9.99938 -2.65565
-4.16158 3.67938 -15.3015
0.633158 -6.91641 13.6847
9.01254 4.91865 -3.43972
-2.83309 -5.25499 17.1121
9.88843 5.6361 -2.06923
1.83365 9.99965 -7.94463
-4.85964 1.83064 18.9999
8.51871 2.04885 -15.3202
-2.63842 -5.26916 -18.9997
-8.07133 -4.76931 9.99955
4.57374 -0.679471 -5.99203
0.875654 9.87732 -9.99945
9.04473 0.779112 -10.0001
6.76491 -9.99964 3.584
11.6951 -9.99939 -8.2321
-8.19955 -8.08687 -0.236706
-5.94367 5.43254 2.544
-0.595178 -6.58399 -16.5252
11.7998 -4.47421 4.19979
0.279529 6.71107 18.9996
-3.69289 4.362 16.8963
8.46759 2.4704 -9.99987
-8.04413 1.36273 -9.9996
6.82935 -9.99966 -5.98561
9.82634 6.00611 -0.265109
-6.01003 -2.54634 5.42585
-5.93291 -5.27617 2.89198
-1.46286 0.48009 -18.9999
-8.19948 -5.25729 -8.17
7.44342 -4.15804 -15.3479
1.51861 -6.03142 5.98985
-1.92216 -5.92673 -13.5738
11.7994 -8.07902 9.88949
-3.58231 -9.99963 6.14326
6.3122 -5.35869 16.682
8.02725 -3.23169 -13.7275
11.6883 8.28556 9.99927
-2.19021 -5.99615 -10.0001
11.5626 -0.919733 -9.99948
11.6702 -1.62182 5.77698
-5.19128 -0.197765 -18.8872
5.34683 -5.96803 -4.83355
2.13871 1.6698 6.01851
8.35511 -9.99964 4.10242
5.11418 9.87468 -4.99596
11.7997 4.39114 4.31535
8.70873 -1.14036 -13.7092
-6.03226 -9.9996 1.82436
1.43266 5.18467 -5.98398
7.69078 -9.99947 7.9826
3.89152 6.62943 5.62078
-6.01867 5.8555 -1.32405
-1.56939 6.13782 18.8931
-0.329101 -9.99874 -5.80885
7.78388 9.99947 1.38438
2.12821 -9.99942 -8.02731
11.626 0.559806 9.99951
-1.59684 -9.99972 5.0911
11.7996 9.84768 -6.23823
5.80946 -3.43204 -18.9999
-2.31911 5.67353 15.4455
2.35364 -9.9999 6.1116
-6.71887 -1.13119 -9.99974
11.7995 7.9701 -0.0974847
8.60503 -1.01963 18.9998
11.7996 6.44882 9.87261
-0.750395 -6.51656 -12.2287
-1.13093 9.89258 -9.99929
1.18644 9.9995 9.84558
-5.20249 -0.293118 11.8592
5.77344 5.75728 18.8816
9.79969 2.08564 -5.64212
7.80456 -8.07333 0.398429
11.6722 0.625636 -5.96627
11.7995 -7.77583 1.84009
3.69463 9.9996 -8.18076
11.6525 -8.18488 -9.99964
11.7995 8.1926 -9.87944
4.52186 -6.46104 13.467
5.89828 9.99957 -8.33609
3.79045 -4.50151 -5.67472
11.7997 -9.86293 2.78959
-4.93291 5.09417 -3.18562
-8.19954 9.79334 -4.57555
-2.03181 6.61909 4.61146
-4.77802 -2.39037 11.8289
1.77973 -9.99962 7.97423
8.96311 -1.01069 -10
3.41592 4.7698 18.9999
0.561133 -1.86561 -5.89202
-8.19957 5.62373 -5.7795
-2.80815 5.27423 -11.8881
10.0667 -9.86124 -9.99944
-5.7004 2.93616 5.25362
11.7998 2.25597 -5.71181
-8.19949 9.86496 4.79969
-8.09835 -0.160738 5.99888
-6.38574 4.18642 -4.29758
11.7994 -5.57653 -2.56278
-4.11092 3.75464 -11.8472
7.96052 -9.99942 0.173298
-6.26396 -2.73667 -5.33847
-0.130352 8.34883 -9.99958
-8.0836 -9.99945 -1.34007
11.7995 -6.72234 -6.2944
1.57566 -4.92172 -19
-2.02546 -5.86694 -17.2811
2.50249 -0.2048 6.00007
-3.62133 4.44226 -17.0616
-0.410806 -6.54162 5.59757
1.75244 -1.12109 -19
-1.65785 -3.29599 5.0299
-6.67415 0.357948 9.99964
5.4664 -3.805 -4.74415
-3.09279 9.99949 -3.70403
-5.98199 -7.84899 -9.99943
-2.98556 9.88226 -9.99925
7.91805 9.99953 -7.89471
7.0836 -4.58802 -18.8589
7.10867 9.99941 9.89418
6.13936 7.97313 9.99945
11.7994 5.90576 -7.83124
-4.72803 -6.26244 9.99964
-5.34026 -0.247246 -9.99961
-3.25506 -6.67137 -3.23064
-5.19719 -0.566107 15.4489
9.7883 9.99946 -6.7395
-2.2725 -5.70717 11.9217
7.84486 -3.40731 -4.93292
5.01029 -6.21929 -13.5963
9.36888 9.99935 9.89481
5.80589 6.44623 4.46854
-8.19952 0.258797 9.83066
3.90192 -6.58507 18.9998
5.80613 -1.34753 5.84285
-3.93572 -4.01229 -11.9099
-8.19952 -6.54633 6.73485
6.1187 -5.52335 14.1285
-4.62497 2.78806 -17.1199
-8.19954 -6.58915 -4.2406
-3.10822 5.00357 13.743
-4.51847 -3.00803 -17.1225
-2.96029 4.9241 18.9997
6.067 4.13115 -4.37633
8.79939 -0.205193 17.3361
10.1003 -9.99956 -3.15649
-6.48592 -5.42701 -2.54851
-1.44302 8.18173 9.99948
-1.381 -1.5801 -19
4.11105 -9.99953 5.73685
-6.2435 -0.638142 5.98336
-6.24693 -5.32252 9.99946
9.96475 3.23508 -9.9996
8.03431 -2.92506 19
-8.19938 6.7124 -9.86022
-6.42085 -3.41179 -9.9997
-5.14169 0.970684 10.1207
6.45069 2.05961 -18.9999
-5.04409 -1.95733 -9.99997
-0.998958 6.41764 -11.848
6.09806 -7.83716 9.99939
6.92052 6.73157 -3.14964
2.92092 8.25687 5.89419
-5.20583 0.489846 17.1725
10.0974 9.99948 8.07434
-4.88064 -9.99951 -9.88484
5.96734 4.2701 4.31538
11.6388 5.23252 2.95172
-4.59817 2.84628 -13.5243
6.14773 -5.50276 -11.8638
11.7996 -9.77096 9.83195
7.84916 6.346 -9.99958
-8.19936 -8.39329 -9.86346
4.13465 -2.49049 -5.52893
-3.92619 -9.9995 -7.96023
2.50894 9.99976 6.11415
7.97053 3.32394 13.7214
7.09341 -4.57659 18.8603
5.97947 5.6221 11.8547
11.7996 9.88311 4.69861
9.79267 -0.111172 -5.99729
-0.163318 8.20063 -5.68135
-8.1004 -3.75403 -4.70545
6.72313 -4.76632 -3.68013
3.51089 -1.11364 -19.0001
-8.19949 1.60486 5.94273
-8.19946 -8.01306 7.86344
-5.1513 0.884744 -17.1149
6.77505 -1.73728 -18.9999
-1.21905 6.31957 13.7686
7.35516 -7.70502 2.30563
-8.19952 1.74043 -7.9964
7.53763 -5.59863 -2.16901
0.484051 -6.86482 10.1251
4.94466 6.25099 -11.8016
6.12996 9.99952 8.22222
-2.34836 5.64396 -10.1039
-5.19743 -0.180259 -11.8418
5.11528 4.00274 18.9998
7.47844 -9.87829 1.94033
9.47241 -7.85315 -9.99946
-8.19965 -6.11752 0.725062
8.60169 1.68642 -11.8036
11.7995 9.8175 8.13531
-8.19944 0.565263 -6.13146
10.083 0.853922 5.95529
-4.10125 9.88532 1.10153
6.46779 2.41851 18.9999
-3.77164 9.99952 8.1395
8.18305 1.08494 -5.90365
6.70214 -4.99766 11.9451
7.52289 -9.99948 -8.01042
-4.17236 -4.00557 10.0001
6.24635 5.41545 -10.1045
-3.65334 4.39821 -10.107
-8.19962 -2.47023 -5.6329
8.49513 -2.11253 -17.2733
8.05599 8.40673 9.9995
-1.85746 4.01746 -4.7618
7.48402 9.90654 -1.92177
11.7995 -6.28436 4.93194
4.82474 -4.95606 5.21603
11.7995 -4.74313 8.29164
11.7994 8.30779 -4.25579
5.15172 -9.99946 9.83684
1.64931 -6.99749 15.3943
8.03054 3.97524 4.5195
8.16702 2.92592 -13.5475
-3.75268 -4.27614 11.8498
-2.8828 -5.20841 10.1101
2.99068 -6.90163 -14.1522
3.32218 4.37987 -5.82647
1.56937 4.82912 19
8.44262 -9.99972 -2.94655
4.18703 9.99927 5.63715
6.6908 -6.66783 -3.46738
6.47673 -9.90672 -3.75276
7.68356 8.0177 1.18955
-6.25892 -4.26492 -4.22137
-5.9167 9.99953 2.24567
6.784 -4.92862 -13.5611
-4.60726 2.82153 10.1302
9.77079 -9.99933 -8.07099
-1.95846 -3.37636 -18.9999
-8.19952 -0.491599 -8.01579
-3.4293 -4.65183 -17.1564
-4.46838 6.29165 9.99951
5.19541 -1.0155 -19.0001
7.93137 9.99931 -0.264476
1.92267 -5.0483 -6.01817
-8.07993 9.9993 1.02065
-3.98726 7.97638 -1.6454
-2.30984 7.8864 -9.99945
-3.81773 5.43604 2.56857
-8.19952 0.973142 7.87293
-1.69571 -9.85928 -4.87842
-3.51528 4.55889 -13.6153
4.89037 3.19018 -5.14432
11.7995 -8.14405 -4.28848
6.61393 9.99967 -6.29171
1.89488 3.17408 -6.02067
8.19613 2.6455 18.9998
11.7995 7.92657 -2.15164
11.6704 -9.99924 -0.619214
-8.19949 6.0033 9.84525
9.08243 -4.87652 -3.50279
2.23925 -7.22728 -10.0001
11.7994 -4.86132 -6.14204
2.1028 7.01211 11.9554
-8.07818 -9.99946 0.691509
-8.19952 -6.82065 3.58084
-4.19655 -7.93621 -0.390579
4.48671 -6.47485 -11.8694
8.52442 -2.00389 17.1503
5.05935 6.19549 13.6098
9.84468 7.92549 9.9994
-2.70887 -8.24302 -3.95377
-2.133 -5.80174 15.4015
-4.96109 1.84345 -18.8921
11.7997 4.28552 9.9029
10.0647 -4.75621 3.6565
11.7995 3.03573 5.32832
-8.19952 3.23915 6.89174
8.05398 3.46771 -4.8931
-3.63685 9.99913 2.83124
3.11116 6.88137 17.1398
-6.22689 -9.99964 -0.226065
-8.06644 -9.99957 6.47522
-1.98878 9.99956 -8.12992
7.62207 -7.69454 -1.48428
2.77043 -6.9297 -12.1871
9.48069 -5.47649 -9.99944
3.17902 9.99945 -5.9749
-8.09335 -4.77309 -3.64512
-8.19954 6.40414 4.84869
0.162324 -6.65051 18.9997
3.82536 6.69909 -13.5469
9.50303 2.64866 5.38356
7.9921 9.90869 -9.99958
-5.14265 0.903502 -13.5799
0.428573 0.641041 5.99261
-3.94535 -3.99754 -15.3708
-4.65537 -1.80175 -5.73864
11.7994 7.68978 8.09933
-2.97922 2.9108 -5.25025
11.6222 -9.99916 -6.45267
8.46859 -2.17964 -15.4117
-4.31026 -3.43474 13.5745
-2.88052 2.40101 18.9998
3.11799 -9.84545 -9.99947
-2.46904 -9.99951 8.22842
11.7995 -9.89793 8.20266
-3.16308 -1.34961 18.9998
3.54857 -1.94815 5.75841
7.82173 -6.83682 -9.99947
11.7997 -2.71121 -9.88444
-4.21146 7.9988 -9.99937
2.62246 9.78231 -9.99951
11.7995 -5.82869 -8.11027
0.788456 9.99965 6.09689
4.5655 6.44057 -15.3361
-4.19043 6.0971 -0.588786
-4.31774 9.99951 -0.593921
-0.527907 -8.45124 5.54767
11.7996 6.43064 -9.88174
11.7995 -8.04294 -0.248284
0.552292 -8.22163 -5.89248
-8.19931 -9.87198 8.20058
11.7994 6.65099 -3.99948
-0.722488 1.23247 19
5.11948 2.91447 5.2399
3.39447 6.83915 -17.1398
-0.479024 -2.41855 19.0001
-8.19958 7.34669 -3.98698
11.7995 -2.90946 -6.8234
-6.1829 8.12381 -9.99932
5.25257 -6.09811 11.8346
6.26432 0.503499 19
-4.62871 9.99956 4.3408
-6.05604 9.99957 6.01856
6.63409 5.06329 17.115
1.7002 3.49513 6.00563
0.633098 -0.55449 19.0001
-2.62681 -9.99965 -6.34167
6.23936 9.86731 -9.99939
11.7995 1.16323 8.02336
-2.87275 4.84616 3.78712
7.17357 -5.44612 2.69083
-2.44416 5.57905 10.1101
-3.36603 -4.72031 -13.6492
9.42597 -4.64066 9.99952
11.7992 -5.5685 2.68227
6.15275 5.68491 9.9999
-4.50025 -3.04635 -13.6095
2.93462 9.99951 9.86202
4.78363 -6.33146 17.2914
-1.99086 5.8874 -13.5396
10.2787 -9.99939 9.8326
6.71658 -1.36342 18.9999
-1.79938 -8.3606 9.9995
-8.19952 -4.23684 -6.55042
2.31171 -3.06088 -19.0001
3.96142 4.64182 -18.9998
-2.22697 5.74047 -17.1968
8.36926 -2.41945 15.2936
8.65062 -9.9994 9.85801
7.97172 -8.15736 9.99948
2.29476 -3.05149 -5.99768
11.7995 -8.46299 -6.27185
-5.19576 0.570842 13.7154
-3.37326 0.50086 -18.9998
5.20899 6.11979 -17.1734
1.46383 6.99295 -17.1592
8.68457 1.25357 13.8223
-8.05951 9.99969 6.58647
11.7995 8.22639 4.01277
0.289095 2.30058 5.81225
11.7995 8.19902 6.07601
9.66346 -9.99945 7.65114
-8.02534 9.73202 9.99978
0.529423 -3.81798 -5.88127
-7.82143 -9.99957 9.85474
5.6848 -5.67391 -18.9996
2.75928 0.815801 -19
4.10854 -6.60725 -18.865
11.6503 9.99918 2.76135
8.87075 -0.501867 10.0002
10.0942 2.72763 9.99955
-8.19963 2.15754 -5.78084
-0.0183544 4.03857 -5.71414
-4.86592 -2.12944 -15.324
5.90569 5.67101 15.3318
-8.19955 -5.84319 5.14948
-8.1995 -8.40159 9.8695
7.92426 -5.98537 -0.54284
6.58972 -8.19388 -9.99936
-2.89043 5.20488 -15.3636
7.82426 -5.89404 1.1278
-3.31362 -7.59667 3.13259
-4.67561 2.94354 -10
-1.43652 -9.99962 6.79675
-8.08307 -4.71466 3.73373
6.06743 -5.69811 9.9998
-8.00492 -1.40093 9.99941
10.119 9.99951 4.44443
11.6817 9.99921 0.870303
-1.91029 -6.2485 -4.71061
3.20126 6.87793 10.1367
8.477 2.16759 12.0343
8.16443 9.9995 8.1255
4.68245 -1.25065 19.0001
5.8148 -8.04688 -4.46063
-4.94885 1.87152 -15.3278
3.14884 -9.99948 9.84678
-5.69341 -9.99939 9.88796
-1.05172 -2.73271 -5.33424
3.00856 -6.90132 -16.8862
4.88815 -8.35979 5.14308
-3.04566 5.07463 11.8469
0.992072 -6.96407 -13.4647
-8.19868 -9.82151 -7.6023
-8.06536 9.99962 -8.05083
-5.1104 -1.10762 -13.5968
2.64501 6.94526 -15.3656
8.78475 -0.761141 13.7386
2.83289 -6.92098 14.1037
-6.63284 5.25131 -2.90903
7.4428 4.15871 15.4374
9.73401 -9.99954 5.53703
9.84419 -5.99346 0.160431
8.09205 -1.33112 -5.84624
-5.09009 0.0574333 18.9997
-8.19905 8.373 -9.87525
-8.19952 1.99222 9.89956
6.22316 -2.11846 -5.64879
8.63978 1.48754 -17.1521
-3.93114 9.99905 -2.19223
-8.04983 -9.99827 -9.66777
11.6401 9.99936 6.42519
-4.71277 2.60438 13.7925
-8.08649 9.9994 2.83218
-4.81426 -5.07751 -3.21154
0.345403 6.8524 -18.8944
-8.19947 4.61568 4.05434
1.07742 6.97097 17.1709
11.7995 -7.73095 -2.33549
6.62649 5.06789 -11.8478
9.69467 5.37337 -9.99948
-8.1996 8.00808 -2.10968
-8.19946 4.93299 -9.84888
-8.19963 6.1097 -0.666613
-0.331474 9.99953 8.04192
7.65934 3.83488 -15.3411
3.43538 3.27606 5.80477
-1.42578 6.08581 -19
8.10858 9.99964 4.54492
-4.42968 -1.20342 5.87909
11.7996 9.91135 -4.41094
-6.24746 5.98522 0.616569
-0.157116 6.72812 -13.662
0.437585 -9.99981 5.99648
-6.56963 1.43211 5.82358
11.7995 3.99137 -6.70701
-8.19954 -3.63713 8.49105
-3.45806 7.96856 9.99935
5.60737 9.99963 6.57729
7.23182 8.23364 -2.55528
-8.03021 9.99968 8.26404
0.859651 1.72973 -5.93843
2.61716 -0.854112 19.0001
-8.1995 6.5847 7.49127
11.7994 -8.10336 5.88325
9.74175 9.79139 -9.99966
-0.311969 -6.68923 15.4848
11.7997 -9.86446 1.09021
-6.55339 2.42398 -9.99961
11.7173 2.30458 9.99945
-8.05626 -1.82316 5.73788
-1.34005 3.9317 -19
-8.1995 -8.38209 -4.17349
-3.9822 -3.75656 -18.9996
-3.90263 -3.0068 5.21187
1.02175 6.95139 -5.95662
-1.46793 3.25337 18.9999
7.92227 -6.27501 9.99954
-5.32002 -0.982257 10.0005
11.7995 3.81763 -8.43591
7.93468 6.00926 0.137423
-4.18168 3.63131 -18.8839
-6.42905 -9.99958 -6.18152
-4.48077 -9.99945 7.97854
-3.00683 -9.9999 -3.98967
-3.80907 -8.066 -2.12035
3.66989 -6.40877 -5.72029
11.7995 3.16208 7.88161
-2.98233 4.96294 -18.999
-1.15347 -7.924 -5.21875
11.799 -3.10056 5.32033
7.11427 4.55705 -13.5919
6.65074 -9.99939 -9.8467
-3.16651 -1.5117 -18.9999
7.10407 7.32236 2.82321
11.7991 -3.15398 -5.22051
11.7998 1.69184 5.94327
8.24901 0.924168 5.94128
-1.19342 5.08521 5.19972
-8.19946 -8.15739 -6.17441
5.59754 7.97645 -9.99949
11.6482 -4.6549 -9.99933
8.59493 0.851592 18.9998
-5.89939 -9.99957 5.9745
4.93391 -6.257 -17.1381
10.0578 -3.25927 5.04221
-0.851927 6.47691 17.1139
3.62162 2.24061 -5.73836
1.53316 -9.9997 -6.13991
-0.413826 -4.67334 -18.9999
-8.19963 -5.74938 -2.28897
4.02506 6.63444 15.3127
-8.0528 -9.99944 4.71361
-4.95213 1.86736 -11.8142
9.72238 -1.05984 5.90605
11.7994 -8.04279 7.95843
2.56223 -8.42579 -5.94928
6.78145 4.92576 -17.0836
-0.934649 2.48542 -5.47182
-8.0534 -5.59231 2.21047
-4.40316 -3.59268 -10.0002
0.968315 -6.96762 -11.6165
-8.19966 4.90783 -3.77488
9.81151 9.99947 -8.50216
-8.09789 -2.94793 9.99953
6.24374 -4.31788 4.16758
-1.24258 6.31301 -15.3625
-0.227223 6.64106 5.65267
5.54359 -9.99957 -7.48655
3.84523 -9.99963 7.9192
4.34761 -8.11553 -5.4544
7.53674 -9.99966 5.98707
8.04503 6.428 9.99959
-0.468087 9.84885 9.99944
5.76883 -5.766 18.8727
8.16157 2.95427 10.1305
7.30146 -4.32679 15.3264
-0.0758051 -9.81581 -9.99947
11.7995 6.41547 6.68142
3.15282 6.44582 -5.8559
11.6889 -1.17542 -5.88566
8.79549 0.0549269 -15.2839
-3.89439 9.99961 6.17951
0.120679 -6.21181 -5.75629
4.59003 4.91296 5.33105
5.93058 9.99953 4.55909
1.51416 -2.55729 19.0001
11.7997 -3.01556 9.82598
-4.24752 5.89991 1.06004
8.88852 1.16672 9.99996
8.2818 -4.39084 4.09106
8.29599 9.99963 -3.52304
-3.98373 -5.88991 -1.69877
0.936959 -1.12916 5.96901
-2.06312 9.99958 7.24766
11.5883 9.83297 -9.99793
-2.28275 -6.20099 4.39636
5.03671 9.99947 9.88225
-0.332351 -2.39898 5.63333
2.27414 8.27639 -6.00274
-8.19954 7.76466 -5.9008
0.622669 -6.77637 -18.9992
2.75674 2.84645 18.9999
-4.48628 3.8616 -4.60905
-5.99327 -9.99942 -7.99351
-4.35885 -3.68309 -4.73428
9.77814 -9.99953 1.11429
6.3043 5.36619 -15.3683
4.16757 -8.39961 9.99948
-8.03679 3.2024 5.07293
11.7997 -9.85076 -2.41586
0.305178 4.80665 -19
-1.10515 -6.3699 17.2213
-3.19047 -9.88388 -9.99946
-8.19951 4.82314 8.19294
-6.52427 2.58433 9.99973
-3.06946 -7.20316 9.99962
3.3567 -2.99012 19.0001
-2.30928 -3.05866 19
0.30723 -2.83455 -19
-2.24186 -3.93762 -4.53997
7.20685 4.4418 10.0989
11.7995 -4.63259 6.32263
-2.04698 -8.05493 4.60375
2.18536 -8.55605 9.99962
-0.884743 0.720052 -5.99289
3.06298 6.89184 13.6371
-8.1995 -6.06395 -6.10967
6.69526 -5.21003 -9.99981
-6.37398 -9.99961 3.70709
6.87976 5.22007 3.19199
-8.19964 5.75935 -2.26161
11.7995 8.2383 1.74719
11.7997 9.86579 -0.883894
8.60596 1.6463 17.1913
4.43051 -0.320386 5.99329
-2.82348 8.41997 3.82306
-8.19946 -7.49499 -8.00335
-8.1995 -1.89379 -9.84554
-2.65485 -4.31929 4.16051
-6.49715 -4.05075 4.43732
6.05171 8.21318 -4.2385
9.00948 5.0826 3.18467
3.54951 -9.99933 -5.93849
-3.40222 -9.9994 9.89716
5.07022 6.3443 -9.9998
-6.50504 9.99955 4.07376
9.44447 9.99958 6.28421
5.61371 -9.99933 4.89474
-8.19954 5.05452 6.15074
9.85802 -8.23083 9.99933
3.34577 -6.84661 11.9547
6.80308 4.91135 13.6248
6.08887 0.872351 5.95271
5.32793 3.43005 -18.9998
-3.69427 4.35795 10.1111
7.53938 -4.0184 -11.8909
-4.69723 -4.28303 4.19951
8.80586 -0.448144 -16.9802
11.6299 4.81452 -3.5704
-3.05118 -4.97232 -3.52766
4.63288 2.21822 18.9999
11.7997 -9.89378 -4.38314
7.75031 7.93019 -0.783659
-4.84803 -2.18449 -11.8262
2.17842 4.88047 -19
-1.00251 3.05451 5.31258
0.905498 1.00562 -19
4.36282 -8.26553 -9.99954
-8.04643 -6.72079 -9.99957
8.79139 -0.31527 -11.8662
7.40452 9.99965 6.30089
-1.62284 -9.99949 -9.86292
-2.91588 -2.45283 -5.47338
0.871655 -0.149543 -5.99193
9.88454 9.99955 -2.79105
-0.889853 -4.7912 -5.37769
3.18617 -8.16015 5.8442
-8.19954 2.86409 8.49054
-1.74514 -9.99954 -7.9736
8.79166 0.316688 11.9583
-5.87426 4.54766 9.99961
-8.0592 9.9993 -2.88653
-0.570662 2.24806 -19
11.6214 -4.71539 9.99936
3.91834 0.627617 19
5.01037 -9.99942 -9.85051
-8.19954 3.60633 -5.0265
1.74181 6.58803 6.00724
-5.81989 9.99945 7.92737
-4.32515 -5.99699 -0.0133131
2.45326 -6.96955 10.1263
9.27097 4.52494 9.99959
-4.49366 9.99943 9.90061
-4.89139 -2.05408 -18.8737
-8.04524 -9.99941 -3.27609
9.83977 -9.9995 3.11941
-8.19957 -4.54802 6.68383
11.6931 9.99904 -8.08552
11.7994 7.97682 -7.95417
-2.79999 -9.85609 3.84193
7.69915 -3.76524 17.0845
8.74175 0.965568 -13.5626
-0.165447 -9.99955 8.1585
3.89522 8.43394 9.99955
11.7994 -6.37566 7.24821
0.33604 7.07668 9.99991
-4.08455 9.99952 -7.82426
4.77592 6.49341 9.99968
-8.19962 -2.6777 7.13719
7.59894 -0.836214 5.96827
-4.47423 -9.99959 -5.80534
11.6656 -9.99924 6.46993
1.95032 7.01385 15.3667
8.13279 9.99965 -5.48289
6.64546 2.2301 -5.58926
-1.10275 -0.488793 5.99539
11.6852 -5.92674 0.927452
7.97294 3.31756 -17.1266
9.92881 -6.42512 9.9994
7.7205 8.15673 -9.99954
-6.09223 9.9995 -6.59001
-3.02099 -5.09409 13.6149
-6.11106 -5.96941 -0.831975
8.50619 -2.54637 5.42499
-0.874757 -4.52523 18.9999
-1.60358 6.12046 11.9713
0.875922 -6.95511 17.1743
11.6967 9.99918 -2.62878
-2.91727 4.78721 -3.71441
-2.51053 -1.74174 5.74953
4.80512 9.99968 -6.80945
-0.836939 9.99907 5.56679
11.6719 -9.99921 4.58355
-1.09738 6.51752 -10
-8.19948 7.86899 9.89535
-5.29879 9.99954 -3.48986
-3.0412 0.292755 5.99495
3.03587 -6.89063 16.7698
-6.39888 -0.840554 -5.96024
-8.19955 3.83018 -7.47012
-3.64537 -4.41788 15.3353
11.7996 -6.41663 9.81411
7.49704 -4.2728 10.0004
11.7996 5.75989 -2.17094
-8.07709 -5.9562 -0.755293
-2.59866 9.9997 -6.41086
-0.190761 6.71634 15.4117
-1.18992 -0.978654 -5.93334
-8.05849 -5.08672 -9.99948
-3.7399 5.74147 -2.31752
5.67309 -3.14119 19
10.1234 -9.99952 -5.15758
1.79138 7.29852 9.99983
-4.05756 3.83106 15.112
10.0076 -3.1908 -9.99955
-5.97228 9.99943 -8.30545
11.7996 -3.93074 -8.23851
11.7996 5.29479 8.25744
7.07308 -8.43876 -2.85274
7.59788 -9.86933 -1.58953
-2.98651 -0.681634 -5.99674
-4.61468 0.241427 -5.99707
11.7997 4.622 -9.91017
9.78609 5.75518 1.69911
1.87357 -2.71908 6.01519
-2.4216 9.9995 9.83709
3.65061 -4.8319 -19
11.6992 3.65223 -4.77451
0.70588 6.93523 -15.3767
-6.08305 -5.4776 -9.99961
-1.38314 -0.706939 19
-3.25497 6.76955 3.23013
-6.51843 -9.99948 -9.89528
3.88517 -9.99953 -8.06213
0.349067 6.84718 -10.14
7.8842 3.46453 17.1119
4.73177 1.05991 -19
-4.4247 -6.29055 -9.99971
-8.19951 -0.109699 -9.87916
-4.85573 -2.50098 10.0001
8.37044 -2.42035 10.0923
-8.19958 -7.95005 1.76293
9.8189 9.99953 0.951262
7.48947 4.09941 11.8267
1.02711 -6.96367 -17.2954
0.17533 6.80487 11.9203
8.79855 0.196737 -18.861
-1.21731 6.44971 10.0005
7.9072 -3.41664 11.6969
3.31573 2.73861 -19
3.93931 9.99951 7.91121
7.75625 -4.04055 -10.0001
2.44 -6.97929 -18.8871
-2.7154 1.14959 -5.89035
8.30602 -2.57592 -10.132
-8.19944 7.97672 -7.87694
-6.38866 -9.99943 7.98075
3.52673 7.0433 -9.9999
8.44651 -2.23908 -12.002
-0.356636 4.66693 18.9999
-0.526726 -6.61319 11.9309
-1.70427 1.52337 5.80014
-3.31963 -4.77399 -10.1183
-5.19853 -0.11682 -15.3327
4.99457 1.10668 -5.90226
5.76379 -9.99961 7.4203
-4.72363 9.88853 -9.99936
0.707528 8.30174 5.92279
-6.38586 -3.16136 9.99962
5.34452 -6.2449 -10.0003
0.892558 6.95722 13.6932
-5.26471 1.17682 -9.99949
-1.32456 -6.26478 10.0996
6.5722 -0.0413508 -5.99512
-3.85077 7.97422 2.01685
-8.04518 4.09759 9.99959
-3.02187 0.570875 18.9998
8.62339 -1.57136 11.7805
9.82324 7.57397 -9.99946
4.33414 -4.57886 19
-6.22156 9.9996 -1.80199
11.7995 4.57854 6.33326
4.36622 -6.62957 10.0002
2.96203 -4.28094 5.88448
-5.7352 -9.9996 -4.17457
-6.50052 9.99945 -9.90484
-5.11111 -1.09575 -17.0499
-6.12702 -5.8986 1.08504
6.81598 0.232254 -18.9999
9.81245 9.99952 -0.976258
-6.37776 9.99949 9.86989
-0.72647 -6.53082 -10.1591
7.07863 9.85525 2.84962
10.112 4.17162 4.31288
1.311 2.97854 -19.0001
0.650686 -7.22594 -9.99987
-2.50862 -5.51727 -11.8153
11.6278 -6.4719 -9.99931
1.89671 7.24228 -9.99993
6.81128 -2.91527 5.24313
