4.64537 5.43174 -5.3123
4.08577 6.54003 -19
-4.65853 2.00206 -5.68702
-4.66959 -9.99963 4.24507
1.1656 9.918 -5.9671
5.56839 5.90235 -13.5863
11.7995 5.65954 -5.72561
-2.35401 5.64413 17.2079
6.59662 -9.99947 9.88522
-8.19954 -1.13771 8.06085
-6.37049 6.13119 -9.9994
-5.57002 8.23901 9.99945
2.63109 5.04449 5.93836
-4.19709 7.97999 0.196175
7.75602 3.67544 -11.86
11.7994 1.94348 -7.83153
-8.0989 -9.99942 -5.35598
-2.55017 6.36552 -4.15421
-5.05247 -1.44309 17.1606
2.50916 -4.85031 19
11.7995 -6.41694 -4.36593
-6.39394 0.956138 -5.93066
5.77839 6.36597 -4.49023
1.63079 -9.83315 -9.99952
6.35041 9.935 -3.92083
-8.19932 -6.59566 9.91561
4.93567 -9.91975 -5.1119
11.7996 6.09018 -0.571667
-8.19944 -3.47606 5.0327
1.81175 -6.85387 -6.0131
-0.412319 6.66137 -17.1633
-8.1995 7.87811 1.95638
7.61774 4.14516 -10.0003
8.34001 -9.99934 -9.91689
7.12745 2.61657 5.39782
11.7995 6.36382 4.89589
1.68567 1.15473 19
-4.57559 -8.3267 9.9995
9.98305 6.08944 9.99944
7.23773 4.40517 18.915
-2.36825 9.99927 4.53355
-4.0248 -7.99317 1.4658
4.36768 -6.52392 15.4603
8.42402 2.28845 15.4248
4.88747 -3.19006 5.15643
11.7995 -0.0415236 6.12451
5.70291 5.71032 -18.9998
3.79783 -6.70704 -10.0923
3.18422 -6.23117 5.84788
-8.1995 3.24413 -9.86249
7.67692 -3.80322 -17.0186
-8.19954 -7.87664 -2.29721
9.72501 -9.99958 -1.197
2.1583 6.9211 18.9991
7.79635 3.44867 -18.9999
-1.27451 8.25329 5.15503
6.48504 -5.19836 -17.1031
-6.38374 -7.69049 9.99937
0.601348 2.93756 19.0001
-8.19919 9.89351 -6.34037
11.7994 7.71832 -6.01686
2.69238 0.697585 -5.98786
1.26102 -7.9393 5.97351
-8.19958 -1.0128 -6.05444
11.663 -9.85222 -9.99881
-3.6336 -8.00378 -9.9995
4.00505 -6.64149 -15.3699
11.7996 -1.32828 9.89183
-3.17339 7.97992 -3.34925
-8.19951 5.92918 -7.81058
-0.426375 -6.6558 -14.7616
9.82445 -2.14497 -5.61397
7.70614 5.79337 -1.62713
7.64146 5.72968 1.78693
11.7995 -7.82533 3.74709
11.5618 9.99956 9.87128
-4.2429 -9.99963 -0.969433
2.83157 6.92146 -11.8675
7.30755 -4.31901 13.5377
-6.49242 9.99953 -4.49721
4.51607 9.87562 -9.99944
-8.19954 -8.09476 5.67039
6.90941 5.00494 -3.32665
-4.26305 3.51852 11.9166
-4.94175 -1.62691 18.9992
4.96928 6.23834 17.1101
-4.26814 -9.99946 0.713128
-8.19954 -9.92231 2.58326
-6.47643 4.33521 4.15042
-8.19951 -2.65094 -7.91422
11.7995 6.90871 2.95099
-8.19995 6.02377 1.07807
-8.19956 -8.49189 3.71144
-3.55801 2.55679 5.43017
-2.35071 -5.64728 -15.5068
11.7994 -6.05743 -0.813927
0.673292 -9.99947 9.90162
-1.11398 -6.36867 -18.8912
8.56578 -1.38902 -18.9998
4.02008 -2.52418 -19.0001
-4.76602 -2.43967 15.4285
-2.19855 3.78009 4.65938
0.105575 -9.99955 -7.89769
4.00388 6.58106 18.9999
4.13102 6.60975 11.8867
9.94105 -3.82198 -4.6369
-8.19949 -5.712 8.31665
11.7998 0.834416 -9.91276
-4.65877 2.71107 17.0775
-4.42069 -3.21424 18.9092
-6.51595 6.62416 9.99946
-4.18627 3.638 18.9028
-6.09452 -9.99963 -2.19649
11.6784 -4.57806 -3.90361
9.55159 -5.61623 2.16646
-6.02304 4.32612 -9.99956
11.7995 0.0167438 -7.93179
-5.00195 1.71102 11.926
-1.96325 9.90315 -4.6695
-3.36727 -4.71144 18.9111
4.23394 7.9149 -5.48372
-0.534459 9.99908 -5.67273
10.036 9.99954 -4.75545
-4.39002 6.17397 -9.99954
-1.69144 7.96978 -4.88116
-4.82521 0.954785 5.93213
10.1239 -2.49781 9.99959
0.855371 6.96023 -11.903
6.2853 8.27697 4.02438
-3.83272 -9.99915 2.4049
0.549436 4.71763 5.89885
6.31581 -8.23134 3.98457
6.3087 -6.30999 3.98148
-8.06674 9.99967 -9.82318
1.83157 -7.01129 18.9106
1.80453 7.00835 -13.6478
8.3013 -9.99969 -4.5639
-4.22174 9.99948 -5.54967
11.7994 -8.0024 -7.98652
-6.32244 2.80774 -5.31005
6.96483 4.73598 -18.9069
8.45729 1.92651 -18.9995
-4.53655 4.25343 4.22909
-8.19948 -3.57116 -9.86633
11.7995 -2.75238 7.6727
8.79713 0.155701 15.4546
-0.955055 5.90258 -5.32797
-4.96178 1.82919 15.3407
8.75996 -9.99954 -6.58177
-8.19949 7.94786 5.94557
-8.19953 8.08414 -0.018325
-8.19952 8.02343 3.78105
11.7206 2.56257 -9.99944
0.0132658 -0.716202 -19.0001
4.91174 -6.81147 5.12808
8.25908 -2.69095 13.6432
1.7534 9.9995 8.00522
-8.19943 8.32319 7.99577
-5.06234 -1.3962 13.6527
4.83051 8.2286 5.18104
1.65488 -7.00184 -15.4074
9.81549 -5.69792 -1.93281
1.69828 -7.00108 11.9641
8.07225 -3.10762 -18.9081
-3.98999 -5.89675 1.63285
5.90415 -5.67231 -15.3392
11.7998 6.00944 1.12602
-4.26694 -3.52582 17.1178
-3.4515 -5.31335 2.95298
9.36533 9.99963 2.79435
-1.25629 -6.30623 13.6493
9.96091 3.90884 -4.57211
-8.1997 5.53789 2.66132
-6.21618 9.9996 0.169789
3.95386 1.45671 5.82199
-2.68087 2.32552 -18.9998
11.7995 -0.762303 8.04151
-1.39257 -9.99943 9.89758
-0.458122 -8.25872 9.99956
-1.45148 -8.16817 -9.99951
-0.227234 9.99961 -7.85776
0.685505 -4.82315 19
11.7995 -1.77638 -8.17046
0.805658 -4.04461 5.93962
10.3209 -0.192513 9.99965
-1.88144 -5.9584 18.8977
2.29671 6.90822 -18.9996
-8.10777 9.9993 -0.916367
2.55862 -1.20262 -5.96212
-0.807263 -4.9252 5.426
-3.81267 -9.99939 -2.54134
-4.16657 3.67204 -15.3315
0.766451 -6.94857 13.7258
8.76951 4.85015 -3.5379
-2.87587 -5.22044 17.1261
9.89329 5.51746 -2.34377
1.74466 9.99965 -7.9681
-4.86561 1.85284 18.9999
8.53865 1.95193 -15.3371
-2.70253 -5.24206 -18.9997
-8.09991 -4.7216 9.99955
4.53537 -0.728586 -5.98851
0.947249 9.91072 -9.99945
8.95561 0.882424 -10.0001
6.74994 -9.99964 3.58095
11.7097 -9.99934 -8.34952
-8.19955 -8.1176 -0.285965
-5.96289 5.40092 2.61802
-0.50741 -6.6207 -16.6695
11.7998 -4.44517 4.1968
0.281649 6.75269 18.9995
-3.64186 4.41817 17.0168
8.38236 2.65482 -9.99986
-8.09204 1.40971 -9.9996
6.78277 -9.99966 -6.01758
9.76149 6.00776 -0.506867
-6.05088 -2.55154 5.42325
-5.91822 -5.3073 2.82158
-1.4647 0.591899 -18.9999
-8.19948 -5.2623 -8.16351
7.40105 -4.20894 -15.2678
1.32239 -5.87923 5.97667
-1.81485 -5.99207 -13.6929
11.7994 -8.17251 9.91166
-3.64129 -9.99963 6.07916
6.33104 -5.3412 16.6228
8.04009 -3.21108 -13.6215
11.7131 8.23413 9.99927
-2.12525 -5.98837 -10.0001
11.6159 -0.902715 -9.99948
11.7027 -1.6322 5.77344
-5.19205 -0.12724 -18.9103
5.44373 -5.99232 -4.7705
2.17343 1.45224 6.00929
8.37125 -9.99964 4.17349
4.8587 9.89024 -5.14965
11.7996 4.44535 4.22268
8.69607 -1.20203 -13.6544
-6.03648 -9.9996 1.90206
1.7064 5.00628 -6.00555
7.66913 -9.99947 8.04082
3.88625 6.62484 5.62285
-6.00489 5.89478 -1.17039
-1.57166 6.13646 18.9133
-0.373812 -9.99869 -5.76007
7.72809 9.99927 1.50651
2.06043 -9.99941 -8.02893
11.7223 0.706629 9.9995
-1.58941 -9.99972 5.07753
11.7996 9.8803 -6.38034
5.41007 -3.68795 -18.9999
-2.39805 5.6084 15.3842
2.20157 -9.99994 6.10394
-6.71765 -0.890568 -9.99973
11.7995 7.9937 -0.0951078
8.63836 -0.990531 18.9997
11.7996 6.41644 9.89963
-0.733873 -6.52337 -12.2654
-1.05349 9.91289 -9.99929
1.1943 9.9995 9.91681
-5.20327 -0.371531 11.8734
5.73804 5.78038 18.9098
9.81859 2.08883 -5.64063
7.77647 -8.04681 0.628525
11.7023 0.580885 -5.97036
11.7995 -7.80052 1.88976
3.62966 9.9996 -8.20093
11.687 -8.21868 -9.99966
11.7995 8.18089 -9.90621
4.73582 -6.35535 13.551
5.8619 9.99957 -8.30674
3.91207 -4.49109 -5.62125
11.7997 -9.89039 2.75851
-4.9438 5.06092 -3.23228
-8.19954 9.8351 -4.55661
-2.03742 6.57591 4.60697
-4.7674 -2.42334 11.8813
1.73251 -9.99962 8.03472
8.958 -0.822301 -10.0001
3.49253 4.83668 18.9999
0.608364 -1.93239 -5.90694
-8.19957 5.64277 -5.72302
-2.88607 5.2114 -11.8798
10.0335 -9.88387 -9.9994
-5.66374 2.93556 5.25382
11.7998 2.21034 -5.70374
-8.19949 9.89434 4.82812
-8.12155 -0.174866 5.99876
-6.41534 4.23107 -4.25178
11.7995 -5.58723 -2.51423
-4.1852 3.64593 -11.8583
7.93077 -9.9994 0.287283
-6.27469 -2.85066 -5.28544
-0.00502217 8.37713 -9.99958
-8.11278 -9.99945 -1.34399
11.7995 -6.69284 -6.34323
1.61771 -5.00572 -19
-2.02786 -5.8656 -17.3208
2.51147 -0.401982 5.9938
-3.61034 4.45405 -17.1191
-0.487538 -6.69007 5.57519
1.71853 -1.13129 -19
-1.58873 -3.28365 5.03976
-6.66604 0.138443 9.99962
5.54163 -3.84693 -4.68468
-3.09985 9.99949 -3.65544
-5.97676 -7.84124 -9.99943
-3.00218 9.90257 -9.99925
7.77118 9.99954 -7.84204
7.10705 -4.55998 -18.9065
7.1626 9.9994 9.92118
6.06364 7.9864 9.99945
11.7994 5.91743 -7.81529
-4.80215 -6.18378 9.99966
-5.2717 -0.462799 -9.99963
-3.25345 -6.68862 -3.23312
-5.19717 -0.327603 15.3873
9.88279 9.99945 -6.71046
-2.18532 -5.76806 11.8806
7.86281 -3.40052 -4.93807
5.08937 -6.18043 -13.6515
9.35638 9.99935 9.91842
5.79578 6.4261 4.47811
-8.19952 0.288059 9.8687
3.76367 -6.63061 18.9998
5.85289 -1.36678 5.83807
-3.86326 -4.12172 -11.9316
-8.19952 -6.60315 6.77944
6.11406 -5.52636 14.4781
-4.6366 2.76381 -17.0928
-8.19955 -6.58898 -4.23112
-3.23223 4.86729 13.6629
-4.51491 -3.0159 -17.1516
-2.98219 4.9706 18.9998
6.01407 4.1118 -4.39402
8.79694 -0.313619 17.2428
9.81323 -9.99959 -3.22918
-6.41555 -5.45909 -2.4818
-1.00728 8.25786 9.99951
-1.45754 -1.53969 -19
3.9737 -9.99947 5.75646
-6.28765 -0.642602 5.98298
-6.272 -5.21992 9.99947
10.05 2.95613 -9.9996
8.06089 -2.93685 19
-8.19935 6.71975 -9.88673
-6.40498 -3.35758 -9.9997
-5.16135 0.869808 10.0949
6.53093 1.82027 -19
-5.01701 -2.01233 -9.99998
-1.12247 6.36775 -11.8287
5.96998 -7.90355 9.99939
7.00593 6.88336 -2.99589
2.88924 8.2513 5.89871
-5.17325 0.702695 17.1345
10.0916 9.99948 8.0986
-4.8053 -9.99951 -9.9069
5.94275 4.2269 4.33987
11.6614 5.28438 2.86435
-4.65202 2.73582 -13.5894
6.16801 -5.48448 -11.8756
11.7997 -9.8376 9.85918
7.99596 6.2591 -9.99958
-8.19935 -8.41448 -9.89299
4.16925 -2.51005 -5.51387
-3.99912 -9.99949 -7.8963
2.44529 9.99977 6.09849
8.03959 3.21154 13.673
7.06666 -4.60944 18.8905
6.03646 5.58395 11.8233
11.7996 9.91265 4.6547
9.82592 -0.0827496 -5.99714
-0.0207042 8.11089 -5.72082
-8.11769 -3.73948 -4.71453
6.74925 -4.8308 -3.60174
3.42424 -0.635191 -19.0001
-8.19947 1.5647 5.93019
-8.19946 -8.00709 7.94041
-5.15805 0.84678 -17.1192
6.53179 -2.14263 -19
-1.37176 6.25466 13.7543
7.27647 -7.66596 2.46096
-8.19952 1.79857 -7.9689
7.5592 -5.6469 -2.05468
0.807859 -6.92859 10.108
4.73217 6.35992 -11.8106
6.10493 9.99952 8.26605
-2.36615 5.62921 -10.0799
-5.19577 -0.334889 -11.8224
5.1401 3.89455 18.9998
7.46562 -9.91324 1.98116
9.48486 -7.76485 -9.99946
-8.19966 -6.09164 0.668051
8.57435 1.83294 -11.8476
11.7995 9.87054 8.12912
-8.19944 0.602905 -6.10538
10.0359 0.779085 5.97177
-4.11286 9.90945 1.05241
6.53116 2.34183 18.9999
-3.84363 9.99951 8.16918
8.16099 1.06606 -5.90802
6.62707 -5.06738 12.051
7.52753 -9.99948 -8.07902
-4.10169 -4.04258 10.0001
6.34998 5.3209 -10.08
-3.69818 4.33596 -10.083
-8.19963 -2.40774 -5.62756
8.42963 -2.28263 -17.2537
8.01474 8.24504 9.99951
-1.91424 3.94748 -4.72335
7.49237 9.93064 -1.89431
11.7995 -6.26091 4.9556
4.78675 -5.0406 5.24036
11.7995 -4.73489 8.26937
11.7994 8.33233 -4.05522
4.85743 -9.99946 9.87104
2.01683 -7.01648 15.4664
8.10632 4.06773 4.42798
8.20914 2.81809 -13.623
-3.74196 -4.29169 11.8962
-2.84093 -5.24261 10.1008
3.09135 -6.88819 -13.8061
3.39845 4.24492 -5.81359
1.61334 4.86309 19
7.36635 -9.99948 -2.59758
4.10283 9.99924 5.65294
6.80081 -6.75073 -3.30057
6.28912 -9.92249 -4.00067
7.70981 8.04272 1.05071
-6.23285 -4.33122 -4.15568
-5.89686 9.99953 2.19147
6.77674 -4.93515 -13.5866
-4.67528 2.67687 10.092
9.80155 -9.99933 -8.03757
-1.98716 -3.37058 -18.9999
-8.19952 -0.443645 -8.01711
-3.43839 -4.64191 -17.2131
-4.54849 6.33647 9.99949
5.22732 -0.890597 -19.0001
7.91246 9.9993 -0.175657
2.01746 -5.10586 -6.02518
-8.10241 9.9993 1.04639
-3.97663 7.91983 -1.69574
-2.23135 7.9273 -9.99945
-3.79417 5.44392 2.54736
-8.19952 0.92251 7.86412
-1.79685 -9.89843 -4.81485
-3.57561 4.49362 -13.592
4.84845 3.12736 -5.16914
11.7996 -8.18016 -3.8402
6.54896 9.99969 -6.09192
1.87278 3.04884 -6.01878
8.22436 2.64156 18.9998
11.7995 7.87451 -2.08818
11.6997 -9.99924 -0.750646
-8.19949 5.90281 9.89294
9.01525 -4.87813 -3.50156
2.36319 -7.19543 -10.0001
11.7994 -4.8792 -6.11882
1.96093 7.01995 11.9241
-8.10472 -9.99946 0.705289
-8.19952 -6.82659 3.58458
-4.19669 -7.92433 -0.438088
4.49414 -6.47125 -11.902
8.4996 -2.11487 17.2526
5.07846 6.18633 13.5781
9.88604 8.07306 9.9994
-2.64665 -8.21211 -4.02428
-2.11145 -5.8146 15.3799
-4.94325 1.89861 -18.9127
11.7997 4.41642 9.92654
9.99834 -4.7311 3.69412
11.7995 3.06544 5.28892
-8.19951 3.28993 6.84081
8.02739 3.37684 -4.95988
-3.6294 9.99914 2.79869
3.10533 6.88222 17.1381
-6.24216 -9.99964 -0.167105
-8.09649 -9.99957 6.51884
-2.11823 9.99955 -8.34165
7.66339 -7.75144 -1.30474
2.71014 -6.93763 -11.9777
9.71543 -5.3382 -9.99942
3.04283 9.99961 -5.98589
-8.1138 -4.73062 -3.70868
-8.19955 6.41787 4.6758
-0.138085 -6.645 18.9997
3.73451 6.72864 -13.6253
9.47681 2.5817 5.41564
8.32454 9.89547 -9.99964
-5.16877 0.743031 -13.5395
0.401505 0.621006 5.99523
-3.88545 -4.08646 -15.4355
-4.61611 -1.88533 -5.71931
11.7994 7.81832 8.16074
-2.97554 2.83617 -5.28659
11.6926 -9.99914 -6.62471
8.41774 -2.30365 -15.3956
-4.3276 -3.39943 13.6693
-2.76333 2.20491 18.9998
3.22731 -9.85255 -9.99946
-2.5855 -9.99951 8.24594
11.7995 -9.92 8.20381
-3.23346 -1.33211 18.9998
3.69484 -2.03492 5.71011
8.03622 -6.33945 -9.9995
11.7997 -2.74911 -9.90253
-4.13651 8.03305 -9.99937
2.73226 9.81673 -9.9995
11.7995 -5.93505 -8.13348
0.736805 9.99964 6.05464
4.59185 6.42739 -15.398
-4.19035 6.07853 -0.595575
-4.29262 9.9995 -0.615027
-0.512436 -8.48147 5.55545
11.7996 6.41319 -9.90622
11.7995 -8.01936 -0.0683688
0.620018 -8.29323 -5.91134
-8.19931 -9.89772 8.24892
11.7994 6.64549 -4.00731
-0.675619 1.27644 19
5.04562 2.89593 5.24934
3.51453 6.80094 -17.1873
-0.224414 -2.59179 19.0001
-8.19958 7.36616 -3.96429
11.7995 -2.93913 -6.84887
-6.14192 8.03129 -9.99932
5.30747 -6.071 11.826
6.3177 0.460971 19
-4.58279 9.99956 4.36512
-6.07713 9.99957 5.95719
6.63769 5.06004 17.1299
1.70055 3.33138 6.00567
0.656808 -0.625496 19.0001
-2.6229 -9.99965 -6.31738
6.52221 9.90406 -9.9994
11.7995 1.28456 8.03335
-2.88658 4.81151 3.77139
7.14888 -5.46315 2.74091
-2.68215 5.50957 10.0002
-3.27393 -4.82147 -13.7167
9.52545 -4.46305 9.99953
11.7991 -5.51487 2.70631
6.1039 5.67909 9.99991
-4.42942 -3.1938 -13.6637
2.93009 9.99951 9.89555
4.83923 -6.3035 17.3034
-2.04624 5.85424 -13.5828
10.185 -9.99939 9.87853
6.76822 -1.41092 18.9999
-2.41893 -8.44299 9.99943
-8.19952 -4.12571 -6.63385
2.20758 -3.08751 -19.0001
3.9987 4.65109 -18.9998
-2.16972 5.7811 -17.1744
8.51731 -2.05351 15.4317
8.4981 -9.99941 9.89153
7.8192 -8.21777 9.9995
2.32886 -3.14171 -5.99199
11.7995 -8.35411 -5.82848
-5.16998 0.757137 13.6386
-3.38121 0.468724 -18.9998
5.39514 6.02305 -17.1864
1.56516 6.99957 -17.1494
8.6895 1.23222 13.7157
-8.0905 9.9997 6.6275
11.7995 8.29285 4.0126
0.292688 2.22863 5.81255
11.7995 8.22186 6.05828
9.65575 -9.99945 7.68056
-8.04319 9.78648 9.99979
0.586175 -3.97614 -5.89929
-7.92586 -9.99958 9.88161
5.67328 -5.73223 -18.9995
2.57626 1.04944 -19
4.08259 -6.61583 -18.9066
11.6783 9.99917 2.70206
8.81753 -1.0094 10.0002
10.0868 2.25227 9.99958
-8.19962 2.20148 -5.73212
0.0266055 4.14316 -5.72918
-4.83727 -2.21901 -15.3669
5.91191 5.66676 15.3516
-8.19955 -5.8856 5.14747
-8.19947 -8.36687 9.90433
7.90815 -5.99792 -0.449128
6.99116 -7.98675 -9.99937
-2.89815 5.19859 -15.3687
7.78778 -5.87907 1.19844
-3.31312 -7.61657 3.13282
-4.70102 2.82683 -10
-1.60111 -9.99962 6.77419
-8.10422 -4.73385 3.70545
6.10673 -5.6655 9.99979
-8.05881 -1.41093 9.9994
10.1178 9.99951 4.4883
11.7093 9.99921 0.761425
-1.90825 -6.25308 -4.71227
3.16913 6.88739 10.1093
8.46746 2.19007 11.9004
8.14744 9.9995 8.1199
4.78475 -1.08261 19.0001
5.89642 -8.04698 -4.38318
-4.97892 1.77813 -15.3185
2.8115 -9.99948 9.8873
-5.86225 -9.99938 9.91537
-1.00128 -2.71699 -5.34186
3.07378 -6.89379 -17.0234
4.82796 -8.46217 5.1815
-3.19699 4.90665 11.7597
1.00951 -6.96483 -13.5023
-8.19866 -9.88512 -7.64132
-8.09419 9.99962 -8.05652
-5.0804 -1.28389 -13.5802
2.67173 6.9415 -15.42
8.7801 -0.782993 13.7044
2.87675 -6.91434 13.7905
-6.58425 5.33123 -2.74339
7.42156 4.18423 15.3982
9.76405 -9.99954 5.56814
9.8462 -5.99349 0.156624
8.1 -1.29637 -5.85446
-5.11965 0.053996 18.9997
-8.19904 8.38875 -9.90317
-8.19952 1.9571 9.91621
6.23432 -2.13964 -5.63768
8.71159 1.16608 -17.0673
-3.92589 9.99903 -2.15895
-8.07086 -9.99813 -9.73897
11.672 9.99936 6.41105
-4.56663 2.90849 13.6711
-8.10877 9.9994 2.84712
-4.76368 -5.06171 -3.23346
0.423078 6.87226 -18.9179
-8.19948 4.56274 4.07967
1.06748 6.97087 17.1009
11.7995 -7.77888 -2.04034
6.45308 5.22918 -11.8635
9.73555 5.19201 -9.99949
-8.19961 7.99586 -2.07193
-8.19946 4.92081 -9.87569
-8.19963 6.09262 -0.607879
-0.363153 9.99954 8.00465
7.66879 3.81941 -15.3773
3.41214 3.30851 5.80869
-1.35791 6.15039 -19
8.09767 9.99964 4.55212
-4.44717 -1.10082 5.90392
11.7996 9.91486 -4.61053
-6.25411 5.96978 0.727311
-0.217752 6.71484 -13.5967
0.351424 -9.9998 5.95826
-6.58089 1.45221 5.81935
11.7995 3.93497 -6.6817
-8.19955 -3.6035 8.4284
-3.22379 7.96145 9.99934
5.50975 9.99962 6.63036
7.10002 8.5478 -2.82165
-8.06562 9.99964 8.34919
0.796137 1.67321 -5.93343
2.58869 -0.993128 19.0001
-8.1995 6.59584 7.65988
11.7994 -8.10599 5.83838
10.0593 9.86169 -9.99966
-0.163614 -6.72464 15.3981
11.7997 -9.8953 1.01628
-6.54196 2.32637 -9.99962
11.7367 2.62428 9.99944
-8.07588 -1.80986 5.74181
-1.61348 3.99432 -18.9999
-8.1995 -8.38558 -4.23125
-4.032 -3.72671 -18.9995
-3.95215 -2.97856 5.22538
0.815576 6.55468 -5.94312
-1.53472 3.43698 18.9999
7.98538 -6.34227 9.99953
-5.25589 -1.07441 10.0005
11.7995 3.85612 -8.40306
7.90584 6.0099 0.180242
-4.15468 3.67282 -18.9109
-6.38906 -9.99959 -6.11827
-4.57751 -9.99945 7.92945
-3.04834 -9.99991 -3.83424
-3.77768 -8.11009 -2.19897
3.64039 -6.34096 -5.73329
11.7995 3.2272 7.79217
-2.94848 5.06045 -18.9988
-1.10687 -7.99099 -5.24392
11.799 -3.08342 5.30423
7.12427 4.54473 -13.6161
6.54973 -9.99939 -9.89528
-3.20468 -1.50653 -18.9999
7.14617 7.38654 2.73755
11.7991 -3.14981 -5.20855
11.7998 1.65591 5.91097
8.18057 0.95294 5.93445
-1.12093 5.06046 5.24331
-8.19946 -8.11628 -6.19587
5.42131 8.08927 -9.9995
11.6895 -4.65479 -9.99933
8.64078 0.857768 18.9998
-5.92944 -9.99957 5.94887
4.91632 -6.26574 -17.1325
10.0846 -3.23436 5.05945
-0.793746 6.50132 17.1062
3.60049 2.12821 -5.74698
1.51065 -9.99972 -6.11467
-0.383474 -4.67953 -19
-8.19963 -5.67031 -2.36576
4.06825 6.62047 15.3115
-8.09218 -9.99943 4.74615
-4.98769 1.76056 -11.8128
9.75939 -1.08304 5.90064
11.7994 -8.06202 7.9612
2.72936 -8.33993 -5.92565
6.96964 4.73175 -17.0858
-0.890269 2.50054 -5.46463
-8.09277 -5.60246 2.18906
-4.35102 -3.62273 -10.0002
0.920615 -6.96568 -11.6536
-8.19967 4.92184 -3.68953
9.61334 9.99948 -8.36981
-8.12102 -2.9572 9.99953
6.23593 -4.33136 4.15267
-1.22146 6.32182 -15.37
-0.231379 6.64148 5.65137
5.55821 -9.99957 -7.54632
3.80046 -9.99963 7.92384
4.4749 -7.98605 -5.398
7.52006 -9.99966 6.02857
8.01425 6.27978 9.9996
-0.473199 9.91176 9.99943
5.7255 -5.79418 18.8936
8.20952 2.83351 10.0955
7.54324 -4.02784 15.3493
0.121348 -9.84827 -9.99948
11.7995 6.52587 6.84671
3.04225 6.39191 -5.87419
11.7132 -1.20321 -5.87813
8.79806 -0.221542 -15.3508
-3.88116 9.99961 6.20299
0.0520978 -6.27199 -5.73549
4.58354 4.91988 5.33389
5.85937 9.99957 4.59433
1.59712 -2.86541 19.0001
11.7997 -3.13051 9.87698
-4.22192 5.89567 1.07858
8.8335 0.948409 10
8.26822 -4.31973 4.1663
8.20828 9.99964 -3.74353
-3.99081 -5.86433 -1.66209
0.792074 -1.03844 5.94184
-2.10043 9.99958 7.2873
11.6656 9.85051 -9.9978
-2.2569 -6.20466 4.41785
5.04152 9.99946 9.91003
-0.346458 -2.34348 5.62467
2.15691 8.14514 -6.02176
-8.19954 7.7866 -5.90935
0.526993 -6.80036 -18.9992
2.80229 2.91133 18.9999
-4.48523 3.78846 -4.6626
-6.03504 -9.99942 -7.98004
-4.31652 -3.66987 -4.74368
9.78363 -9.99953 1.05015
6.30315 5.36724 -15.346
3.92745 -8.41161 9.9995
-8.07308 3.157 5.10284
11.7997 -9.90287 -2.55583
0.222037 4.68085 -19
-1.10848 -6.36857 17.1232
-3.07417 -9.90909 -9.99946
-8.19951 4.7875 8.17151
-6.52213 2.49079 9.99974
-3.1068 -6.93687 9.99966
3.624 -2.78848 19.0001
-2.26464 -2.81347 19
0.244264 -2.84745 -19
-2.24307 -3.9552 -4.52665
7.29233 4.34126 10.0825
11.7995 -4.62879 6.32977
-2.07529 -8.10459 4.58211
1.72989 -8.50684 9.99964
-0.979256 0.738934 -5.98874
3.03071 6.89604 13.6167
-8.1995 -5.98266 -6.0891
6.71856 -5.11742 -9.99982
-6.44612 -9.9996 3.79911
6.86273 5.18177 3.21952
-8.19962 5.74956 -2.19462
11.7995 8.20463 1.75332
11.7997 9.89693 -1.03675
8.60884 1.62938 17.1351
4.44281 -0.308896 5.99336
-2.82549 8.41298 3.82078
-8.19946 -7.49484 -8.00902
-8.1995 -1.88786 -9.88853
-2.58152 -4.27048 4.21147
-6.44893 -4.11042 4.37623
5.8828 8.20132 -4.39718
9.26195 5.17017 3.06024
3.44655 -9.99923 -5.93272
-3.69 -9.9994 9.90539
5.22701 6.25714 -9.99985
-6.46234 9.99955 4.00109
9.43223 9.99958 6.3037
5.55377 -9.99934 4.90498
-8.19953 5.2116 6.12853
9.76292 -8.13688 9.99934
3.58221 -6.77445 11.8931
6.78711 4.92574 13.6403
6.08642 0.860174 5.95558
5.45761 3.35871 -18.9998
-3.92309 4.25016 10.0005
7.55655 -3.99039 -11.8681
-4.63639 -4.31739 4.16385
8.79986 -0.6558 -17.1418
11.6751 4.80201 -3.58622
-3.06433 -4.97713 -3.50738
4.667 2.07726 18.9999
11.7997 -9.92299 -4.51975
7.71993 7.89135 -0.969959
-4.79601 -2.34429 -11.8372
2.12544 4.95386 -19
-0.996092 3.02187 5.316
0.713085 0.988083 -19
4.74884 -8.2166 -9.99951
-8.07707 -6.74516 -9.99958
8.79319 -0.157735 -11.855
7.34428 9.99965 6.30359
-1.43327 -9.99949 -9.88896
-2.81607 -2.39145 -5.50425
0.861872 -0.140711 -5.99204
9.78009 9.99955 -2.75695
-0.895188 -4.76014 -5.37517
3.15413 -8.13035 5.84968
-8.19954 2.80066 8.42257
-1.83782 -9.99954 -7.97778
8.79181 0.275565 11.8559
-6.0697 4.60353 9.99959
-8.1031 9.99929 -2.83257
-0.512201 2.48804 -19
11.6698 -4.77581 9.99935
3.77388 0.609011 19
4.95389 -9.99942 -9.87154
-8.19952 3.63602 -4.96395
1.76673 6.60813 6.00915
-5.88798 9.99945 7.88915
-4.31563 -5.99686 0.0857983
2.75324 -6.9351 10.0935
9.55743 4.29933 9.99956
-4.3468 9.99943 9.92171
-4.90366 -2.01143 -18.9018
-8.07817 -9.99941 -3.29977
9.82567 -9.9995 3.09275
-8.19957 -4.61875 6.62597
11.7005 9.99909 -8.19659
11.7994 7.9572 -7.9374
-2.79765 -9.88634 3.84272
7.65705 -3.83413 17.1654
8.76945 0.83248 -13.6214
-0.247525 -9.99955 8.08373
3.80125 8.4444 9.99956
11.7994 -6.40544 7.27277
0.305377 6.98344 9.99997
-4.1138 9.99952 -7.79065
4.69644 6.49713 9.99967
-8.19963 -2.75462 7.03411
7.65523 -0.828542 5.96968
-4.43783 -9.9996 -5.68102
11.6937 -9.99923 6.46701
1.96626 7.01477 15.3465
8.24051 9.99963 -5.68334
6.58243 2.19524 -5.60712
-1.1975 -0.49437 5.99556
11.6955 -5.91586 0.995868
8.10566 3.05906 -17.125
9.96916 -6.29577 9.9994
7.51947 8.02643 -9.99951
-6.09953 9.99951 -6.41288
-3.01092 -5.10498 13.638
-6.087 -5.97174 -0.822335
8.55237 -2.52953 5.43317
-1.16555 -4.33749 18.9999
-1.84272 5.97463 11.9806
0.85874 -6.95404 17.1483
11.7072 9.99917 -2.77982
-2.92062 4.78714 -3.70981
-2.55438 -1.75655 5.74622
4.77529 9.99968 -6.88795
-0.870417 9.99903 5.52051
11.6975 -9.9992 4.56295
-1.03855 6.51499 -10.0001
-8.19948 7.8888 9.91567
-5.04182 9.99952 -3.64153
-3.04936 0.3909 5.9948
2.97701 -6.89804 17.1525
-6.38157 -0.958268 -5.93265
-8.19955 3.87028 -7.44466
-3.69957 -4.35613 15.4031
11.7996 -6.48601 9.8531
7.38696 -4.4003 10.0003
11.7996 5.72876 -2.15441
-8.19968 -6.04494 -0.890564
-2.37842 9.99968 -6.54911
-0.270756 6.69686 15.3386
-1.08363 -0.978982 -5.93378
-8.08826 -5.1151 -9.99948
-3.75993 5.71992 -2.26405
5.74528 -3.11651 19
10.1589 -9.9995 -5.39771
1.72006 7.24094 9.99983
-4.02054 3.88597 15.2772
10.0302 -3.02875 -9.99956
-6.0272 9.99943 -8.21852
11.7996 -4.01978 -8.22147
11.7996 5.31362 8.26073
7.09807 -8.46469 -2.80545
7.6715 -9.90583 -1.22501
-2.90878 -0.645622 -5.99666
-4.65112 0.114404 -5.99659
11.7997 4.59887 -9.92918
9.81141 5.84258 1.42128
1.9019 -2.51753 6.01722
-2.33632 9.9995 9.8704
3.59471 -4.69282 -19
11.7183 3.66815 -4.76384
0.692432 6.93194 -15.3641
-6.09589 -5.46453 -9.99961
-1.27437 -0.779157 19
-3.25584 6.78426 3.22857
-6.4777 -9.99947 -9.9148
3.86558 -9.99954 -7.99667
0.437891 6.86606 -10.104
7.87991 3.47175 17.1557
4.7156 1.10662 -19
-4.41657 -6.28797 -9.99971
-8.19951 -0.0834328 -9.89717
-4.78276 -2.62784 10
8.20344 -2.82475 10.0877
-8.19958 -7.93256 1.7175
9.84398 9.99953 0.977859
7.51446 4.05936 11.9287
1.1481 -6.9718 -17.2722
-0.0679572 6.74438 11.9205
8.80185 0.321692 -18.9048
-1.30281 6.40174 10.0006
7.85188 -3.51169 11.8127
3.47249 2.81781 -18.9999
3.86567 9.9995 7.94949
7.81534 -3.88759 -10
2.40356 -6.98492 -18.9143
-2.802 1.14449 -5.89143
8.36767 -2.40338 -10.0965
-8.19943 7.97124 -7.90191
-6.44365 -9.99943 7.95277
3.56989 6.96854 -9.99989
8.48668 -2.1431 -11.9011
-0.295077 4.76933 18.9999
-0.333213 -6.68245 11.9004
-1.66587 1.5179 5.80153
-3.28405 -4.81457 -10.0957
-5.19909 -0.236296 -15.3216
4.98852 1.03923 -5.91886
5.72658 -9.99961 7.42149
-4.75199 9.91177 -9.99936
0.719382 8.29015 5.9244
-6.40737 -3.06373 9.99963
5.44135 -6.14918 -10.0004
0.8176 6.95307 13.6592
-5.26761 1.00685 -9.99949
-1.16231 -6.33676 10.0873
6.54134 -0.0851283 -5.99499
-3.86238 7.98713 1.98768
-8.09098 3.96897 9.9996
-2.98215 0.433364 18.9998
8.60199 -1.68575 11.877
9.75549 7.59991 -9.99945
4.42468 -4.60447 19
-6.18729 9.99959 -1.96793
11.7995 4.66688 6.30035
4.55136 -6.54991 10.0004
2.98082 -4.19361 5.88123
-5.75953 -9.9996 -4.09018
-6.49151 9.99944 -9.92239
-5.10708 -1.12021 -17.105
-6.21251 -5.91446 1.01263
6.89561 -0.0318522 -18.9999
9.76433 9.99953 -0.947257
-6.29122 9.99948 9.89831
-0.653255 -6.56339 -10.1224
7.01091 9.88102 2.96876
10.1011 4.09467 4.39267
1.48777 2.96725 -19
0.776279 -7.1833 -9.99991
-2.44634 -5.5685 -11.8625
11.6725 -6.53293 -9.99931
1.98654 7.20164 -9.99994
6.86651 -2.92444 5.23943
