-4.38791 -4.0564 4.41688
-8.09903 -6.13252 -0.552364
10.1258 2.8056 -10.0086
-6.51223 -5.14784 -3.06966
-4.225 -10.0124 8.03263
5.13249 -6.15831 15.2822
-6.09394 -10.013 2.93837
7.05649 -4.65088 -17.1451
11.6302 9.86668 1.71681
-3.25611 -0.474899 -19.0043
-6.22199 10.0067 0.564321
9.25157 3.208 5.06668
-6.28502 -10.0084 -0.896289
8.22066 -9.90496 -9.79221
8.30878 1.95935 18.9187
9.80118 -10.0085 -6.27579
-8.20988 -1.92148 7.93957
-1.78875 -6.00465 -11.995
-4.77282 -10.0151 -4.36657
-8.09537 1.35575 -9.86935
11.7367 2.96792 -9.79693
0.855673 6.94331 -15.0129
11.7074 9.83634 -4.75934
7.58313 3.54731 18.882
6.40558 8.36032 -3.83011
4.12015 6.38616 5.53279
11.6712 4.15978 -4.5719
5.2463 5.73764 -4.92201
8.11723 10.0062 7.80864
-8.20843 -7.99829 0.958195
3.89726 -6.68983 17.0903
-4.17819 9.8342 -9.90085
-6.71489 -0.507562 10.0121
-4.4686 -3.14938 17.0671
-2.89521 -9.80081 -3.9422
5.02135 -3.82362 19.005
7.74725 -8.01708 0.60192
7.60354 10.0034 -5.89027
-8.06617 1.19132 6.03069
-6.23723 0.527676 5.98479
-1.23075 -3.12883 5.24111
-6.61092 -9.8828 -9.89415
-1.48639 1.77404 -5.73195
7.73341 5.95567 1.59536
-6.04731 -5.60378 2.12376
-5.68554 -10.0078 6.45274
-8.20682 -5.84741 -8.08588
5.85915 -6.18818 -4.40983
11.7108 1.02094 6.10103
11.6511 -9.90249 2.11725
-8.13731 -5.55163 2.689
11.6827 5.19132 -3.29186
10.047 3.00355 10.0052
-8.21417 7.7976 3.42873
8.65935 0.48352 -18.8554
7.66612 -3.82672 -15.5091
-8.12616 3.65284 -5.06364
-1.63527 -9.85767 5.04942
-6.34854 4.32008 -4.16714
5.50071 -5.93932 11.906
5.08011 -6.17766 -11.8547
7.15515 4.51546 -15.4387
-8.21622 7.99716 1.52173
11.725 -5.90918 1.73166
-8.20674 -8.28883 -5.62256
-8.0893 4.83686 -3.89426
7.07553 7.98713 -10.0136
-8.20716 -7.81814 6.2771
-4.77027 -2.42128 -13.4581
-4.73652 -10.0109 4.40734
-8.21409 8.20631 5.56852
-5.12456 1.08119 -17.0977
-2.07241 2.71635 19.006
7.69025 -5.92905 -1.80103
11.7312 -7.77562 9.80491
-4.53556 3.93215 -4.53235
-1.14481 -6.48229 -10.1081
-4.87563 -4.99745 -3.30314
-3.06134 -5.04174 -15.4075
11.8088 7.9029 -1.67
3.93589 -10.0107 7.72058
-1.81658 -6.00864 17.0873
9.77825 -10.0107 1.17609
-2.42337 9.90677 4.48127
2.57461 -6.80081 18.9071
11.5014 9.79689 9.84213
8.01855 3.21952 -15.1579
-3.64066 -5.39465 2.92997
3.3837 6.83708 15.3803
4.4472 -6.48526 13.6215
7.69842 9.82556 9.83385
-2.46122 -7.55761 -4.22792
0.857301 3.63357 5.9364
-8.07907 9.85918 -1.39646
-1.30404 9.8629 9.86399
1.91006 -10.0138 8.05619
-8.20953 -6.53174 -4.30628
-8.1007 -4.41498 9.84077
-8.12018 2.31739 -5.7552
11.8094 2.06616 7.87623
-5.61451 -9.87759 9.88329
1.83478 6.99998 11.8368
-1.28707 0.51135 19.003
0.00246467 7.63235 5.71826
11.6661 9.84405 -6.54653
-5.00037 -1.69951 -15.2495
11.6811 9.82897 6.73838
0.492707 9.92461 -6.09987
2.02827 7.00456 -13.5734
-1.81711 -10.017 -8.55737
9.86924 4.12241 -4.34564
4.51287 6.45687 -15.4277
7.19758 4.66623 -10.1133
11.5945 -5.08306 3.33018
-2.51509 -4.3377 4.24098
11.6055 4.66753 -9.92733
-8.20862 -7.75964 8.11202
9.57032 -5.49311 2.3982
-8.21124 -7.82982 2.80964
7.77437 3.63668 -11.857
11.7218 9.81936 -2.96459
11.6857 9.86405 0.100048
-4.76257 -2.73508 -10.1186
-2.75186 4.49764 -4.07075
9.99933 10.0125 8.01368
3.55135 6.35997 -5.74305
5.84176 -9.84287 4.7153
0.116151 -6.69991 -18.9112
-8.20807 8.30813 -8.12162
11.7058 -3.87757 -4.85033
-2.54137 5.49208 15.0848
-3.14805 8.1379 -10.0121
11.6212 -9.8752 -1.937
4.36889 -6.69648 -5.43148
-6.2998 2.86554 -5.28209
7.80158 9.85229 -9.85223
-4.45248 2.76303 18.9119
8.18464 -2.85341 11.9856
-4.537 3.00348 -17.3456
5.38793 1.27183 -5.89186
-3.56731 -10.0107 -5.92636
5.28071 9.90255 5.13987
-3.56302 4.28283 -18.816
-1.84327 -10.0082 -6.88095
11.8058 7.65431 6.19521
-6.57398 -10.0116 -4.99426
-8.20537 5.54079 -5.9576
-0.498978 -4.12815 19.0048
-8.20474 -5.56758 5.928
1.72463 4.76805 -19.0033
-4.84776 -2.20025 15.3308
-8.20642 4.60142 6.38702
0.925903 6.96107 -12.1103
2.56375 0.852906 5.97351
9.74761 9.89631 -9.86522
-8.07254 9.83939 0.353869
-6.32084 9.8457 -9.8999
-6.44354 -1.52179 5.79539
-3.56669 -10.0069 6.0476
-8.04881 4.8413 9.90231
9.8237 -10.0071 -0.919398
10.0775 10.0188 -7.93038
-0.500702 -6.61223 11.9978
5.87586 9.90718 9.80938
-2.59412 -5.68523 -10.1003
11.6217 6.4493 9.9109
7.16679 -4.25529 -18.9338
-8.20715 7.8414 -2.36728
11.8115 -7.9345 -8.22016
4.69558 -6.20929 -18.9031
-8.20381 6.65658 -4.24104
-6.21346 -5.99067 0.406391
7.69746 -3.75879 -11.9685
-5.13875 0.950813 13.7018
-0.53214 4.20294 19.0054
7.16702 7.95011 10.0109
11.8048 -6.88099 3.71514
7.98683 -6.26226 10.0039
-8.10301 -3.34488 -9.82057
3.95831 9.85162 9.8794
-8.07885 3.22105 -9.79693
-1.51716 -1.19701 5.87914
7.0532 2.87445 5.26646
-8.05044 -8.1298 9.84317
11.7075 -2.26422 -5.76872
5.89448 -8.09395 -4.36761
-3.89907 -10.0104 -7.96811
5.96256 -10.0119 8.28521
-2.84325 4.58569 4.02663
-8.21744 8.0322 7.91235
-3.45266 9.85392 -3.19755
10.152 1.96052 5.6684
9.91507 -9.80124 -9.916
8.19998 -10.0081 -7.56149
4.2934 1.04442 5.91903
3.45678 4.45384 19.0051
-8.06715 -9.87388 5.99851
0.983282 7.03515 10.1295
-8.21034 -8.37114 -3.60533
6.10825 5.79288 10.0954
11.8061 -7.81651 -6.39252
5.75288 5.77909 -13.712
4.62833 10.0089 -7.95423
11.5969 1.1448 9.94104
9.61508 -4.61258 3.82537
10.0481 6.4672 -10.0105
-4.35337 3.33953 -13.9339
-3.12009 5.00898 -16.8509
11.8082 7.95567 -5.79417
-1.74318 -10.0111 6.81981
5.34502 3.54725 19.006
11.7522 -9.79697 -3.72966
-2.41712 9.79689 -4.4121
-2.92619 7.5306 -3.70228
-8.07136 9.88853 2.18836
8.71306 -1.10983 -13.6089
-6.16104 -10.0077 1.09503
11.7203 2.90945 9.81351
-4.66935 2.66713 -12.002
-8.20675 -3.84322 7.47485
-0.179326 -4.44602 -5.65785
8.401 -10.004 -4.8083
-8.21663 0.171216 8.00382
-8.01784 8.22112 -9.95033
-8.09972 5.82943 2.09481
11.8079 4.42475 -8.29204
-0.181385 0.62513 -5.98627
-6.15557 3.97016 10.0062
-4.53926 2.96318 13.649
-8.20936 7.99665 -0.47789
-1.80891 6.00991 16.8965
9.09323 0.120854 -10.0864
-1.67554 -9.83154 -5.02965
1.68698 -6.78872 -18.875
-8.16022 -2.27539 -5.83978
11.8044 -3.95363 -7.35642
3.49488 -6.15036 5.76812
-6.1168 7.77026 10.0134
7.12483 -4.28663 18.9407
-1.08534 -9.89475 9.85718
11.8078 -8.2795 2.94268
7.99543 -10.0066 7.67506
10.206 -10.0095 -4.28503
11.8103 0.148345 8.05593
-8.21372 -8.29759 -0.801072
-4.79358 4.69157 3.72729
0.109772 2.19332 19.0029
-2.96896 0.820267 -5.95712
7.81695 -3.58643 15.5559
9.92668 -10.0124 -8.21254
-3.06478 2.84246 -5.28661
2.67051 -8.17995 -5.93425
11.6798 5.83421 -1.91985
7.25792 -5.30798 2.99986
-6.33273 10.0106 -5.66838
11.6304 5.27071 3.08481
-4.82919 -2.21424 11.9319
6.33475 -5.33482 -15.4441
7.38705 9.87868 -2.57059
3.99197 9.84437 -9.79544
0.822341 10.0075 -8.04956
-8.21465 3.96358 8.0774
9.46306 4.71769 -10.0017
10.0541 4.46462 3.99602
1.79763 5.39106 -6.01748
11.8023 -5.91278 -7.83274
-3.90125 -3.83438 -4.60822
11.7257 -9.82575 -5.59363
-2.49402 5.24985 18.8266
-4.07961 3.80639 -15.9265
7.33651 4.27685 11.9007
4.37895 -8.43463 -5.40393
-0.1112 -9.87133 -5.82563
4.67469 -6.55046 10.1289
-4.79186 -9.85086 -9.88501
-3.73131 -9.86649 -2.57703
-8.20815 -7.24567 4.5013
-6.87574 10.0192 -7.91706
3.70401 4.41548 -5.69813
-4.74222 9.88062 9.85478
8.18598 -2.90292 -17.1697
8.05196 -8.24891 -10.0089
2.05383 6.76189 18.9339
11.6566 9.89673 -1.36525
-7.96963 -9.87678 9.79693
9.52734 9.80259 9.89747
-6.21793 -3.7652 10.0049
0.154369 -10.0167 -7.88276
-8.07854 9.87229 -9.68411
1.97637 -4.6243 -6.02287
-6.5372 -2.52268 -5.43317
2.87136 10.012 7.94126
3.89931 6.69554 11.8998
9.84135 -6.52513 10.0062
7.12651 -4.54479 -13.7334
-1.47665 3.5503 -5.03858
-0.868974 6.48721 -11.9526
5.89181 5.69469 17.0605
0.648954 2.94514 -19.0036
11.7028 -0.714002 6.12381
7.40154 0.969494 -5.92697
4.98798 8.18493 10.0103
3.19817 -6.70528 -18.9449
-0.978515 9.89722 5.49471
8.51096 -2.0327 -15.4747
-4.83616 -1.79289 -18.8935
11.596 -0.625556 9.89277
5.86094 -2.80012 5.29857
-8.04093 -9.90027 -8.27451
-4.47446 -6.30943 -10.0051
3.77668 4.63098 -19.0077
6.80707 4.89462 15.3386
-5.05791 -0.0579923 -18.8551
-3.76564 -4.01023 18.8733
3.07337 7.07337 10.0854
-4.87187 1.47026 -18.9075
1.57662 -6.13829 6.00192
-3.34555 4.74339 13.4686
-8.21274 -7.42076 -2.22838
2.55773 -6.96022 -15.2761
10.1603 10.0078 -3.94803
-6.02306 -3.98634 -4.49146
-8.10906 -6.37717 9.85105
4.72608 10.0135 7.90848
9.9238 0.226413 5.99842
8.4818 -2.1078 -11.8812
-4.07112 6.7407 -10.002
-3.26884 4.82669 -14.5977
2.79244 10.0163 -7.95503
8.88295 -1.44525 -10.0968
4.40425 -6.26566 18.8607
-5.1961 -0.0864594 15.3932
-8.2124 2.17965 -7.89424
9.29276 -10.0052 -2.79737
-4.25866 6.09094 -1.12153
5.78199 6.12484 4.48226
-8.21107 5.93658 8.18783
-3.82501 7.8484 -2.06836
6.03252 -2.33629 -19.0072
-7.97737 -1.7672 -9.93164
9.7969 -3.22807 5.04442
-3.32238 -4.79401 17.0544
-1.54039 7.93688 -4.98805
6.5381 -5.14254 -11.8925
-5.09815 10.0199 -8.45779
2.44211 -6.37295 -5.97404
-0.275257 8.30461 10.005
-8.1507 4.95987 -9.80386
8.46595 -2.16536 14.5807
4.49759 -0.170125 19.0037
6.58542 -2.37975 -5.50667
-6.07903 -5.82 -1.43522
3.87636 9.92261 5.85933
-2.32847 -5.64497 11.8876
-8.20922 -5.78086 7.93386
-2.24432 -10.0135 8.42937
7.90073 -3.95076 4.52371
-1.48389 -8.24392 -10.0099
7.03998 -10.005 -6.03995
0.630501 -6.75158 18.886
-5.87562 10.0052 4.3487
-3.00793 -9.85952 3.82649
11.5768 -0.382825 -9.87564
0.00452181 4.54061 -5.71703
-0.163526 -6.72917 -11.9177
8.08672 3.10604 -17.0316
-8.07402 -0.51001 6.16838
11.7171 -0.639218 -6.13568
0.578059 -6.89415 13.7069
-1.36892 6.02867 5.09515
-6.40722 4.09789 4.3892
-4.41004 -3.23388 13.568
-0.457896 6.63333 -13.8883
7.75036 -9.92288 9.8217
-1.12232 10.0118 7.92741
11.6449 -6.59334 -9.8672
-4.05486 3.83258 11.8754
-3.53133 5.50232 -2.89003
4.59498 6.24308 -18.872
11.8078 0.246316 -8.02237
3.94394 6.66784 -13.6241
6.23177 -7.76526 10.0118
5.91779 -0.585867 -5.98952
3.13722 -4.47669 19.0059
3.89909 9.93248 -5.83737
5.78423 5.74475 11.8682
-0.307394 9.89301 -9.83306
7.98238 -2.84984 18.9188
-6.34345 -7.85506 10.0123
9.59055 10.0076 -2.05754
6.53479 9.82995 3.91877
1.10443 6.75537 -18.8788
8.80282 1.52447 10.1059
-1.84484 5.89443 -4.76881
9.80715 -1.5947 5.78672
4.64724 -0.761329 -19.0036
-6.45238 9.79689 9.90947
1.8499 9.88382 -9.84559
6.10756 1.63368 19.0031
3.05819 8.39955 -9.99742
-5.19784 0.21626 -15.3048
8.27996 -2.67169 17.0801
10.106 -2.92508 -5.23361
-5.50159 -10.0033 -6.44146
0.446596 5.56689 5.85326
-8.05947 6.58483 -9.84671
-8.09183 -4.76493 3.95139
-8.12093 0.825358 -6.12535
11.8115 7.77184 2.51447
-4.18393 8.01617 -0.0561464
5.1584 -10.0056 -6.72802
6.69142 2.70841 -5.35974
-6.08551 -10.0189 -8.07919
6.69149 -5.00793 15.4393
11.8026 -4.49591 6.54166
-3.91521 -4.04543 15.3029
11.8082 -1.78793 7.8209
-5.09507 -1.20056 13.6482
-8.20395 6.55759 6.5016
-3.07438 -2.58265 5.42119
8.83346 1.54942 -10.1087
11.6376 9.87018 -8.2665
11.8093 6.36105 4.38349
-6.46657 -5.69717 10.007
-8.20808 4.08552 -7.51045
8.48585 10.0052 -4.12243
3.02859 6.90699 -11.8374
7.38486 7.8636 -2.1724
11.805 7.77135 8.0239
-3.34422 4.7662 16.9718
-8.10867 6.15216 0.653128
6.7 -0.316708 -19.0037
7.05325 -4.61529 11.9174
-8.20546 7.72788 -6.19071
7.92541 -6.19904 -0.159166
6.14965 5.28262 -18.9178
-0.113651 6.4247 -5.6872
11.8102 -5.85015 8.18035
-8.10163 -3.56828 5.1179
1.97284 3.36873 -6.01004
11.6031 -9.91645 4.11679
8.37712 2.40064 12.0018
0.270513 8.29894 -5.80703
6.31678 -10.0104 -8.10866
4.17376 -9.83739 5.70649
0.800922 8.4734 -10.0024
-3.82327 -4.17069 -13.5226
8.15702 -2.93447 -13.7592
11.7029 -4.15819 9.79693
-6.36549 -10.0145 8.19266
6.01383 5.59165 -15.5675
-3.1625 -5.21881 -3.47065
8.09631 4.33393 4.14116
-8.07413 -9.86851 2.07511
4.07114 -10.0108 -8.1433
11.8092 -8.03378 -0.940519
-8.20404 -4.70443 -6.24372
-4.21699 1.38317 5.83667
9.80036 10.0096 0.0666527
-4.74703 2.81823 10.1235
0.437124 6.67262 18.8494
-2.44353 -8.18325 4.24476
-5.07881 -1.31304 -11.7591
-0.533961 -9.78894 -9.86341
-4.13782 -5.9654 1.52819
7.57364 7.94682 1.58723
-8.05583 -5.03679 -9.84984
11.6401 4.06766 4.63726
-2.33111 -6.38406 4.3491
4.22318 -9.90518 9.76338
-8.01369 9.9301 5.70041
4.47783 -4.25822 5.37371
2.91541 2.84764 5.89141
-2.70899 1.40532 -19.0046
-8.07466 -9.88351 -2.09646
7.50837 -4.39493 10.1235
-6.05764 5.77958 10.008
-5.15026 -0.861093 -17.0586
-2.80468 -1.11107 19.0037
6.0071 4.18793 4.38302
-8.20434 -6.54095 -6.23159
7.77888 8.0077 -0.356603
-5.20079 -0.135951 12.0005
8.79442 0.637238 17.2616
-0.36405 4.6695 -19.0046
5.17994 8.04554 -10.0024
-4.48257 3.29485 5.01635
11.8066 -8.17914 5.28403
4.81861 -0.747688 5.96123
-6.5783 1.94262 10.0026
-0.0260077 -6.78161 17.1179
-8.2077 6.26331 4.66806
11.6379 -9.87056 -9.60641
3.6676 8.15734 5.69511
3.32917 1.00275 -19.0018
6.75948 -9.87886 -3.69067
-0.00203367 6.78029 16.9273
-4.81309 -6.16334 10.0024
6.14824 -4.3879 4.23832
2.84467 6.78719 -18.8755
8.67466 1.32603 15.5539
-8.20462 6.18407 -7.88813
11.8062 -5.79041 5.11094
-0.948818 6.58622 10.1235
-8.07315 -3.59225 -4.97825
-8.0323 9.84588 9.63288
9.60454 10.0046 2.18049
11.8053 -7.95659 1.0997
-8.20786 8.38965 -4.27608
5.24203 6.10088 15.3342
9.81596 5.94388 0.849625
-5.9139 10.0076 -3.52884
-4.1088 -3.48621 -18.8302
-3.72673 -4.3324 -17.0454
9.68362 10.0038 -5.92538
8.03145 6.38949 -10.0019
-1.02726 9.88248 -5.47823
1.3643 4.85406 19.0058
7.93132 -6.42023 -10.0014
6.95754 4.76334 -17.2391
5.40194 -9.90208 -4.97595
5.84705 9.87555 -9.89246
-0.49251 -6.64391 -17.1272
3.63673 -2.32377 19.0028
-1.38093 -0.607257 -19.0034
-8.05542 -5.66081 -2.3885
8.28306 -3.0438 10.1149
-3.1952 0.933334 19.0053
-2.22812 5.73138 -13.4111
7.96208 -10.004 5.3455
-8.1019 4.15655 4.5719
4.0069 2.09172 19.0029
5.0515 7.75072 -5.02994
6.22879 -5.62442 10.1235
11.8055 6.21316 -7.40766
-0.442434 -1.6615 19.0048
11.6132 1.23496 -9.91607
6.53379 4.95948 18.755
-3.99727 3.92822 15.2825
0.719786 -4.70712 -19.0036
1.94856 2.93401 19.0021
-8.10585 1.03773 9.84843
-2.40628 5.30636 -18.8251
9.88856 -4.29145 -4.18007
0.68994 -9.79697 9.92844
5.85929 5.89482 -10.102
-4.35086 -6.15625 -0.122025
7.68287 -3.79571 13.6466
-8.10907 5.7438 -2.40138
1.36209 -2.88071 19.0027
4.30335 -1.51409 -5.80643
3.7535 0.244737 -5.99945
-8.04699 9.87658 3.93763
6.82811 7.59766 3.25793
6.60849 9.91542 -3.97617
8.00466 -9.9059 -0.156683
11.8078 7.94738 -7.9053
11.7747 -3.38288 -9.79693
4.37262 4.54298 5.42792
2.74312 6.93664 -15.4136
2.44613 -6.97194 13.5946
-3.28993 -9.83447 9.89392
-2.53705 -5.49359 -13.6614
0.650172 0.148415 19.0022
-8.06395 9.89249 7.56417
-8.10374 5.14819 3.36161
-2.50638 5.51478 11.7857
-4.2729 -3.49294 -15.2157
2.94745 -8.03505 5.87987
11.6874 -2.43157 5.70833
-8.04973 6.63286 9.92243
-6.44885 0.984984 -5.91804
11.6912 -9.84405 -7.53292
-8.21432 -1.79047 -7.94994
8.73369 1.15688 -17.0712
-2.48209 5.53106 -11.6762
5.90634 -5.46874 18.869
11.6266 -5.86907 9.8706
9.38132 5.2474 -2.91281
8.35758 10.0095 -7.78409
11.8035 3.89338 7.54112
4.07886 6.63354 17.1209
8.16937 3.21115 10.1235
-4.05162 -5.85636 -1.83495
-4.97498 1.26626 18.893
-1.40166 -6.01418 -18.8888
-8.07895 6.05085 -0.894135
8.41772 2.31005 13.9493
-2.38674 7.89406 10.0099
0.447761 -1.01075 -5.93452
-1.77418 6.02549 -15.3848
-6.1782 -5.61389 -10.0062
3.57232 6.79844 -17.1835
-4.34417 6.11409 0.784925
5.9718 -9.82419 9.93527
2.89728 2.85731 -19.003
7.72141 -5.98368 1.50327
1.90099 -2.58933 6.00647
-4.32736 -9.84965 0.545114
-3.79332 -4.20173 11.9128
4.54878 -6.44145 -15.3925
7.70584 -9.86564 1.69499
-5.03647 5.21254 -2.97428
9.76736 5.88923 -1.10804
2.5501 -0.860206 -19.0028
-2.90396 -5.3735 10.1229
-5.38447 -1.25676 -10.0171
5.97119 -4.20959 -4.44913
-4.38418 -3.26753 -11.8231
11.6825 -9.84955 0.0818927
2.63576 6.94822 13.6071
-1.56518 6.14372 13.3641
11.5969 -8.34104 -9.91001
-4.51928 3.03309 17.0781
-1.40452 -8.34794 10.0057
1.60931 -7.2748 10.039
-8.03811 -9.90291 0.085364
1.69782 8.31326 6.01486
-5.18509 -0.504023 -13.5348
3.47048 -9.93641 -5.95754
-1.65016 8.02386 4.91243
7.27539 -7.86577 2.43842
9.22811 10.0051 4.09587
7.57867 -9.87714 -2.05136
11.6653 6.0014 1.51126
-4.7535 0.452646 -5.99895
-2.26409 -5.72472 -17.1843
5.10097 5.92814 18.8613
-8.09203 -9.08131 -9.84619
8.63014 0.366951 18.9418
-0.865383 -6.47323 -13.7591
7.89871 -2.35438 5.52929
7.29045 4.67998 10.118
-1.43577 -6.21032 13.566
6.1819 -10.005 6.50464
-6.16267 2.35927 5.51443
0.458002 -6.87646 -15.478
-4.43714 10.0082 -4.84778
-3.01506 8.27616 3.56181
5.46448 -5.97953 -17.0863
-8.07519 8.26119 9.89316
-2.23341 9.86478 -9.81819
4.12256 -6.60936 -13.5943
2.21276 -1.04699 19.0034
-0.757988 -6.5201 15.3511
-2.79028 6.53638 3.85918
-8.20731 2.18441 7.77126
-1.82779 6.19047 -10.0884
-8.20669 0.195237 -8.04687
5.3886 6.02841 -17.2431
7.33728 4.30721 17.0953
1.22981 -6.97745 15.4512
3.96149 -2.47887 5.6326
3.7017 -2.57374 -19.003
-3.50661 -7.65602 2.79587
4.74085 6.49185 10.117
7.20708 -4.48594 17.2644
0.406448 -6.18401 -5.84336
5.67029 -5.84752 17.0653
2.13752 9.9276 9.79693
9.40293 5.41154 2.61251
9.55094 -9.95995 9.79693
7.95378 6.13518 -0.0848371
-0.618123 1.27603 -19.0047
4.9224 -9.87088 -9.8623
4.91283 2.75025 5.36557
-0.911038 -8.09929 5.3698
7.57463 10.0024 5.62289
-8.08099 -4.68812 -4.00098
0.893846 10.0092 7.93982
-8.06976 -7.05632 -9.87082
10.1968 2.54958 -5.43283
6.27946 -5.37822 13.6304
1.13623 -2.85444 -5.96774
7.89704 9.89027 -0.892334
8.33738 2.55563 17.189
-3.12157 -7.42541 10.0026
11.6544 0.979654 -6.0498
11.7504 2.60916 -5.59768
-0.187991 6.72784 -16.5349
6.78929 -0.211751 19.0078
8.56757 1.81593 -11.7812
-2.5555 -5.2861 18.9072
-3.82948 4.40702 10.1103
11.6738 4.65163 9.84605
2.47071 -6.96996 -13.4076
8.7428 -1.03501 16.5817
-4.2931 2.91795 -18.9199
11.733 -5.1761 -3.46882
8.79173 -0.391453 14.7794
-4.87635 2.12324 -15.4923
9.55083 0.741817 -5.9662
9.41095 -10.0033 3.29537
-5.93852 -4.81549 3.58784
-4.87426 -2.48656 5.46394
-1.60704 -5.90377 -4.94741
-4.07987 9.88998 -1.88334
1.55389 -6.98748 11.7913
-1.26556 8.16291 -10.0083
7.41474 3.85474 -18.901
0.0197661 6.84016 -10.1296
5.91064 -1.99952 19.0074
11.8104 -8.09502 7.76156
2.23757 8.44667 10.0013
-4.16311 10.0047 5.45186
11.8036 -3.63791 8.05964
-0.377415 -2.48805 -19.0034
5.0515 1.22917 -19.0044
1.0044 -8.0799 5.96562
3.24532 -6.85996 15.3248
2.15908 -10.0135 -7.99641
3.57896 6.60188 18.891
-5.18135 0.679847 -11.8977
0.186747 -6.9589 10.1086
-1.12553 10.0086 -7.72928
9.79167 -10.01 7.47828
6.61713 10.0097 -8.21417
4.62919 6.40409 13.6065
11.8038 -5.68276 -5.73413
6.62258 -9.84739 -9.85103
6.32083 10.005 7.3154
-8.04455 9.91131 -5.01224
11.6451 8.19879 9.89353
8.60415 1.67321 -15.2729
1.73953 1.00252 -6.00344
11.5598 -9.79697 9.83344
-4.66806 2.17936 -5.59325
0.109494 -2.02143 5.78044
-3.76916 -1.01649 -5.9138
11.7779 9.79689 8.31218
11.5502 9.79689 -9.88794
2.20353 9.91822 6.12543
7.91375 -3.91081 -4.55582
-3.71291 4.31653 -12.2878
4.87473 -3.10173 -5.2639
11.8055 -7.47138 -4.54872
7.65991 -8.01599 -1.28324
5.21166 3.25916 -19.0043
-1.05108 -6.20571 18.9073
-3.27287 4.9485 -10.1464
0.85855 -6.94319 -13.729
0.59001 -0.740059 -19.0035
8.76125 0.812525 -13.5184
6.43981 -6.54584 3.81299
0.870848 -8.01352 -5.92685
-5.03437 -0.540893 18.8904
-5.04355 1.50084 -13.6628
-2.80371 10.0062 -6.31179
-1.73467 3.15898 -19.0037
6.21949 -8.25827 4.02507
11.7481 6.33689 -9.76416
2.8698 -9.83657 -9.89249
-8.21119 -7.95051 -7.84493
-8.20966 -3.70823 -7.85726
0.468764 9.90391 9.86016
-4.26644 6.41076 10.0001
-3.91311 5.67671 2.46838
-5.96968 -7.87653 -10.0163
-4.60295 -2.40184 18.9053
8.65106 -5.13023 -3.09681
-3.66854 4.14088 18.8977
9.68528 5.17408 10.005
-2.63186 2.90874 5.24066
-6.46423 4.41041 -10.0119
-3.56006 -7.91331 -10.0094
6.03219 -7.89178 -10.0071
-8.08359 -2.17174 5.80434
8.51715 2.52735 -5.44381
11.8031 5.46809 6.15494
-6.40677 -3.48678 4.88066
3.96696 6.7308 -10.1332
11.807 6.08843 -5.23235
11.7051 2.79381 5.58264
-8.07861 -9.82654 7.83754
-5.41208 0.303653 -10.0099
-2.94817 -9.81821 -9.86231
6.15623 -5.29339 -18.7934
-1.44555 -6.40252 10.1754
11.6798 -6.17955 -0.0481754
7.88203 9.85462 0.916092
-2.21079 1.09159 5.90587
1.63144 -2.78113 -19.003
-4.08743 -8.00085 -1.02361
9.65739 -4.58253 10.0049
-1.14906 4.121 5.2276
6.53767 5.14579 -11.8538
10.0286 -8.32696 10.0194
-4.90511 2.02112 15.4157
2.79614 -4.66434 -19.0032
-5.25322 -0.497005 10.1518
-6.13815 5.42075 2.58925
3.60964 -6.78521 -17.0963
-3.14274 -4.96155 13.6132
9.81781 -5.96029 0.737904
5.33477 9.79821 -4.97444
-1.66237 -0.672941 -5.97869
11.8082 7.95796 0.447391
-0.67317 2.3688 5.57665
7.20921 4.44326 -13.5958
1.98578 -7.01713 17.1769
7.2827 -4.57194 -10.1069
2.58006 -4.35475 5.95115
11.6995 -4.91006 -9.82978
8.52016 -1.3063 18.8508
11.681 -9.84858 6.28843
-6.55846 -10.0091 4.86133
-3.83117 7.77161 1.96475
-4.24631 8.23956 10.0143
6.28407 0.999623 5.92266
-8.06319 -9.90252 -4.1984
9.91802 -1.06501 -5.90703
4.13152 -4.87401 -5.52748
-8.02744 9.89963 -3.10006
11.8067 2.33999 -7.77929
-1.16904 -4.12343 -19.0072
-5.46553 8.25835 -10.0143
7.67436 5.86806 -1.84738
8.47916 -2.43855 -5.48378
6.3429 5.32777 13.5709
3.8729 -8.35863 -10.0051
-3.93471 -4.38373 10.0918
11.6167 8.10373 -9.90709
8.68911 -1.24317 12.7036
11.8066 7.61138 -3.6701
8.01059 4.1004 -4.37782
-6.14952 10.0209 8.16037
-8.05277 -2.62202 9.89255
-0.460475 0.365361 5.99803
11.6033 9.90093 5.08801
-0.423495 6.64144 11.7643
2.96441 -0.927109 5.95773
-2.12575 -2.96916 19.0069
2.29569 -1.04777 -5.99984
2.04001 7.02324 17.0895
9.88455 -10.0094 5.34188
-2.52056 -2.46963 -19.0039
0.466227 9.85824 6.02213
-8.01103 -0.22624 -9.9449
-8.13141 -9.79697 4.03196
7.0921 5.32624 3.0956
-3.67151 9.905 3.014
9.62188 10.0052 6.05986
0.535363 -4.25223 5.87454
11.615 9.87883 3.36457
11.6318 -3.95285 4.64051
-4.32404 -9.90854 -1.09293
8.50578 -1.42739 -18.9436
11.8065 -1.9359 -7.92635
11.8074 8.18765 4.36666
-2.00857 -3.94717 -4.71552
7.97762 3.30927 15.5162
9.28407 8.15615 -10.0239
9.82862 -7.42925 -10.0091
9.60233 7.70307 10.0142
8.12942 -0.397276 5.99779
-4.03108 -4.26903 -10.1073
-0.287218 -6.45541 5.62873
8.23184 -3.20978 -10.1235
2.45578 -9.80293 9.90615
-4.3762 9.91155 -0.262683
1.17178 -9.7954 -9.90652
5.92833 4.14972 -4.42893
7.63575 3.86699 13.6427
-3.23008 -4.86625 -11.7573
6.95161 5.0986 -3.2905
-6.0226 10.0071 6.31986
2.47571 0.915788 19.0016
1.51954 -7.00079 -11.7733
8.78359 -0.197194 -11.8457
5.47767 8.0553 4.73598
5.73109 -5.7936 -13.7279
-6.16312 10.0135 -1.52971
1.43632 1.07274 -19.0028
11.6591 -9.88908 8.14889
-6.06383 -10.0083 -2.86736
-5.14277 0.922013 17.097
-6.49337 2.39355 -10.0143
1.7787 7.43538 -6.01441
1.04635 1.68297 5.95955
-2.96076 9.89558 9.78175
3.00823 -7.01207 10.1235
-4.73928 -2.54064 -5.44147
-8.09907 -0.9365 9.77481
4.76688 -7.87722 5.21554
-1.66693 6.10781 -17.356
4.2952 -6.69124 -10.1143
-6.61594 5.39489 -2.61309
11.8028 -6.70495 6.54139
1.58951 -9.88448 -6.1516
-6.28668 5.95495 0.736321
-8.05214 -6.04668 1.1871
0.493685 6.88104 13.4401
9.69733 -5.89922 -1.08166
-1.1624 -5.04751 5.22896
2.47282 4.80623 5.96895
11.7402 -2.35077 9.80345
-0.725196 6.534 15.0682
-2.48532 -5.54085 15.3122
7.02736 -9.92996 3.28215
-4.57438 -8.31793 10.0123
8.79909 -0.163427 -15.3646
-3.11417 -0.560812 5.98704
4.84443 -4.07518 -19.0067
8.30128 2.28344 -18.8102
11.7001 6.13528 -0.235703
4.08925 -8.36477 10.0077
-3.4906 -7.62174 -2.81923
-5.20137 1.05194 10.1566
8.24975 1.51702 5.80267
-8.12742 9.83518 -6.88603
-3.95708 -9.88008 2.25322
8.75614 -1.49576 10.218
-3.12428 10.0135 -8.15562
0.190027 -9.88601 5.91545
8.19302 6.36845 10.0024
7.00421 -7.61571 -2.9769
-2.46707 5.73933 10.1018
-2.64452 -2.39213 -5.50069
6.53839 6.67892 -3.69193
3.40231 2.05559 -5.76529
5.94838 -5.82221 -10.108
-8.09989 2.7726 5.5586
-5.98577 10.0066 2.51981
-6.31844 -3.4986 -10.0102
6.9404 -5.25598 -3.25624
10.139 -2.4117 10.0057
-0.0606489 -10.0098 7.95722
11.6055 -1.77999 -9.8863
-2.89753 -4.93779 -18.8229
2.18151 -9.85927 6.1609
10.2471 -5.3607 -2.65988
-4.13313 10.0069 7.82439
8.2379 3.14452 -10.1234
9.10074 -0.036764 10.0351
11.8067 5.80604 8.06733
-6.32473 6.66989 -10.0121
9.60787 -5.16963 -10.0026
1.31563 6.98184 15.2412
8.77194 0.722504 13.3528
0.573413 -7.14701 -10.057
-5.0839 1.8396 -10.158
-0.912547 -7.8809 -5.34826
1.61528 -7.01526 -17.0747
-5.03383 5.28019 -9.99865
3.05897 -3.00281 -5.86912
8.7778 0.354255 11.6139
7.92583 -0.739485 -5.96717
3.38022 8.28493 -5.77805
-4.11026 -7.99672 0.973797
10.0448 -3.09822 -10.0061
-4.18751 9.83418 1.43125
-2.57905 10.0045 6.81295
1.61418 7.01113 -17.0549
7.42 9.91319 2.59782
-8.08289 2.95881 9.81762
-8.07817 -0.716975 -6.10548
-5.10142 -1.20306 17.1028
-6.02274 5.91591 -1.01801
4.94823 6.24486 -11.9103
0.283128 2.52138 -5.80376
4.8119 3.04545 -5.2323
8.25753 2.69459 -13.456
1.14812 -0.519465 5.99229
5.89239 10.0046 -6.58647
11.8046 4.32276 -6.47775
3.62868 -6.7673 11.9298
-4.57618 -3.22357 10.1712
1.92599 7.08454 -10.1347
-4.67743 -2.68614 -17.0451
-4.78431 10.0063 -6.74879
-5.97888 -0.921454 -5.93255
-4.93662 1.93127 11.9437
-0.736424 -2.54569 -5.51401
1.28395 -4.99722 19.0046
6.7315 1.77852 -19.0122
2.29029 -7.18033 -10.0555
-0.510654 6.50023 -18.7985
-1.13378 6.22929 18.8377
2.11494 9.89805 -6.09042
11.8055 -7.73535 -2.79441
-5.18802 -1.90646 10.087
-1.49582 -6.18297 -15.448
7.96232 -2.9705 -18.8803
-8.00811 -9.89735 -6.46344
2.1399 6.63504 6.01237
11.7154 -5.90622 -1.80949
3.36837 -6.8367 -11.7324
6.49049 -1.00864 5.9275
-4.75958 -0.6437 5.98585
5.17789 -5.9655 4.96214
-4.41961 3.46804 -10.1039
8.76523 -0.897345 -17.1818
8.13376 -8.17494 10.0088
