4.60263 5.56346 -5.33153
3.93105 6.65621 -18.9997
-4.67456 1.99288 -5.69126
-4.78936 -9.99963 4.10227
1.04371 9.97097 -5.95826
5.53506 5.92543 -13.634
11.7995 5.71695 -5.72093
-2.31869 5.67299 17.2178
6.47108 -9.99947 9.96251
-8.19955 -1.26554 8.05791
-6.36377 6.06771 -9.9994
-5.44115 8.24264 9.99944
2.50102 4.98478 5.95913
-4.19645 7.97207 0.0728273
7.69646 3.77776 -11.8509
11.7994 2.00114 -7.86977
-8.15932 -9.99942 -5.47893
-2.8441 6.53115 -3.80335
-5.06392 -1.37884 17.164
2.7217 -4.8472 19
11.7995 -6.34613 -4.54817
-6.41699 0.921647 -5.93839
5.79055 6.36102 -4.47854
1.80606 -9.93361 -9.99951
6.21189 9.99948 -4.12713
-8.19928 -6.56907 9.9712
4.64705 -9.99955 -5.37148
11.7996 6.03502 -0.488553
-8.19939 -3.49755 4.94989
1.91703 -6.77008 -6.02116
-0.362881 6.67383 -17.1723
-8.1995 7.81225 2.14407
7.57235 4.06702 -10.0005
8.44644 -9.99933 -9.97194
7.07901 2.63385 5.39003
11.7995 6.35189 4.82431
1.43453 1.03622 19
-4.7876 -8.28184 9.99948
9.98513 6.01699 9.99944
7.24294 4.39866 18.9702
-2.3882 9.99924 4.39265
-4.04798 -7.97753 1.35121
4.13645 -6.59855 15.3007
8.37402 2.41033 15.3226
4.87047 -3.13035 5.16696
11.7995 0.114829 6.05227
5.44886 5.95633 -18.9999
3.87186 -6.74292 -10
2.95765 -6.17994 5.88502
-8.1995 3.27747 -9.95557
7.66606 -3.82137 -17.0971
-8.19954 -7.85194 -2.33457
9.77206 -9.99956 -0.940024
2.14815 6.99461 18.999
7.76169 3.64483 -18.9998
-1.31837 8.19531 5.13174
6.47714 -5.20563 -17.132
-6.45414 -7.38926 9.99938
0.707449 2.90611 19.0001
-8.19915 9.96699 -6.53256
11.7994 7.80582 -6.01679
2.59992 0.707755 -5.98329
1.15612 -7.8261 5.96681
-8.1995 -0.89262 -5.99474
11.7477 -9.94067 -9.99862
-3.45061 -7.96687 -9.99951
4.06011 -6.62403 -15.3177
11.7995 -1.28347 9.9616
-3.0924 8.33429 -3.47965
-8.19951 5.93664 -7.84315
-0.142198 -6.72795 -15.2155
9.87675 -2.16478 -5.60471
7.61869 5.76856 -1.69105
7.61473 5.75658 1.69168
11.7995 -7.83628 3.85903
11.7051 9.99958 9.95152
-4.19402 -9.99963 -0.872104
2.67914 6.94216 -11.8635
7.02281 -4.66928 13.8093
-6.59956 9.99954 -4.00427
4.61876 9.97606 -9.99942
-8.19954 -8.09534 5.62398
6.87547 5.04388 -3.2638
-4.33912 3.38895 11.9563
-4.99571 -1.64175 18.9991
4.99583 6.22507 17.116
-4.21313 -9.99942 0.697356
-8.19954 -9.97435 2.52211
-6.46792 4.31585 4.16963
-8.19951 -2.49622 -7.95525
11.7995 6.98311 2.90426
-8.19998 5.96583 1.05088
-8.19956 -8.55095 3.64508
-3.49866 2.46134 5.47824
-2.23315 -5.73879 -15.4812
11.7994 -6.01074 -0.7395
0.493744 -9.99947 9.96543
-1.17451 -6.34377 -18.9691
8.63607 -1.4355 -18.9998
3.94871 -2.33177 -19.0001
-4.76923 -2.42964 15.407
-2.1052 3.81091 4.63627
-0.252673 -9.99958 -7.77521
4.00555 6.64033 18.9705
4.03151 6.63802 11.8715
9.95983 -3.92111 -4.56571
-8.19949 -5.76731 8.31597
11.7998 0.927991 -9.97308
-4.6447 2.74045 17.1079
-4.42466 -3.20596 18.9721
-6.53583 6.6985 9.99946
-4.18258 3.64352 18.9654
-6.0903 -9.99963 -2.15981
11.7603 -4.61203 -3.85889
9.51723 -5.55239 2.31366
-6.0663 4.16627 -9.99956
11.7995 0.0513194 -7.94998
-5.02414 1.59045 11.9208
-1.89827 9.96661 -4.7212
-3.36868 -4.70952 18.9695
4.11422 7.91044 -5.53162
-0.509225 9.99896 -5.60877
9.97188 9.99955 -4.36879
-4.42774 6.13982 -9.99954
-1.65813 7.91897 -4.90834
-4.89805 0.8553 5.95501
10.1373 -2.28241 9.9996
0.69162 6.92351 -11.8802
6.33682 8.27131 3.95611
-3.80282 -9.99897 2.31413
0.610104 4.52133 5.91764
6.23754 -8.19876 4.05947
6.25311 -6.31244 4.03482
-8.14782 9.99968 -9.93853
1.86773 -7.01348 18.9713
1.73418 7.00423 -13.6336
8.17319 -9.9997 -4.39923
-3.97336 9.9995 -5.74757
11.7994 -8.08571 -7.9154
-6.32898 2.85282 -5.28956
6.69534 5.00722 -18.9683
8.49988 2.01928 -18.9994
-4.49276 4.17031 4.3157
-8.19948 -3.52164 -9.95335
11.7995 -2.68078 7.74157
8.80252 0.505403 15.4012
-1.2422 5.79962 -5.16336
-4.95284 1.85708 15.3907
8.4663 -9.99957 -6.39578
-8.19949 7.76014 5.97722
-8.19953 8.06292 0.0991456
-8.19951 8.43795 4.04187
11.7745 2.79452 -9.99943
0.155894 -0.822953 -19.0001
4.7104 -6.81242 5.25907
8.18226 -2.8854 13.7413
1.74305 9.9995 7.99312
-8.19944 8.34623 7.86681
-5.05837 -1.42054 13.6585
4.84 8.16918 5.17555
2.02692 -7.02599 -15.2378
9.79548 -5.74773 -1.7743
1.71284 -7.00177 11.9201
8.06 -3.1338 -18.9715
-3.98369 -5.82486 1.64964
5.90218 -5.67367 -15.3309
11.7998 5.93783 1.1862
-4.31079 -3.44354 17.1392
-3.43724 -5.25375 2.98279
9.30835 9.99962 2.94179
-1.20476 -6.32781 13.6411
9.92172 3.93448 -4.54683
-8.19971 5.46382 2.60404
-6.24344 9.9996 0.073885
3.66543 1.53672 5.81524
-2.76878 2.19575 -18.9998
11.7995 -0.663388 8.03304
-1.60767 -9.99942 9.96517
-0.619065 -8.28659 9.99956
-1.20306 -8.23092 -9.99952
-0.28218 9.99961 -7.86194
0.790315 -4.89681 18.9999
11.7995 -1.78223 -8.17145
0.703172 -3.85279 5.93265
10.3234 -0.0282855 9.99965
-1.89514 -5.95013 18.965
2.2675 6.97892 -18.9995
-8.1676 9.99929 -0.97009
2.47316 -1.09003 -5.97895
-0.867545 -4.97229 5.38976
-3.80158 -9.9994 -2.33387
-4.23299 3.57487 -15.3565
0.843915 -6.95551 13.6704
8.28222 4.62797 -3.83945
-2.96427 -5.14897 17.1325
9.76374 5.31298 -2.81611
1.66438 9.99965 -7.94868
-4.91946 1.91574 18.9998
8.54938 1.90112 -15.2927
-2.78382 -5.26611 -18.9997
-8.16626 -4.80882 9.99955
4.50938 -0.743399 -5.9852
0.997883 9.97323 -9.99945
8.81586 0.892027 -10.0002
6.60131 -9.99967 3.68767
11.7683 -9.99933 -8.29055
-8.19955 -8.08529 -0.338589
-5.852 5.34025 2.75673
-0.590707 -6.58557 -17.017
11.7997 -4.30102 4.26616
0.308517 6.83066 18.9994
-3.6488 4.41062 17.078
8.32296 2.69762 -9.99986
-8.1749 1.49685 -9.9996
6.56307 -9.99966 -6.11572
9.76586 5.9474 -0.832615
-6.0484 -2.60405 5.39868
-5.9479 -5.29378 2.85218
-1.27493 0.750426 -19
-8.19948 -5.22681 -8.19536
7.40662 -4.20228 -15.3209
0.959788 -5.72788 5.95172
-1.37212 -6.25699 -13.7607
11.7994 -8.35945 9.97059
-3.71155 -9.99964 5.96393
6.40192 -5.2758 17.0743
8.03693 -3.21619 -13.6334
11.7704 8.37771 9.99926
-1.86873 -6.03868 -10.0002
11.7395 -0.817537 -9.99948
11.7996 -1.5229 5.83174
-5.19085 -0.122498 -18.9707
5.38092 -5.92225 -4.81018
1.96993 1.2043 6.01253
8.32834 -9.99965 4.20865
4.70758 9.96182 -5.23962
11.7995 4.45009 4.12676
8.69568 -1.20529 -13.5886
-6.02234 -9.9996 1.95464
1.96512 4.78493 -6.02598
7.52817 -9.99948 8.10816
3.8584 6.56107 5.63365
-6.03703 5.92654 -1.044
-1.55613 6.14546 18.9723
-0.501986 -9.99851 -5.61333
7.65127 9.99907 1.53628
1.81463 -9.9994 -8.03365
11.7797 0.825267 9.99949
-1.58918 -9.99972 5.01672
11.7996 9.96114 -6.80441
5.14804 -3.93438 -18.9999
-2.41305 5.59603 15.3701
2.10992 -9.99997 6.04812
-6.69411 -0.621453 -9.99971
11.7995 8.02268 -0.148556
8.71352 -1.01725 18.9997
11.7995 6.57848 9.96593
-0.757834 -6.51371 -12.0326
-0.991339 9.97033 -9.99929
1.06514 9.99951 9.98216
-5.20402 -0.448318 11.8778
5.7755 5.75518 18.9706
9.87999 2.06201 -5.65279
7.76321 -8.00884 0.708336
11.7686 0.510944 -5.97611
11.7995 -7.77516 2.08051
3.51146 9.9996 -8.24002
11.7644 -8.24552 -9.99967
11.7995 8.23823 -9.9724
5.28684 -6.08217 13.5342
5.79409 9.99958 -8.2806
3.73584 -4.40107 -5.69924
11.7997 -9.96265 2.74883
-4.8174 4.98647 -3.33688
-8.19955 9.9492 -4.74878
-2.06073 6.43693 4.58822
-4.75284 -2.46768 11.8639
1.50625 -9.99962 8.01942
8.87116 -0.618238 -10.0001
3.57367 4.85725 18.9999
0.463653 -1.69522 -5.86057
-8.19957 5.66513 -5.67777
-2.9727 5.14178 -11.8149
10.1053 -9.96369 -9.99912
-5.71045 2.90105 5.2693
11.7998 2.0869 -5.6919
-8.19949 9.97182 4.93638
-8.17314 -0.231191 5.99932
-6.39268 4.26449 -4.21766
11.7993 -5.52387 -2.51025
-4.25401 3.54379 -11.8239
7.84802 -9.99938 0.377716
-6.31096 -2.90691 -5.25911
0.237988 8.43563 -9.99958
-8.1681 -9.99944 -1.37029
11.7995 -6.73965 -6.49072
1.36462 -5.02751 -19
-2.12802 -5.80585 -17.3371
2.56845 -0.470766 5.99005
-3.62631 4.43615 -17.1581
-0.693227 -6.77857 5.46735
1.94544 -1.163 -19
-1.39331 -3.17973 5.11928
-6.65932 -0.172467 9.9996
5.42209 -3.70856 -4.78003
-3.01379 9.9995 -3.68206
-5.95029 -7.82481 -9.99943
-3.0126 9.96587 -9.99925
7.77004 9.99954 -7.91231
7.09124 -4.57832 -18.9703
7.13749 9.9994 9.97428
6.06638 7.93847 9.99945
11.7994 5.96616 -7.8295
-4.85005 -6.10416 9.99967
-5.19819 -0.840311 -9.99972
-3.21927 -6.63312 -3.28957
-5.19715 -0.335101 15.4057
9.95426 9.99947 -6.35802
-2.17717 -5.77296 11.8601
7.88082 -3.45305 -4.89958
5.12917 -6.16095 -13.595
9.41831 9.99935 9.97482
5.8454 6.41997 4.42931
-8.19952 0.271293 9.95645
3.83976 -6.67943 18.9997
5.85971 -1.26659 5.86313
-3.80707 -4.20677 -11.8991
-8.19951 -6.66209 6.7651
6.10573 -5.53164 15.3495
-4.64632 2.74331 -17.1694
-8.19954 -6.57342 -4.27167
-3.28032 4.81447 13.6109
-4.49005 -3.06888 -17.1706
-3.02345 5.03215 18.9998
5.96763 4.1315 -4.37683
8.79323 -0.49481 17.1299
9.58531 -9.99961 -2.98623
-6.28396 -5.52162 -2.35175
-0.725678 8.32934 9.99953
-1.58944 -1.26467 -19
3.82772 -9.99942 5.71592
-6.35198 -0.733704 5.98147
-6.2195 -4.79753 9.99952
10.1206 2.53889 -9.99961
8.11238 -2.98589 19
-8.19926 6.74143 -9.96242
-6.3961 -3.20985 -9.99971
-5.1796 0.775371 10.0303
6.63871 1.6349 -19
-4.87892 -2.25329 -10.0004
-1.29715 6.29465 -11.8578
5.92164 -7.85917 9.9994
7.00274 6.97528 -3.00117
2.98366 8.26416 5.88518
-5.17044 0.720258 17.1441
10.104 9.99947 8.19543
-4.78305 -9.99951 -9.96775
5.95119 4.20745 4.3312
11.7998 5.35087 2.72505
-4.69377 2.65027 -13.5803
6.13567 -5.51363 -11.8587
11.7997 -9.94624 9.94306
8.3504 6.20522 -9.99957
-8.19929 -8.417 -9.96622
4.05166 -2.38404 -5.56582
-4.24995 -9.99948 -7.70122
2.37508 9.99978 6.03739
8.00488 3.26844 13.545
7.00287 -4.68762 18.9758
5.896 5.67793 11.8529
11.7996 9.9707 4.66438
9.9086 -0.130876 -5.99724
-0.0101836 8.0238 -5.72287
-8.19979 -3.75746 -4.76863
6.64576 -4.79979 -3.64044
3.54598 -0.324387 -19.0001
-8.19944 1.61689 5.85298
-8.19946 -8.03963 7.96935
-5.16561 0.805353 -17.1676
6.31411 -2.31099 -19
-1.42681 6.22942 13.7175
7.23827 -7.6908 2.53644
-8.19952 1.90357 -7.93744
7.50216 -5.66372 -2.01433
0.717127 -6.90812 10.0357
4.60536 6.42485 -11.8577
6.0667 9.99952 8.31169
-2.35799 5.63536 -10.0237
-5.19501 -0.409566 -11.8521
5.08834 3.72634 18.9998
7.48171 -9.99928 2.12413
9.60504 -7.72448 -9.99945
-8.19966 -6.02715 0.596402
8.56773 1.86869 -11.8197
11.7995 9.95874 8.19461
-8.19943 0.680601 -6.02404
10.0149 0.828958 5.96117
-4.16262 9.99949 0.975882
6.59632 2.40715 18.9999
-3.80418 9.99952 8.17019
8.20785 0.884828 -5.94991
6.56629 -5.12365 11.9629
7.6288 -9.99947 -8.14647
-3.91519 -4.1449 10.0005
6.44612 5.23283 -10.0242
-3.77984 4.28774 -10
-8.19964 -2.31757 -5.59465
8.43864 -2.26043 -17.2326
8.03923 8.25864 9.99951
-1.77385 3.68793 -4.81953
7.4945 9.97475 -1.88678
11.7995 -6.17594 5.00856
4.73648 -5.0414 5.26274
11.7995 -4.69999 8.31489
11.7994 8.39954 -4.05327
4.72823 -9.99946 9.95511
2.0309 -7.01748 15.3808
8.11147 4.09489 4.39891
8.19311 2.85943 -13.5619
-3.72277 -4.31962 11.8827
-2.79174 -5.28231 10.0339
3.18275 -6.87607 -13.5818
3.50544 4.10581 -5.78539
1.72169 4.85339 19
7.20364 -9.9995 -2.71809
4.09487 9.99921 5.601
6.71037 -6.60033 -3.44006
6.12886 -9.9696 -4.18082
7.7434 8.03462 0.862194
-6.33743 -4.38724 -4.0997
-5.93061 9.99953 2.12371
6.78932 -4.92377 -13.6202
-4.72385 2.57222 10.0287
9.83729 -9.99933 -7.8296
-1.96716 -3.29873 -18.9999
-8.19952 -0.316377 -8.01401
-3.43908 -4.64109 -17.1508
-4.54461 6.25074 9.99951
5.27143 -0.590903 -19.0001
7.85905 9.9993 -0.204923
2.00756 -5.02587 -6.02422
-8.16656 9.99929 1.01703
-3.92002 7.77141 -1.86892
-2.03359 8.01071 -9.99946
-3.64628 5.40226 2.64947
-8.19952 0.709615 7.88167
-1.92998 -9.96969 -4.73055
-3.66128 4.40096 -13.5873
4.87903 3.12903 -5.14994
11.7995 -7.94383 -3.4799
6.44984 9.99968 -6.23659
1.94799 2.80342 -6.0235
8.28214 2.64142 18.9997
11.7995 7.86072 -2.08462
11.7691 -9.99922 -0.763398
-8.19949 5.82548 9.97034
9.01182 -4.93732 -3.41043
2.45967 -7.06064 -10.0002
11.7994 -4.87692 -6.17992
1.93329 7.01813 11.8728
-8.16755 -9.99945 0.674411
-8.19952 -6.84876 3.60388
-4.19704 -7.93615 -0.540665
4.42679 -6.50408 -11.838
8.42179 -2.30034 17.2032
4.98711 6.23058 13.6065
9.92443 7.98476 9.9994
-2.60693 -8.17794 -4.06931
-2.14244 -5.79607 15.382
-4.9507 1.87615 -18.9727
11.7997 4.58344 9.96798
10.0067 -4.66114 3.79501
11.7994 3.11119 5.194
-8.19952 3.70103 6.64759
8.01165 3.09613 -5.16544
-3.61968 9.99915 2.69666
3.10378 6.88244 17.1228
-6.25693 -9.99964 -0.114203
-8.16697 -9.99958 6.57445
-2.21181 9.99955 -8.41229
7.67617 -7.84455 -1.2342
2.55928 -6.95733 -11.9021
9.78404 -5.09814 -9.99943
2.91656 9.99957 -5.95033
-8.19921 -4.72642 -3.77018
-8.19957 6.59027 4.13173
-0.102298 -6.72846 18.9996
3.65386 6.75506 -13.6292
9.44559 2.61834 5.39809
8.29537 9.95476 -9.99964
-5.18394 0.65095 -13.5974
0.206268 0.56269 5.99518
-3.82169 -4.18102 -15.3857
-4.69434 -1.92045 -5.71131
11.7994 7.84471 8.10095
-2.9596 2.7087 -5.34857
11.7667 -9.99912 -6.49911
8.42879 -2.2767 -15.3728
-4.31862 -3.41774 13.6405
-2.74522 2.45077 18.9998
3.31395 -9.94619 -9.99944
-2.77005 -9.9995 8.27877
11.7995 -9.97399 8.25466
-3.31314 -1.21596 18.9998
3.73327 -2.03064 5.69713
8.14339 -6.19293 -9.99951
11.7997 -2.71476 -9.96674
-3.94705 8.0122 -9.99936
2.7223 9.93891 -9.99949
11.7995 -5.94993 -8.19869
0.646259 9.99932 5.96033
4.62305 6.41181 -15.4115
-4.19021 6.0249 -0.604397
-4.22028 9.99945 -0.645735
-0.500315 -8.50146 5.56157
11.7996 6.48074 -9.9705
11.7995 -7.99291 0.207762
0.63083 -8.21601 -5.91545
-8.19927 -9.96533 8.32622
11.7994 6.64172 -3.94475
-0.796036 1.25906 19
4.91733 2.90894 5.24352
3.60288 6.77254 -17.1625
-0.258663 -2.64619 19.0001
-8.19957 7.41859 -3.92744
11.7995 -2.9337 -6.83859
-6.04866 8.00439 -9.99933
5.15039 -6.14837 11.6061
6.59117 0.492506 18.9999
-4.62116 9.99955 4.29246
-6.05966 9.99957 5.99065
6.64138 5.05671 17.1368
1.85625 3.08673 6.0174
0.572966 -0.756761 19.0001
-2.36569 -9.99962 -6.54166
6.49397 9.95946 -9.9994
11.7995 1.37375 7.99094
-2.88473 4.73825 3.77562
7.16895 -5.33418 2.78779
-2.68119 5.4801 10.0003
-3.1079 -5.00392 -13.7185
9.60122 -4.25456 9.99954
11.7991 -5.38475 2.77766
6.22843 5.48302 9.99994
-4.36975 -3.31788 -13.6362
2.83934 9.99951 9.9697
4.81932 -6.31405 17.0814
-2.16967 5.7804 -13.6064
10.1262 -9.99939 9.96067
6.85625 -1.3298 18.9999
-2.60108 -8.54007 9.99941
-8.19952 -4.01705 -6.74539
2.10173 -3.16706 -19.0001
4.06913 4.70899 -18.9998
-2.15712 5.78861 -17.1776
8.58725 -1.71547 15.4031
8.42686 -9.99941 9.96421
7.772 -8.20094 9.9995
2.18266 -2.98718 -6.01605
11.7996 -8.3015 -5.53665
-5.17317 0.737651 13.6841
-3.27496 0.248534 -18.9998
5.52404 5.93361 -17.1684
1.65766 7.00456 -17.1479
8.68859 1.23994 13.555
-8.1627 9.99972 6.63478
11.7995 8.31305 3.97639
0.197991 2.07518 5.78412
11.7995 8.21456 6.00675
9.59223 -9.99944 7.70945
-8.14307 9.92119 9.99982
0.623936 -3.86886 -5.91091
-8.10299 -9.99961 9.9548
5.66855 -5.82275 -18.9992
2.55451 1.22181 -19
4.06142 -6.62275 -18.9682
11.758 9.99915 2.68442
8.77019 -0.990785 10.0002
10.1482 2.13669 9.99958
-8.19962 2.2404 -5.62874
0.236294 4.15389 -5.80022
-4.80344 -2.3247 -15.3821
5.87127 5.69438 15.3395
-8.19955 -5.84875 5.14201
-8.19944 -8.36807 9.9708
7.84958 -6.01003 -0.346102
7.20691 -7.94804 -9.99937
-2.95472 5.15255 -15.372
7.7058 -5.85298 1.31947
-3.39985 -7.70495 2.99446
-4.71711 2.67121 -10.0001
-1.74743 -9.99962 6.73716
-8.15576 -4.774 3.64509
6.04374 -5.64038 9.99981
-8.1696 -1.45856 9.99939
10.1307 9.99952 4.57778
11.7692 9.9992 0.643408
-1.85405 -6.22731 -4.75633
3.17528 6.85304 9.99987
8.4645 2.19698 11.8029
8.14201 9.99949 8.19048
4.81069 -0.822276 19.0001
5.79462 -7.98972 -4.48129
-4.99923 1.71512 -15.3693
2.65715 -9.99948 9.96079
-6.12311 -9.99938 9.97124
-0.932327 -2.64642 -5.37688
3.12589 -6.88519 -17.0869
4.74394 -8.44433 5.23555
-3.29469 4.79861 11.73
0.844271 -6.95589 -13.5285
-8.19864 -9.96843 -7.70653
-8.16994 9.99964 -8.26949
-5.06373 -1.38119 -13.6131
2.66842 6.94208 -15.3857
8.78486 -0.759261 13.6791
3.13745 -6.88101 13.6818
-6.43284 5.37378 -2.65647
7.37632 4.23856 15.3152
9.78736 -9.99954 5.5968
9.8335 -5.99235 0.441333
8.16572 -1.39219 -5.83117
-5.18929 0.0961007 18.9997
-8.19899 8.39067 -9.96867
-8.19952 1.91202 9.96575
6.25243 -2.15221 -5.63102
8.73872 1.03979 -17.038
-3.86922 9.99901 -2.16626
-8.15201 -9.9978 -9.89518
11.7591 9.99935 6.48032
-4.57205 2.89727 13.7136
-8.16762 9.99939 2.79806
-4.8068 -4.99691 -3.32813
0.48104 6.88719 -18.9711
-8.19947 4.50248 4.06287
1.02564 6.96745 17.0746
11.7995 -7.84521 -1.6977
6.34821 5.32674 -11.8566
9.84595 4.90019 -9.9995
-8.19961 7.95266 -1.99391
-8.19946 4.94118 -9.95703
-8.19963 6.03422 -0.580631
-0.298955 9.99953 7.98611
7.7114 3.74867 -15.3422
3.46286 3.4008 5.80052
-1.35778 6.22699 -19
8.07745 9.99965 4.64289
-4.48644 -1.0986 5.90483
11.7996 9.96854 -5.09288
-6.2566 5.95554 0.828767
-0.324305 6.69048 -13.6309
0.303339 -9.99981 5.87786
-6.61934 1.36869 5.8371
11.7995 3.95871 -6.67446
-8.19955 -3.62001 8.40115
-3.05384 7.90647 9.99936
5.46281 9.99962 6.62542
7.00984 8.70763 -3.0032
-8.1564 9.99961 8.36781
0.611905 1.52985 -5.89652
2.55183 -1.03717 19.0001
-8.1995 6.5995 8.01428
11.7994 -8.073 5.90005
10.0701 9.95973 -9.99968
-0.210161 -6.71355 15.3916
11.7997 -9.96654 1.00197
-6.55355 2.01838 -9.99963
11.7737 2.81441 9.99943
-8.19 -1.74421 5.75969
-1.73688 3.96074 -18.9999
-8.1995 -8.3908 -4.3049
-4.06195 -3.82102 -18.9992
-3.98814 -3.03047 5.20099
0.667825 6.226 -5.93325
-1.36787 3.53571 18.9999
7.99448 -6.26863 9.99953
-5.15014 -1.13873 10.0006
11.7995 3.95441 -8.40221
7.80155 6.06337 0.0560375
-4.13497 3.70232 -18.9714
-6.1521 -9.99957 -6.22596
-4.67277 -9.99944 7.88372
-3.11191 -9.99977 -3.55378
-3.74169 -8.0902 -2.28952
3.63384 -6.34122 -5.73593
11.7995 3.30508 7.78452
-2.93243 5.15204 -18.9987
-1.09198 -8.01141 -5.25196
11.7988 -2.92468 5.31666
7.08494 4.59309 -13.6146
6.61241 -9.99938 -9.96904
-3.29737 -1.79391 -18.9999
7.185 7.50492 2.65661
11.799 -3.12379 -5.18301
11.7998 1.78558 5.79608
8.11632 0.934049 5.93883
-0.962737 5.00671 5.33843
-8.19946 -8.0912 -6.26307
4.6027 8.28375 -9.99956
11.7646 -4.5881 -9.99934
8.74057 0.82952 18.9998
-5.98826 -9.99957 5.92644
4.9169 -6.26548 -17.1076
10.0429 -3.11116 5.14487
-0.76852 6.51188 17.139
3.69181 2.03756 -5.70976
1.21837 -9.99983 -6.03218
-0.541577 -4.64799 -18.9999
-8.19963 -5.56389 -2.39507
3.98357 6.64792 15.3485
-8.16791 -9.99942 4.79196
-5.01571 1.66335 -11.8126
9.78668 -0.970356 5.92549
11.7994 -8.06874 8.01328
2.61465 -8.31945 -5.94253
7.10505 4.56811 -17.1382
-0.766367 2.45973 -5.48735
-8.16507 -5.63872 2.11028
-4.17653 -3.76871 -10.0002
0.86566 -6.96349 -11.6835
-8.19967 4.87424 -3.60634
9.69812 9.99946 -8.17664
-8.16934 -3.10963 9.99953
6.10694 -4.34984 4.1855
-1.29167 6.29262 -15.3892
-0.175661 6.58869 5.66829
5.59652 -9.99954 -7.86876
3.59011 -9.99963 7.95411
4.40071 -8.06539 -5.43423
7.44586 -9.99967 6.06761
8.03152 6.27311 9.9996
-0.737653 9.97822 9.99941
5.59563 -5.87853 18.9639
8.26504 2.79726 9.99983
7.7129 -3.7472 15.538
0.313797 -9.95238 -9.99947
11.7995 6.47953 6.73764
2.9237 6.36641 -5.89369
11.7686 -1.2127 -5.87403
8.79937 -0.309439 -15.303
-3.82888 9.99961 6.15193
0.117092 -6.23782 -5.75517
4.62856 4.971 5.31549
5.7978 9.99955 4.56427
1.67932 -2.92043 19.0001
11.7997 -3.16166 9.96298
-4.14709 5.87368 1.18338
8.7771 0.972774 10
8.24347 -4.22859 4.26257
8.10139 9.99964 -3.79991
-3.97118 -5.77712 -1.7433
0.860172 -0.906567 5.95857
-2.04674 9.99958 7.31574
11.7473 9.94036 -9.99753
-2.41964 -6.23891 4.28375
5.00608 9.99946 9.97029
-0.250357 -2.12732 5.66365
2.05018 8.10062 -6.02185
-8.19954 7.8391 -5.90514
0.507076 -6.87632 -18.9991
2.89281 2.82157 18.9999
-4.46555 3.74293 -4.69568
-6.24353 -9.99942 -8.19361
-4.36399 -3.67136 -4.74285
9.72665 -9.99953 1.21689
6.36285 5.31218 -15.4068
3.84847 -8.40507 9.9995
-8.15412 3.16019 5.09961
11.7997 -9.96935 -2.53939
0.133516 4.74453 -19
-1.19835 -6.3314 17.1549
-3.08864 -9.96615 -9.99946
-8.19951 4.72805 8.18312
-6.52946 2.36263 9.99975
-3.18757 -6.99872 9.99965
3.71642 -2.73765 19.0001
-2.31697 -2.85084 19
0.146064 -2.79969 -19
-2.17919 -3.9354 -4.54176
7.41394 4.19774 10.0235
11.7995 -4.53623 6.37391
-2.184 -8.14103 4.49818
1.59652 -8.50971 9.99964
-1.09842 0.761954 -5.98369
2.97566 6.90318 13.5874
-8.1995 -5.93387 -6.13788
6.79408 -4.96727 -9.99981
-6.61821 -9.9996 3.86389
6.90979 5.17148 3.14007
-8.1996 5.67521 -2.14803
11.7995 8.22369 1.70461
11.7997 9.9664 -1.28531
8.61284 1.61217 17.1747
4.3973 -0.33134 5.9932
-2.868 8.38493 3.77252
-8.19946 -7.51382 -8.05813
-8.1995 -1.80112 -9.96482
-2.48467 -4.21491 4.26951
-6.4781 -4.11345 4.37315
5.73938 8.20654 -4.53187
9.40116 5.25981 2.91043
3.05334 -9.99908 -5.9374
-3.97049 -9.9994 9.965
5.21516 6.18015 -9.9999
-6.50911 9.99955 3.97974
9.4756 9.99958 6.37943
5.38962 -9.99933 4.90463
-8.19952 5.62017 6.02513
9.75051 -7.97043 9.99934
3.52095 -6.7932 11.9402
6.71352 4.99216 13.5734
5.95636 0.880435 5.95152
5.55696 3.35664 -18.9998
-3.91796 4.12667 10.0007
7.50911 -4.06746 -11.8712
-4.66325 -4.34891 4.13141
8.79924 -0.683769 -17.1248
11.7656 4.75083 -3.65301
-3.02593 -4.88523 -3.56387
4.82633 1.66318 18.9999
11.7997 -9.97102 -4.34829
7.69202 7.90126 -1.13805
-4.77479 -2.40944 -11.8489
2.11919 5.02214 -19
-1.01627 2.90774 5.30378
0.781154 0.951297 -19
4.94532 -8.18399 -9.9995
-8.15735 -6.71916 -9.99958
8.79208 -0.25738 -11.8383
7.31865 9.99964 6.36816
-1.31913 -9.99948 -9.96501
-2.82307 -2.39844 -5.50078
0.806001 -0.161328 -5.99213
9.6561 9.9995 -2.40178
-0.797336 -4.73392 -5.42979
3.08301 -8.11929 5.8618
-8.19954 2.5856 8.11696
-2.21401 -9.99951 -8.31481
8.79334 0.152549 11.8198
-6.10869 4.56298 9.9996
-8.17474 9.99928 -2.87233
-0.509496 2.58689 -19
11.7621 -4.91046 9.99934
3.36054 0.68654 19
4.93994 -9.99942 -9.96035
-8.19949 3.64634 -4.84996
1.84741 6.60538 6.01509
-5.90998 9.99945 7.94163
-4.25895 -5.99695 -0.0272203
2.6124 -6.95131 10.0308
9.65659 4.19667 9.99955
-4.43611 9.99943 9.97132
-4.90094 -2.01905 -18.9654
-8.1589 -9.9994 -3.34276
9.8387 -9.9995 3.21149
-8.19957 -4.65669 6.63703
11.7668 9.99916 -8.41613
11.7994 7.95595 -7.99588
-2.83264 -9.96382 3.79487
7.56361 -3.98763 17.3744
8.77562 0.801643 -13.5827
-0.481861 -9.99954 8.11748
3.77839 8.43275 9.99956
11.7994 -6.37321 7.35408
0.338591 6.89952 10
-4.22125 9.99951 -7.85153
4.80992 6.37923 9.99977
-8.19963 -2.81985 6.95201
7.6323 -0.753665 5.98794
-4.16948 -9.99965 -5.3763
11.7638 -9.99922 6.5058
1.95 7.01394 15.3323
8.21997 9.99963 -5.79207
6.50883 2.08345 -5.66213
-1.32358 -0.648896 5.99573
11.7664 -5.8979 1.09816
8.16211 2.92175 -17.1326
9.94035 -6.05076 9.9994
6.98362 7.81962 -9.99948
-6.04367 9.99951 -5.98995
-2.9896 -5.12483 13.6389
-6.15208 -5.99157 -0.695293
8.47717 -2.36791 5.51302
-1.07101 -4.41979 18.9999
-1.94775 5.9106 11.9545
0.802851 -6.94957 17.1472
11.765 9.99915 -3.09184
-2.79366 4.65227 -3.86459
-2.64229 -1.88748 5.71544
4.61675 9.99968 -6.93507
-0.931402 9.99891 5.42186
11.7664 -9.99918 4.5898
-0.898692 6.51307 -10.0001
-8.19948 8.00016 9.97041
-4.86764 9.99952 -3.96728
-3.13873 0.392312 5.99486
2.92196 -6.90621 17.141
-6.38155 -0.911268 -5.94368
-8.19955 3.91984 -7.43088
-3.72287 -4.32197 15.3818
11.7996 -6.65851 9.9514
7.36564 -4.3374 10.0006
11.7996 5.67683 -2.09643
-8.19967 -5.99923 -0.930327
-2.22803 9.99967 -6.65157
-0.348819 6.67768 15.3319
-1.21047 -0.872651 -5.95889
-8.16212 -5.07315 -9.99948
-3.76328 5.61702 -2.25805
5.82731 -2.90383 19
10.0851 -9.99951 -5.32453
1.73561 7.10332 9.99985
-3.99526 3.92348 15.3092
10.0762 -2.76259 -9.99956
-6.19749 9.99944 -7.96462
11.7996 -3.9953 -8.22559
11.7996 5.42521 8.25759
7.01396 -8.23478 -2.97225
7.73861 -9.99971 -1.19594
-3.04126 -0.736882 -5.98417
-4.67994 0.146667 -5.99687
11.7997 4.69049 -9.97282
9.82628 5.91067 1.1138
1.99077 -2.47498 6.02344
-2.46383 9.99949 9.95958
3.41309 -4.76722 -19
11.7993 3.60767 -4.84544
0.663174 6.92485 -15.3923
-6.13471 -5.38679 -9.99961
-1.39332 -0.791482 19
-3.28778 6.81301 3.17594
-6.50559 -9.99941 -9.97685
3.79329 -9.99954 -7.81873
0.611056 6.94092 -10
7.88969 3.45573 17.15
4.6977 1.40641 -18.9999
-4.43607 -6.2963 -9.99971
-8.19951 -0.0224457 -9.96111
-4.64006 -2.85844 10
8.28414 -2.77968 9.99997
-8.19958 -7.91363 1.67837
9.83739 9.99952 1.24989
7.43326 4.17432 11.8238
1.13687 -6.97082 -17.023
-0.19993 6.71165 11.93
8.80157 0.34519 -18.9668
-1.34155 6.31385 10.0009
7.75364 -3.67997 11.9379
3.38309 3.01513 -18.9999
3.82995 9.9995 7.96412
7.85074 -3.65107 -10.0001
2.32498 -6.9971 -18.9684
-2.84448 0.96026 -5.93653
8.47389 -2.10586 -10.0322
-8.19943 7.96079 -7.91387
-6.4749 -9.99943 7.94151
3.5759 6.82525 -9.99989
8.45297 -2.22333 -11.8701
-0.13175 4.85604 18.9999
-0.328809 -6.68349 11.8527
-1.67993 1.29608 5.85604
-3.08945 -5.03733 -10.0317
-5.19978 -0.325977 -15.3765
4.99203 0.868614 -5.96015
5.55704 -9.99961 7.45378
-4.81334 9.96886 -9.99936
0.730293 8.27241 5.92596
-6.47336 -2.60909 9.99963
5.48667 -6.02654 -10.0006
0.767497 6.95036 13.6549
-5.20811 0.794829 -9.9995
-1.20861 -6.36605 9.99982
6.57908 -0.237027 -5.99433
-3.90616 8.03428 1.87768
-8.1671 3.84435 9.9996
-3.01359 0.664573 18.9998
8.56689 -1.87438 11.9197
9.57836 7.76012 -9.99945
4.60067 -4.47192 19
-6.09103 9.99959 -2.01391
11.7995 4.64298 6.26232
4.38826 -6.56107 10.0005
2.97929 -4.19432 5.88149
-5.88072 -9.9996 -4.09531
-6.52387 9.99945 -9.96832
-5.09779 -1.1788 -17.1553
-6.15329 -5.90449 1.05808
7.02339 -0.282403 -18.9999
9.84769 9.99954 -0.616501
-6.41349 9.9995 9.96874
-0.406392 -6.67322 -10.0321
7.00984 9.99943 3.04735
10.0685 4.14657 4.33918
1.40356 3.04178 -19
1.00897 -7.06477 -10
-2.40728 -5.60069 -11.9334
11.7548 -6.49022 -9.9993
2.11476 7.08143 -9.99998
6.85296 -2.89492 5.25396
