-7.690234 2.861595 -9.982583 -0.185021 0.003021 -0.978976 
-2.089451 -1.470419 5.812599 -0.003361 0.245748 -0.969301 
7.353356 3.406640 4.936247 0.004022 -0.568333 -0.822677 
-8.220365 -7.940406 8.935883 -0.999611 -0.001384 -0.003817 
11.223055 -2.273303 -5.549937 0.033231 0.422415 0.905636 
6.265122 -7.394017 -4.005818 -0.747782 0.007476 0.663359 
-3.887632 -10.011275 -8.006921 0.001882 -0.999844 0.015200 
6.423222 -10.010649 8.182337 0.003120 -0.999992 -0.001642 
-2.478308 4.477241 4.304492 0.545866 -0.255735 -0.787616 
-8.233594 8.464866 8.252335 -0.999725 -0.009405 -0.010226 
-3.939369 10.012882 -3.795782 0.001508 0.999978 0.001097 
9.935501 1.862038 5.695659 -0.002348 -0.305172 -0.951765 
9.096168 -9.936371 -9.733565 0.011838 -0.897237 -0.419842 
7.845846 -10.002935 -6.902608 0.001834 -0.999996 0.002043 
3.982128 0.862973 5.952818 -0.005717 -0.154315 -0.987177 
3.465183 4.694478 19.005293 -0.001294 -0.003398 0.999986 
-7.638421 -9.991063 4.919828 -0.121957 -0.992024 0.012640 
0.362732 6.844493 10.725330 -0.203500 0.975340 0.065350 
-8.206063 -7.893116 -3.572891 -0.999969 -0.004081 -0.005396 
6.790115 6.374505 9.994415 0.004378 0.008756 0.999764 
11.806175 -8.115972 -6.030290 0.999919 0.007663 0.009548 
6.352850 5.324499 -14.280056 0.652079 0.757955 -0.000540 
4.304969 10.013495 -8.345979 0.007212 0.999967 0.003066 
11.816628 0.694897 9.231222 0.997615 0.003376 0.054316 
9.733099 -4.845755 3.520085 -0.007393 0.817281 -0.575909 
10.213970 7.095252 -10.012588 -0.016348 -0.008146 -0.999831 
-4.582654 2.869285 -13.432875 -0.908980 0.416639 0.004417 
-2.814835 5.290605 -16.440847 -0.654110 0.755915 0.009606 
11.810169 8.127190 -5.458376 0.999737 -0.022382 0.002190 
-2.025815 -10.006727 7.065187 -0.006438 -0.999951 -0.003131 
4.464102 3.379503 19.006054 -0.002045 0.002492 0.999995 
11.816853 -8.622276 -2.525341 0.999918 0.010329 0.005685 
-2.474451 9.623204 -4.215166 0.728689 0.195555 0.651903 
-2.932525 6.292095 -3.688688 0.785473 0.007391 0.618628 
-7.498549 10.012659 3.151441 -0.051845 0.997542 0.004057 
8.666579 -1.368964 -13.040747 0.980209 -0.197891 -0.001609 
-6.451630 -10.009661 1.326148 0.013179 -0.999882 0.001085 
11.820017 2.581114 9.193360 0.998297 -0.003553 0.057778 
-4.862408 2.120608 -11.748608 -0.951855 0.305999 0.013202 
-8.214938 -3.149308 8.951368 -0.999007 0.006569 0.038463 
-0.284698 -4.561601 -5.624012 0.317526 -0.012536 0.948058 
8.471942 -10.004103 -5.365196 -0.000564 -0.999990 0.000418 
-8.212397 0.029868 8.186812 -0.999937 -0.009818 -0.002517 
-7.255243 8.161098 -10.035720 -0.024604 0.015578 -0.999048 
-8.220425 6.283155 2.330696 -0.998879 -0.032174 -0.014711 
11.821917 5.280244 -8.728066 0.999815 0.000180 0.013818 
-0.315869 0.919504 -5.941120 0.001685 -0.177974 0.983322 
-6.399404 4.048133 10.010771 0.022143 -0.008444 0.999678 
-4.665842 2.685590 13.468186 -0.916340 0.400139 0.000609 
-8.210136 7.754483 -0.256287 -0.999980 0.001836 -0.004373 
-1.658074 6.089909 15.766699 -0.496183 0.868063 0.000424 
8.784345 0.774374 -10.410405 0.955485 0.101155 -0.242619 
-1.629285 -9.466049 -4.928596 0.527121 -0.092677 0.844603 
0.420453 -6.479641 -19.010557 -0.010689 -0.140556 -0.988565 
-8.213551 -2.208452 -6.316922 -0.997524 0.044701 0.047063 
11.804451 -3.541383 -7.246706 0.999986 -0.002159 -0.001899 
2.967079 -5.867073 5.886047 -0.177608 -0.006278 -0.984073 
-5.097857 8.222696 10.009621 -0.002144 -0.011057 0.999900 
6.590994 -3.059106 19.012648 -0.019757 0.013885 0.999704 
-0.394343 -9.919652 9.858432 -0.016735 -0.740384 0.582965 
11.808700 -8.302968 3.266139 0.999782 0.016830 -0.002437 
8.753698 -10.016330 8.092591 0.000009 -0.999935 -0.005755 
10.576790 -10.021168 -3.739048 -0.010177 -0.999757 -0.018576 
11.809546 -0.075300 7.536454 0.999966 0.003915 0.006878 
-8.218286 -8.595951 -0.458011 -0.999877 0.000169 -0.009491 
-6.145282 4.559965 3.913292 -0.000541 -0.754722 -0.655763 
0.186396 2.932596 19.002439 0.000598 0.001588 0.999998 
-3.419881 0.447976 -5.999677 -0.005986 -0.063014 0.997202 
7.651974 -3.849044 15.717614 0.836092 -0.548349 -0.004793 
9.842957 -10.012968 -7.782181 -0.008360 -0.999914 0.007719 
-3.148235 2.550443 -5.430353 -0.012790 -0.417125 0.908449 
2.444979 -7.063799 -5.971527 -0.146516 0.000659 0.989134 
11.805098 6.319644 -1.363107 0.970007 -0.196267 0.038052 
7.856061 -5.312320 2.779900 -0.077470 0.869807 -0.483285 
-6.777152 10.026614 -5.215660 0.015419 0.999238 0.031305 
11.775545 5.387009 3.712903 0.980521 -0.165715 -0.086398 
-4.386806 -3.255929 11.616846 -0.895634 -0.444274 -0.014842 
6.676008 -5.027253 -15.879011 0.691811 -0.721995 0.005854 
8.076163 10.006566 -2.277255 -0.041709 0.998780 0.015383 
4.023946 8.531576 -10.005183 -0.001175 -0.020301 -0.999760 
0.737135 10.010377 -7.785120 -0.003611 0.999900 -0.012799 
-8.207348 4.793282 7.924339 -0.999974 0.001118 -0.006371 
9.285583 5.390103 -10.003149 -0.001344 -0.001781 -0.999997 
10.284580 4.258437 4.209667 -0.008905 -0.731107 -0.682199 
2.381349 5.017406 -5.983448 -0.114063 0.000329 0.993024 
11.803070 -6.127064 -7.879289 0.999923 0.000620 0.010520 
-3.320196 -4.395832 -4.086148 0.072092 0.701210 0.707485 
11.783083 -9.596456 -4.751084 0.965753 -0.192107 -0.008042 
-2.560730 4.686639 18.973705 -0.099972 0.122516 0.986435 
-4.409326 3.242853 -15.630015 -0.904135 0.427226 0.002629 
6.946690 4.745477 12.418910 0.732202 0.680680 -0.002078 
3.928496 -7.582900 -5.603894 -0.344316 0.001700 0.938844 
-0.174403 -9.979104 -6.130703 0.058217 -0.968818 0.195180 
5.512887 -6.840040 9.990523 0.013349 -0.001529 0.999801 
-5.672923 -9.673484 -9.991982 0.025073 -0.306634 -0.931066 
-4.931197 -10.010027 -2.736027 -0.014279 -0.999834 0.008208 
-8.210199 -8.442177 4.175411 -0.999979 0.004671 0.002495 
-6.288132 10.013032 -7.182249 0.031039 0.999319 0.013221 
3.989058 4.361358 -5.589058 -0.367501 -0.000311 0.929804 
-5.166840 10.004147 9.360400 0.009078 0.992819 0.102074 
8.418859 -2.345464 -17.203556 0.936707 -0.349942 0.006401 
8.956678 -8.270599 -10.010296 -0.011022 -0.000854 -0.999922 
1.217442 6.986861 17.656796 -0.087594 0.996099 0.009509 
11.523258 9.985522 -1.568088 0.337106 0.930075 -0.043123 
-8.065569 -9.348581 9.917100 -0.606872 -0.098078 0.691964 
9.205290 9.598232 9.949684 -0.017795 0.312920 0.932978 
-6.362218 -4.453386 10.007896 0.013755 0.003645 0.999898 
-0.571499 -10.013645 -7.966458 -0.004734 -0.999953 0.005103 
-8.190727 9.341909 -9.426923 -0.992550 0.081916 -0.088557 
1.244333 -4.523002 -5.976504 0.084822 -0.003406 0.996371 
-6.317135 -2.276977 -5.550236 0.016005 0.398501 0.916954 
2.667796 10.011119 7.966825 -0.004174 0.999987 0.000443 
4.590382 6.427016 11.930352 0.425432 0.904795 -0.001254 
9.656818 -7.040196 10.008686 -0.010796 0.005674 0.999924 
7.064831 -4.618759 -14.334813 0.753809 -0.656815 -0.003605 
-1.771847 3.181627 -5.085857 0.086211 -0.473026 0.875966 
-1.088784 6.381028 -12.692163 -0.410009 0.911942 -0.005581 
6.408834 5.287533 17.497843 0.658067 0.752896 -0.000940 
0.827585 3.741783 -19.003822 -0.003753 0.000192 -0.999992 
11.798652 -0.942825 6.274345 0.939594 0.026485 -0.310463 
7.627528 0.740762 -5.965970 -0.001293 -0.125784 0.991518 
5.537105 8.105060 10.007413 0.000901 -0.011929 0.999907 
3.007596 -6.500062 -19.007282 -0.010761 -0.177223 -0.982751 
-1.263307 9.664341 5.237730 0.387874 0.401044 -0.810194 
8.689399 -1.247671 -15.300547 0.983066 -0.182852 0.002153 
-4.070884 -3.252997 -18.981581 -0.210955 -0.230376 -0.948602 
10.926553 -0.637069 10.021634 0.038324 0.015215 0.999055 
5.905980 -2.985598 5.196405 -0.007877 0.490114 -0.871336 
-8.101264 -9.804947 -7.756473 -0.865413 -0.486677 -0.024683 
-4.473593 -6.261903 -10.004978 0.004715 0.004548 -0.999973 
3.902100 5.386098 -19.021471 0.015009 -0.025169 -0.999470 
6.665964 5.035554 15.952192 0.692331 0.721516 -0.007313 
-4.149472 -1.069419 -19.019547 0.005203 0.003650 -0.999813 
-3.603171 -3.577982 19.000635 -0.127928 -0.062013 0.986406 
3.162889 8.215881 9.998386 0.002853 -0.023118 0.999720 
-4.323274 1.787011 -19.006819 -0.070635 0.036303 -0.995773 
1.442373 -6.678322 5.997680 0.061556 -0.002307 -0.998013 
-3.939647 4.010542 13.291132 -0.821777 0.569697 0.000507 
-8.211643 -7.391730 -1.888222 -0.999959 -0.004310 0.002016 
1.887569 -7.005110 -15.555103 0.001492 -0.999442 0.008941 
10.296717 10.011288 -4.706791 -0.010514 0.999922 0.001887 
-5.837960 -3.548255 -4.844183 0.000345 0.586815 0.809436 
-8.207716 -5.855687 9.298325 -0.997772 0.006478 0.054812 
4.402584 10.016811 8.158638 0.011390 0.999916 -0.003484 
10.248119 0.055920 5.995797 -0.017217 -0.012615 -0.999607 
8.200098 -2.819420 -12.250049 0.911954 -0.409999 0.011259 
-2.760777 7.019390 -9.998844 0.003519 -0.008616 -0.999953 
-3.814603 4.184721 -14.594391 -0.813933 0.580880 0.003470 
2.930489 10.017790 -7.482675 0.006090 0.999935 0.007799 
8.616484 -1.522601 -11.072456 0.978868 -0.203305 0.015076 
4.509854 -6.016880 18.961916 0.085095 -0.219403 0.967898 
-5.186601 -0.390623 15.756589 -0.998354 -0.053243 -0.003269 
-8.209755 2.564944 -8.278351 -0.999932 0.003283 0.010244 
8.866985 -10.006298 -3.627627 0.001776 -0.999956 -0.009047 
-4.209354 6.291109 -0.801718 0.903442 -0.362131 0.175838 
5.456381 6.429952 4.765192 -0.604678 -0.002236 -0.795565 
-8.213517 6.800845 8.232830 -0.999895 0.002538 -0.011629 
-3.658807 8.281874 -2.475993 0.915493 -0.007713 0.401657 
5.449257 -2.326876 -19.003683 -0.002558 -0.001083 -0.999995 
-7.549465 -1.515067 -9.999228 -0.094906 -0.011392 -0.994757 
9.266881 -3.557023 4.828604 -0.004615 0.591665 -0.806004 
-3.260023 -4.863910 17.830566 -0.730369 -0.682921 -0.011967 
-1.550681 8.317525 -4.974916 0.555904 -0.014341 0.830622 
6.358771 -5.317762 -12.814100 0.654684 -0.755773 0.001702 
-4.437870 10.012500 -8.026254 -0.003134 0.999948 0.005690 
2.534362 -5.546309 -5.962927 -0.149829 0.002396 0.988605 
-0.763251 8.423227 10.006638 0.000283 -0.012764 0.999915 
-8.154357 4.324934 -9.669316 -0.936015 -0.005914 -0.308818 
8.308661 -2.582571 14.619892 0.924383 -0.381343 -0.000284 
3.306204 -0.225855 19.001894 -0.000123 -0.000008 1.000000 
6.614570 -2.206588 -5.582364 -0.018647 0.379641 0.924241 
-6.323245 -5.753489 -1.664315 0.012871 0.962677 0.269834 
4.151619 10.012342 6.600762 0.004147 0.999894 -0.010575 
-1.703565 -6.059237 12.141130 -0.508132 -0.861139 -0.009192 
-8.207159 -5.259974 7.286643 -0.999992 -0.002341 -0.002045 
-1.508709 -10.010981 8.597866 0.010902 -0.999907 -0.005197 
7.581646 -4.011271 4.466250 0.003829 0.686920 -0.726001 
-2.615594 -8.351742 -10.009953 0.005658 0.017845 -0.999784 
6.215792 -10.010135 -5.636456 0.000361 -0.999940 -0.001836 
0.952027 -6.623128 18.960535 0.004292 -0.437325 0.876945 
-6.155408 10.005758 4.453703 0.004272 0.999982 0.002972 
-2.932108 -8.961449 3.670500 0.795473 -0.006121 -0.604551 
10.322012 -1.101562 -10.009483 -0.019335 0.002468 -0.999788 
-0.738994 4.410622 -5.455246 0.406229 -0.000727 0.912825 
-0.023149 -6.760718 -11.164460 -0.265204 -0.963841 0.007582 
8.173371 2.923569 -17.455946 0.909075 0.416472 0.009395 
-7.818060 0.051438 6.027749 -0.310899 -0.040668 -0.929795 
11.819534 -1.342742 -6.683500 0.999330 0.025683 0.007788 
-0.157680 -6.728064 12.923454 -0.269581 -0.962974 -0.000351 
-1.176647 5.018651 5.210999 0.526949 0.005228 -0.849843 
-5.667808 3.458306 4.907592 -0.003456 -0.566116 -0.824297 
-4.394541 -3.264337 13.400397 -0.888909 -0.458022 -0.003689 
0.277626 6.839316 -14.659172 -0.221883 0.974957 -0.006389 
8.117368 -9.951729 9.787701 0.044760 -0.896081 0.436164 
-1.048040 10.013258 8.082988 -0.005799 0.999964 -0.003152 
11.803876 -7.127281 -9.374354 0.997727 0.006614 -0.065782 
-4.228586 3.555816 11.671299 -0.856751 0.515224 -0.012215 
-3.725880 5.492959 -2.595855 0.523058 -0.629392 0.533301 
3.899901 6.693506 -18.204153 0.320452 0.944196 -0.065991 
11.809202 1.124616 -7.610961 0.999988 0.000834 0.000996 
4.583217 6.424593 -13.243345 0.401535 0.915498 -0.003906 
6.308558 -8.673162 10.017777 0.005318 -0.006867 0.999904 
6.214377 -0.367852 -5.999836 0.002180 0.030275 0.999158 
3.546186 -4.808643 19.013918 0.002308 0.013441 0.999888 
4.259779 9.800043 -5.595044 -0.399889 0.494499 0.742601 
5.915205 5.650194 11.616948 0.589762 0.807136 -0.008298 
-0.022894 10.012057 -9.223950 -0.004970 0.998319 -0.036347 
8.065592 -3.184617 18.094860 0.900134 -0.429800 0.043802 
-5.757620 -8.538157 10.014514 0.001823 -0.000989 0.999993 
9.678550 10.004939 -3.022734 -0.005446 0.999979 0.000724 
7.592335 10.008344 4.479238 0.003521 0.999955 0.008173 
0.801249 6.777374 -18.759809 -0.115555 0.759328 -0.602515 
9.670614 1.879789 9.998222 -0.014374 -0.004258 0.999884 
-1.039574 6.062634 -5.291353 0.474873 -0.007964 0.879774 
9.639237 -2.024454 5.652853 -0.000358 0.345822 -0.938183 
4.169970 -1.500912 -19.005167 -0.001826 -0.001196 -0.999997 
-6.463684 9.064594 10.011870 -0.015563 0.000336 0.999685 
1.793521 9.991809 -9.478983 0.027218 0.993276 -0.095424 
5.369952 1.556057 19.004242 -0.003455 -0.000635 0.999992 
2.464062 8.321756 -9.995136 -0.000096 -0.033051 -0.999444 
-5.189094 0.398784 -14.580912 -0.998166 0.054296 0.007861 
8.385622 -2.404346 16.446140 0.935905 -0.351641 -0.000462 
9.668771 -2.640973 -5.393282 -0.003269 0.435193 0.900175 
-6.232574 -10.012000 -6.909997 0.012864 -0.999823 0.012765 
0.345690 5.200875 5.823107 0.266804 -0.002947 -0.963448 
-8.146365 6.643701 -9.624706 -0.940148 -0.008578 -0.307594 
-8.230596 -5.200783 4.728583 -0.999574 0.000242 0.012605 
-8.175743 0.530318 -6.231278 -0.917714 -0.050372 0.381890 
11.819861 6.616043 2.372440 0.999914 0.012411 -0.000377 
-4.184183 7.876343 -0.110278 0.999699 -0.002154 0.004263 
4.331888 -10.012838 -6.647100 0.006903 -0.999894 0.006276 
6.561456 3.045339 -5.172749 0.026447 -0.506700 0.861232 
-5.995275 -10.018638 -8.537896 0.017238 -0.999825 0.000148 
6.521213 -5.167887 15.501080 0.684149 -0.729332 0.000072 
11.803091 -5.483304 6.650578 0.999995 -0.002457 0.001173 
-3.405570 -4.691414 16.096352 -0.738045 -0.674689 -0.006778 
11.808944 -1.932339 7.955917 0.999987 -0.001069 -0.003925 
-5.003032 -1.680195 13.392292 -0.969829 -0.243009 -0.003356 
-8.203832 5.919431 6.143881 -0.999992 0.001231 0.003663 
-3.764992 -2.133221 5.616968 -0.004860 0.362218 -0.931089 
9.611959 2.026368 -9.995773 -0.010368 0.000042 -0.999944 
11.820274 9.154282 -8.663378 0.999615 0.014138 -0.001837 
11.807006 6.952050 4.097765 0.999981 0.003878 0.004119 
-6.898573 -6.230028 10.016347 0.008086 0.000909 0.999965 
-8.208479 3.959157 -7.488487 -0.999981 0.005958 -0.000413 
8.635483 10.003503 -5.246686 0.000469 0.999998 -0.000183 
2.081021 7.006470 -11.566059 0.044115 0.998814 0.006382 
7.243426 8.521902 -2.508912 -0.911836 0.002049 0.408789 
11.809301 8.121154 7.398333 0.999829 -0.014410 -0.008908 
-2.968612 5.139318 16.665916 -0.681391 0.731615 -0.010710 
-8.163733 6.317796 0.283567 -0.904146 -0.378044 -0.045009 
6.997575 -0.091152 -19.005356 -0.009577 -0.000427 -0.999950 
7.467954 -4.081163 11.672137 0.805899 -0.591566 -0.007670 
-8.203247 7.825261 -6.704022 -0.999992 0.001267 -0.001958 
7.773768 -7.120105 0.410120 -0.996460 -0.013432 -0.077047 
5.601904 4.832247 -19.025755 0.038042 0.017384 -0.998719 
0.498702 5.970911 -5.868093 0.253519 -0.000830 0.967265 
11.805371 -6.801380 7.772978 0.999990 -0.000626 -0.004208 
-8.214418 -3.486276 6.006588 -0.999543 0.018292 -0.019139 
2.600667 3.493058 -5.948636 -0.154168 0.004769 0.987865 
11.248711 -10.006493 4.604286 0.152131 -0.987590 0.001299 
8.220888 2.776464 12.208611 0.914095 0.405161 -0.007681 
0.238200 8.307344 -5.797463 0.293710 -0.002088 0.955846 
6.329769 -10.009392 -7.398430 -0.001557 -0.999983 0.004274 
4.445507 -9.816894 5.452696 -0.457541 -0.386954 -0.756565 
0.885932 8.849783 -10.005649 0.004654 -0.008818 -0.999932 
-3.730109 -4.295573 -14.547428 -0.787575 -0.616017 0.003171 
7.956155 -3.337282 -13.712954 0.871074 -0.490997 0.000883 
11.809511 -5.241063 8.303178 0.999915 -0.003842 -0.012261 
-6.308857 -10.015944 8.521860 0.032983 -0.999328 -0.011234 
6.159224 5.480091 -16.078321 0.621127 0.783242 0.004261 
-2.595580 -5.979469 -4.074939 0.739536 -0.004784 0.672458 
8.732516 4.216051 4.267368 -0.000635 -0.698694 -0.715336 
-8.012321 -9.930836 1.162325 -0.487243 -0.852750 0.035382 
3.775698 -10.006533 -8.184032 -0.000578 -0.999989 0.000944 
11.808186 -7.856776 -1.084779 0.999983 0.000313 -0.001204 
-8.215218 -3.989663 -6.124377 -0.999513 -0.027059 -0.011693 
-4.308804 1.594769 5.788905 -0.000733 -0.246374 -0.969163 
9.732642 10.007482 -0.609247 -0.000282 0.999983 -0.001615 
-5.235141 2.880432 9.986851 -0.092232 0.023941 0.991700 
-0.261110 6.626976 18.717716 -0.192227 0.850591 0.445713 
-2.709651 -7.325000 3.955953 0.739648 -0.001116 -0.672980 
-4.573545 -2.877420 -11.768935 -0.909210 -0.415643 0.010726 
-0.846931 -9.216775 -10.013521 0.014304 -0.057513 -0.995724 
-4.116658 -5.927249 1.595357 0.755026 0.507791 -0.359895 
7.355818 7.279585 2.252108 -0.935760 0.007181 -0.352275 
-7.717244 -5.271210 -9.991626 -0.245099 -0.033406 -0.957903 
11.809380 4.534133 5.147023 0.998979 -0.011340 -0.027227 
-2.316938 -5.726897 4.368365 0.667526 0.002407 -0.744256 
3.627826 -10.007433 9.030748 0.007683 -0.999592 0.022126 
-7.012287 10.017708 6.064551 -0.010702 0.999932 0.000659 
4.651185 -4.557186 5.291633 -0.438449 -0.001691 -0.898600 
2.835416 2.372591 5.904569 -0.178715 0.005498 -0.983884 
-2.679358 1.053963 -19.004484 0.001668 -0.000702 -0.999997 
-8.201393 -9.439115 -1.914132 -0.996005 -0.083682 0.011663 
7.186421 -4.701214 10.167562 0.700083 -0.421421 0.551973 
-5.347179 6.678072 10.005058 0.006857 -0.003265 0.999971 
-5.082728 -1.357263 -17.788006 -0.985247 -0.170235 0.008893 
-3.282493 -1.783896 19.010208 0.013782 0.012915 0.999752 
5.620025 4.150660 4.642365 -0.527409 -0.148406 -0.832967 
-8.204508 -6.403676 -6.199700 -0.999994 0.000569 -0.002412 
7.647833 7.671815 -1.258046 -0.979415 0.008450 0.200965 
-5.190312 -0.439291 12.492953 -0.996742 -0.073938 0.003172 
8.772161 0.848407 17.458693 0.990775 0.130841 -0.011645 
0.077974 5.258340 -19.006746 0.004043 -0.009277 -0.999946 
5.469967 7.255851 -9.985409 -0.008124 -0.015970 -0.999763 
-4.272288 4.013021 4.453372 -0.011834 -0.684642 -0.727940 
11.813063 -8.602304 5.724520 0.999871 0.015036 0.002412 
5.234060 -0.643099 5.980877 0.006258 0.109706 -0.993835 
-6.715618 1.949915 10.006731 0.021692 -0.007740 0.999718 
0.555856 -6.906151 17.519934 -0.180471 -0.983234 -0.004468 
-8.213663 5.469328 4.660378 -0.999511 0.029275 0.008877 
10.642164 -10.034587 -9.192256 0.012343 -0.996765 -0.078687 
3.390349 7.517029 5.787529 -0.271229 -0.002055 -0.962272 
3.968014 1.056386 -19.004690 0.000226 -0.002081 -0.999996 
6.736251 -9.950641 -3.826981 -0.387190 -0.842290 0.299789 
-0.350356 6.677085 16.837900 -0.311951 0.949593 -0.008994 
-5.066708 -6.470289 10.004113 0.005066 -0.000463 0.999983 
5.893384 -4.413643 4.422636 -0.539868 0.193691 -0.788150 
2.465461 6.873470 -18.845999 0.024304 0.824319 -0.544525 
8.730842 1.020747 15.886160 0.987993 0.153653 -0.000275 
-8.208499 6.114265 -8.006752 -0.999917 0.004251 0.011388 
11.807133 -5.305526 5.111578 0.999961 -0.006894 0.004852 
-1.313616 6.253510 11.190845 -0.436854 0.899199 -0.008469 
-7.416864 -3.320583 -4.990285 -0.019308 0.524580 0.850765 
-8.063369 9.777548 9.729341 -0.701157 0.563758 0.374041 
9.177037 10.005244 2.621153 -0.002454 0.999994 -0.001823 
11.809519 -8.004101 1.720513 0.999973 0.000542 -0.004869 
-8.206581 8.048422 -3.481466 -0.999991 0.003298 0.000757 
5.654371 5.845132 14.936331 0.554869 0.831867 -0.002225 
9.448768 5.930753 0.854044 0.032242 -0.989922 -0.136722 
-6.606250 10.015360 -3.153065 0.008628 0.999953 -0.002222 
-3.518524 -4.580066 -17.642645 -0.747738 -0.663951 0.005253 
-3.391788 -4.703393 -16.129715 -0.732216 -0.681003 0.008263 
9.809528 10.004980 -6.358036 -0.003136 0.999991 0.000914 
6.920710 6.452282 -9.994053 -0.009947 -0.017801 -0.999772 
-1.642101 10.001995 -5.520788 0.079567 0.978389 0.151406 
0.915715 5.483750 19.010212 0.005908 -0.018249 0.999802 
8.309798 -6.316000 -10.002185 -0.001079 0.002193 -0.999997 
6.688381 5.046059 -17.826065 0.715109 0.698561 0.000675 
4.814470 -8.944116 -5.156745 -0.519673 0.007819 0.853938 
5.163426 9.537511 -9.967813 0.043423 0.231784 -0.957515 
-0.652107 -6.564713 -15.926993 -0.363656 -0.931357 0.008096 
3.645456 -1.740919 19.002699 0.001114 -0.001404 0.999998 
-1.740205 -0.308461 -19.002628 -0.001004 -0.001251 -0.999998 
-7.971814 -5.803403 -1.700456 -0.341300 0.913894 0.195686 
8.222252 -3.359389 10.069160 0.446247 -0.180151 0.828374 
-2.806409 0.980578 19.004393 0.002852 -0.000963 0.999995 
-3.049040 5.052130 -13.603681 -0.699224 0.714571 0.000011 
8.078228 -10.002939 6.087039 0.003454 -0.999989 -0.001799 
-7.695238 4.049724 4.431751 -0.087930 -0.680405 -0.723838 
3.773811 1.807618 19.003342 -0.000515 0.000757 0.999998 
5.327905 7.676954 -4.849220 -0.574602 -0.009050 0.818107 
7.033498 -6.431323 9.995592 -0.011083 0.010726 0.999852 
11.804596 6.356381 -6.779969 0.999996 0.000716 0.001819 
-0.356365 -0.749369 19.002623 -0.000733 -0.001459 0.999996 
11.812130 0.883797 -9.278599 0.998565 0.003714 -0.049794 
6.332438 4.004698 19.010988 0.009034 0.014489 0.998965 
-4.216146 3.595747 14.727775 -0.857968 0.513663 -0.002719 
1.359140 -5.266054 -19.005602 -0.002716 0.006178 -0.999968 
1.926843 3.877181 19.003290 -0.000508 -0.007088 0.999969 
-8.195080 1.097880 9.544418 -0.977949 0.001243 0.141776 
-1.772216 4.941682 -19.009537 -0.018883 0.012277 -0.999514 
9.669915 -3.923721 -4.532063 -0.005047 0.679662 0.733485 
1.275975 -10.010370 8.932281 -0.002413 -0.999965 0.001990 
5.548634 5.904623 -10.965047 0.536248 0.843565 -0.003975 
-4.426430 -6.121391 0.034161 0.492259 0.857806 0.102135 
7.455664 -4.122182 13.781935 0.809906 -0.586212 -0.000563 
-8.206841 6.037491 -2.959128 -0.994911 -0.078750 0.027384 
2.125179 -2.818585 19.003895 -0.000908 0.001550 0.999998 
4.468989 -1.271692 -5.858677 -0.007346 0.225238 0.974254 
3.807950 0.313358 -5.999925 0.011621 -0.024450 0.999595 
-8.063740 9.863728 4.656448 -0.702742 0.647651 0.029122 
6.481181 8.246635 3.735933 -0.776983 -0.012160 -0.628392 
7.761900 10.007700 -3.814018 -0.003036 0.999975 0.000322 
8.891105 -10.016241 -0.763721 0.009630 -0.999792 0.017601 
11.803861 7.853253 -7.323473 0.999980 -0.004695 -0.001105 
11.822557 -4.222710 -8.678837 0.999708 0.003845 0.023436 
3.755630 3.742032 5.674940 -0.356088 -0.003098 -0.934404 
3.542012 6.789139 -14.627880 0.262377 0.964739 0.001983 
3.420469 -6.825642 13.608799 0.243455 -0.969760 0.000873 
-3.277565 -9.979357 9.511705 -0.011937 -0.977935 0.163111 
-2.376645 -5.616844 -13.660810 -0.588750 -0.808134 -0.004827 
0.980940 0.201996 19.001902 0.000526 0.001501 0.999998 
-8.084635 9.875026 7.668724 -0.709415 0.628067 -0.000080 
-6.900706 5.428411 2.576659 0.012771 -0.912566 -0.408143 
-2.588719 5.448889 11.919398 -0.628216 0.777967 -0.003173 
-4.759802 -2.455736 -16.201479 -0.937101 -0.348619 0.009561 
3.051516 -7.977328 5.859529 -0.194090 0.015240 -0.980644 
11.808830 -3.307872 6.238305 0.999977 -0.005952 -0.002628 
-7.319849 6.190928 10.022118 -0.034804 -0.018224 0.999124 
-6.775553 1.505998 -5.790232 0.003207 -0.231674 0.972718 
11.556639 -9.978699 -7.778378 0.394835 -0.911669 0.019213 
-8.210119 -1.584726 -8.547534 -0.999876 0.010877 -0.008745 
8.663157 1.465091 -17.683796 0.976896 0.210707 -0.035464 
-2.722886 5.339599 -11.922693 -0.634496 0.772775 0.008794 
5.931422 -4.647460 19.015121 0.016893 -0.013131 0.999650 
11.382463 -5.616535 9.983290 0.257605 -0.004634 0.952589 
8.704302 5.149798 -3.056404 0.021968 -0.854138 0.518962 
7.866931 10.013514 -8.207344 0.001261 0.999981 0.002701 
11.803026 3.640486 7.324884 0.999982 0.003673 -0.003552 
4.553813 6.456665 17.563091 0.407900 0.912097 -0.033219 
7.642733 3.830212 11.267843 0.833186 0.552263 -0.013331 
-3.731831 -6.598897 -2.271605 0.932652 0.019809 0.359871 
-4.950507 1.534934 18.840424 -0.779746 0.175223 0.541867 
-0.858000 -5.210611 -19.013498 0.003811 0.013354 -0.999884 
-8.186582 6.271577 -1.449081 -0.961723 -0.248266 0.032251 
8.584706 1.748538 13.641675 0.970392 0.240356 0.000547 
-1.946075 7.257244 9.998387 0.003528 -0.013377 0.999903 
0.476981 -0.528820 -5.985866 0.003165 0.062050 0.997735 
-1.292248 6.281710 -14.861451 -0.428589 0.903375 0.001480 
-5.691002 -7.355559 -10.013115 0.013865 0.000967 -0.999894 
3.218708 6.875673 -16.359423 0.171176 0.984982 0.008471 
-3.891140 7.045389 1.837101 0.952697 -0.023932 -0.300020 
5.137236 -9.987831 9.566392 -0.037807 -0.963458 0.211599 
3.327939 2.999371 -19.003481 -0.002101 -0.003587 -0.999988 
8.688140 -5.891759 1.091405 0.014261 0.982289 -0.184334 
2.202198 -2.093932 6.003698 -0.082110 0.010594 -0.995976 
-4.579410 -9.924879 0.034642 0.417871 -0.883148 0.053111 
-3.371730 -4.714442 12.354614 -0.734247 -0.678819 -0.002845 
4.247531 -6.569510 -15.994227 0.342706 -0.939280 -0.002017 
8.202667 -10.013296 1.237421 -0.151039 -0.977971 -0.015452 
-5.311601 5.507035 -2.405318 -0.013252 -0.916626 0.397734 
9.959921 5.813276 -1.444739 -0.003139 -0.968906 0.246749 
2.066049 -0.556677 -19.001738 0.000225 0.001671 -0.999998 
-2.255349 -5.810533 10.215734 -0.500239 -0.629595 0.577475 
-5.178649 -1.279788 -10.183611 -0.791852 -0.174934 -0.552728 
5.994538 -4.391338 -4.386095 -0.540813 0.250126 0.774092 
-4.109067 -3.759935 -12.956429 -0.839819 -0.542550 0.001058 
11.814305 -8.611351 0.277917 0.999648 0.021212 -0.011169 
3.578709 6.788611 13.278467 0.265015 0.963607 0.016575 
-2.245185 5.713737 13.611115 -0.575530 0.817524 -0.001939 
11.494841 -8.560297 -9.973946 0.343179 0.068698 -0.918305 
-4.580714 2.917318 17.529842 -0.907273 0.419928 -0.019878 
-1.743817 -9.147571 10.015278 -0.012633 -0.013831 0.999742 
2.180490 -6.979196 11.230438 0.063228 -0.997780 -0.015899 
-7.499666 -10.000359 -0.687871 -0.051007 -0.998283 -0.000863 
1.789602 7.789781 6.016080 0.007946 0.003619 -0.999900 
-5.179239 -0.648059 -13.309517 -0.996074 -0.088194 -0.001375 
3.169876 -9.119609 -5.834449 -0.237635 -0.008871 0.970572 
-1.239006 6.903343 5.175073 0.499327 0.002196 -0.865997 
7.453924 -6.549954 1.956803 -0.939080 0.011071 -0.343398 
9.197660 10.007073 4.501874 -0.003014 0.999975 0.002217 
7.815513 -9.984359 -1.892709 -0.322676 -0.929416 0.084414 
10.606028 5.346541 2.706357 -0.017295 -0.897362 -0.440679 
-5.059133 0.520847 -5.994842 -0.001514 -0.079919 0.996017 
-2.108728 -5.840530 -17.759443 -0.565349 -0.824420 -0.012662 
5.328983 5.878294 18.910763 0.237888 0.744002 0.594383 
-8.218233 -8.552220 -9.086597 -0.999737 0.013476 -0.013878 
8.436381 -0.524502 18.992268 0.337306 -0.010269 0.915086 
-1.031518 -6.399141 -12.895954 -0.406018 -0.913812 0.000504 
7.973378 -2.383159 5.516397 -0.002951 0.406972 -0.913252 
7.254097 4.911586 10.037231 0.194335 0.241376 0.946831 
-2.061291 -5.844715 13.726628 -0.542642 -0.839709 0.002099 
6.538929 -10.006301 6.416453 0.000026 -0.999974 0.004456 
-6.140043 2.017812 5.653117 -0.013814 -0.342335 -0.939097 
0.468269 -6.880845 -14.852076 -0.197153 -0.980315 -0.002857 
-5.324534 10.010835 -4.592866 -0.003515 0.999990 -0.001884 
-2.852203 8.484897 3.759248 0.786200 -0.022708 -0.617541 
5.629607 -5.873713 -17.090843 0.543519 -0.839229 0.013370 
-8.169277 7.743405 9.699703 -0.933954 -0.000895 0.321493 
-2.462398 9.934556 -9.808504 0.105875 0.853231 -0.485577 
4.581818 -6.420877 -14.118711 0.404414 -0.914441 -0.001906 
1.324316 -1.364508 19.003275 0.001913 0.000720 0.999995 
-1.015062 -6.406312 15.056118 -0.407308 -0.913218 -0.007436 
-3.098651 5.839616 3.455940 0.818551 -0.036316 -0.572275 
-8.211574 3.285285 8.160526 -0.999984 -0.005543 0.000962 
-1.238324 6.313863 -11.099286 -0.432517 0.901160 0.013668 
-8.210676 -0.289703 -7.611455 -0.999977 -0.000072 -0.001204 
5.342278 6.058276 -17.694422 0.499430 0.866140 0.001273 
7.537109 4.033883 17.179573 0.815948 0.577687 -0.012359 
0.484552 -6.880719 14.792988 -0.190636 -0.981626 -0.005474 
4.391943 -2.885352 5.441845 -0.301423 0.115766 -0.945361 
3.946962 -3.023221 -19.005203 0.002001 0.002873 -0.999983 
-3.658934 -7.107887 2.461405 0.921820 -0.004946 -0.385783 
4.320041 6.629137 10.289357 0.300845 0.790524 0.459110 
7.113207 -4.621411 18.001060 0.750822 -0.658723 0.019043 
0.496599 -6.519272 -5.865086 0.255974 0.009595 0.966610 
5.984436 -5.632687 17.833050 0.594026 -0.804135 -0.015712 
2.313516 9.924811 9.790985 0.008590 0.839988 0.538166 
9.099360 5.182964 3.023512 0.007046 -0.850894 -0.525109 
9.945288 -9.997166 9.445436 -0.009458 -0.996302 0.084090 
7.748576 6.926979 0.680920 -0.992263 -0.047387 -0.112058 
-0.573413 1.804166 -19.004770 0.000477 0.002587 -0.999994 
4.881588 -10.006348 -9.294608 0.007325 -0.997490 -0.062495 
5.395091 2.633536 5.383324 -0.013330 -0.425277 -0.904921 
-1.436142 -7.259299 5.061405 0.529883 -0.000378 -0.847865 
7.840419 10.004023 6.093865 -0.000557 0.999999 -0.000966 
-8.053518 -4.445667 -4.168490 -0.591056 0.537093 0.522139 
0.789486 10.009209 7.463952 -0.003186 0.999988 0.002741 
-8.174915 -6.747892 -9.513943 -0.983242 0.019685 -0.128154 
10.376696 3.298853 -4.997593 -0.017348 -0.555455 0.831352 
6.313602 -5.352588 13.465954 0.644385 -0.764221 0.004931 
0.450791 -2.554795 -5.851841 0.246295 0.008230 0.968992 
7.875415 9.836612 -0.604784 -0.779451 0.557088 0.092785 
8.259148 2.742350 17.535801 0.915195 0.402512 -0.007949 
-3.266937 -6.971743 10.001048 0.004877 0.006611 0.999966 
10.951080 1.103847 -5.883444 -0.001426 -0.180349 0.983486 
11.798672 3.093988 -5.710682 0.988373 -0.053733 0.115664 
0.203814 6.830873 -16.177986 -0.214282 0.976693 -0.000053 
5.554995 -0.087372 19.004129 0.000752 -0.001956 0.999997 
8.296372 2.585460 -11.793921 0.926668 0.375826 0.005755 
-2.283781 -4.771168 19.007366 -0.022941 -0.023485 0.998870 
-4.691454 4.800915 9.994634 0.005861 -0.001650 0.999977 
11.425345 4.595902 9.951113 0.305950 -0.047123 0.932909 
3.125951 -6.881709 -13.313714 0.165323 -0.986139 -0.007859 
8.792753 -0.492742 16.362411 0.998772 -0.043275 -0.005895 
-3.393199 3.035480 -19.010506 -0.010165 0.005994 -0.999731 
11.809650 -5.869994 -3.798875 0.999922 0.008054 0.000954 
8.748497 -0.879412 14.858120 0.991210 -0.129077 -0.006300 
-5.043787 1.508043 -16.078415 -0.980458 0.195711 0.001735 
9.306017 0.425411 -5.993926 -0.005217 -0.054348 0.998066 
8.532524 -10.006940 3.775386 0.003588 -0.999987 -0.003164 
-5.805597 -4.645493 3.804507 -0.012872 0.783103 -0.620953 
-5.357503 -2.339787 5.531173 0.009904 0.409441 -0.912217 
-1.223965 -6.098447 -5.184424 0.494708 -0.002972 0.868679 
-5.099477 10.008830 -2.634565 0.001593 0.999989 0.003269 
1.790475 -7.003772 13.955276 -0.013978 -0.999872 0.000279 
-1.548020 7.968301 -10.007044 0.003883 -0.021360 -0.999731 
7.616783 3.718579 -18.769428 0.631742 0.435368 -0.550246 
0.523886 6.888062 -11.345143 -0.186016 0.982426 0.008275 
6.675076 -1.404291 19.008627 -0.007094 0.004965 0.999956 
11.816918 -8.318903 7.874194 0.999631 0.018978 -0.019025 
1.145484 8.660679 10.010600 0.001772 -0.020257 0.999771 
-4.354501 10.004846 5.213938 -0.003327 0.999992 0.002002 
11.804338 -3.478391 8.172236 0.999966 -0.002255 -0.006890 
0.660801 -1.276030 -19.002180 -0.000360 -0.000579 -0.999999 
5.829562 0.920547 -19.004641 0.000236 -0.003122 -0.999993 
-0.036428 -7.483902 5.717777 0.286291 -0.006817 -0.958056 
3.378739 -6.833018 15.443557 0.217459 -0.975674 0.002788 
0.905277 -10.014271 -8.409761 -0.006619 -0.999952 0.003908 
3.537483 6.596725 18.906086 0.177765 0.626033 0.723976 
-5.212541 0.065634 -11.728497 -0.999680 0.018779 0.010027 
0.473769 -8.418087 10.010227 -0.002781 0.027100 0.999606 
-1.039542 10.009834 -8.061420 -0.005660 0.999978 0.001948 
9.656707 -10.004485 6.778639 -0.002493 -0.999987 -0.003648 
6.329732 10.008833 -8.063741 0.007538 0.999868 0.011815 
5.812571 5.734942 13.412502 0.571202 0.820696 -0.000695 
11.806526 -5.127795 -5.768817 0.999972 -0.005069 -0.002672 
6.457789 -9.647724 -9.938858 -0.015468 -0.339869 -0.924163 
6.398844 10.006288 7.535467 -0.005355 0.999949 -0.008112 
-8.210729 8.874620 -4.885049 -0.999760 0.009204 -0.002849 
11.812048 7.886967 9.355400 0.996309 0.000470 0.073122 
8.625698 1.592592 -16.109600 0.975216 0.220918 0.007222 
1.490578 0.701143 -6.001758 0.014770 -0.004028 0.999851 
11.657815 -9.538041 9.723766 0.791839 -0.147297 0.535238 
-4.756531 2.659058 -5.388018 -0.009108 -0.436746 0.899387 
-0.930507 -2.455417 5.493740 0.122042 0.290797 -0.942376 
-3.887337 -1.276540 -5.865569 -0.002002 0.227714 0.973636 
11.382385 9.995958 7.444696 0.241789 0.949695 -0.011375 
10.948263 9.879639 -9.857811 -0.085887 0.697017 -0.651011 
2.753794 9.807871 5.997032 -0.082069 0.550856 -0.814966 
7.920285 -4.545019 -3.912431 0.007698 0.747044 0.664604 
-3.980446 3.934877 -11.354705 -0.820794 0.571057 0.011610 
4.954837 -2.897006 -5.304431 -0.176472 0.319344 0.926903 
11.805104 -7.527194 -4.066240 0.999978 0.005940 0.002632 
7.701021 -7.695436 -1.057302 -0.986154 -0.013361 0.165068 
4.902822 3.438634 -19.004025 -0.002308 -0.003901 -0.999989 
-0.763656 -6.055337 18.991531 -0.070214 -0.220914 0.965391 
-2.891191 5.234687 -10.328457 -0.613928 0.679018 -0.309811 
1.353365 -6.988545 -13.107997 -0.058942 -0.998136 -0.009593 
0.048420 0.147551 -19.006073 0.001572 -0.000262 -0.999987 
8.797503 0.245687 -14.462091 0.999702 0.020751 0.005092 
5.931869 -6.454232 4.346534 -0.683903 0.007940 -0.729486 
1.515661 -8.492576 -5.984806 0.072334 0.006359 0.997249 
-4.578862 -0.275640 19.011162 -0.091472 0.000665 0.993154 
-5.096982 1.201313 -13.290391 -0.986464 0.163712 -0.003001 
-3.384481 10.017959 -5.444269 -0.009372 0.999843 -0.009098 
-1.678190 2.929970 -19.002701 0.001647 -0.002959 -0.999993 
6.246535 -8.283734 3.994973 -0.747733 0.012964 -0.663485 
11.825204 6.870492 -8.741563 0.999692 -0.002099 0.023653 
2.567704 -10.001126 -9.398691 -0.002587 -0.996244 -0.078701 
-8.207627 -8.003819 -7.038423 -0.999982 0.004130 -0.002324 
-8.211514 -3.442366 -7.748313 -0.999952 -0.003641 0.002837 
0.414021 10.018046 9.171370 0.018811 0.998549 0.046951 
-3.804178 6.927912 10.002239 0.002058 -0.007036 0.999972 
-4.242421 5.514889 2.432217 0.231809 -0.842071 -0.461781 
-7.016351 -8.282556 -10.036770 -0.020819 -0.005993 -0.999726 
-4.726060 -2.591488 17.860409 -0.925346 -0.378929 -0.002631 
8.488085 -5.495843 -2.376130 -0.009388 0.917170 0.397279 
-3.730192 4.342167 17.924915 -0.792562 0.608864 0.015345 
9.233075 4.661318 9.999678 -0.011775 -0.006439 0.999909 
-2.927950 3.065431 5.149061 -0.001859 -0.516778 -0.855916 
-7.216851 5.506479 -10.018678 -0.027561 -0.007687 -0.999414 
-4.281341 -8.553857 -10.010790 0.003122 0.007310 -0.999952 
6.117833 -7.841191 -10.006238 -0.001580 0.009255 -0.999954 
-8.215297 -2.115181 6.897655 -0.999972 -0.001673 -0.004630 
8.250254 3.056086 -5.167520 -0.005531 -0.520903 0.853450 
11.802479 5.816547 6.355985 0.999996 -0.000506 0.001986 
-7.307644 -3.936371 4.518291 -0.046270 0.661309 -0.748428 
3.874992 6.842428 -10.078906 0.150402 0.490469 -0.815286 
11.804914 6.300864 -5.204327 0.999967 0.006652 -0.003784 
10.752939 3.100721 5.122955 0.024061 -0.532108 -0.845414 
-8.196354 -9.328342 7.472919 -0.996031 -0.078872 0.008364 
-6.555054 0.215911 -10.004482 0.035324 -0.010867 -0.999295 
-3.318143 -9.975686 -9.770269 0.089462 -0.902125 -0.405972 
6.046417 -5.546135 -18.571960 0.542447 -0.793108 -0.240139 
-1.301335 -7.024851 9.990892 -0.019213 -0.084857 0.994943 
11.812346 -6.978550 0.156405 0.999827 -0.004022 -0.012702 
7.712360 8.929065 0.912141 -0.986049 0.023158 -0.162445 
-2.627881 1.564599 5.789848 -0.004333 -0.259748 -0.965608 
2.078020 -2.826915 -19.005857 -0.004079 0.002715 -0.999986 
-4.178138 -7.671104 -0.444768 0.996459 0.003191 0.070613 
10.300827 -3.961753 10.006195 -0.010295 0.010699 0.999886 
-0.729365 3.543855 5.447361 0.404720 -0.009523 -0.913719 
5.766478 5.765187 -12.480193 0.571786 0.820364 0.000976 
9.292542 -8.688284 10.015603 0.000232 -0.004328 0.999980 
-4.694106 2.624212 15.883474 -0.922093 0.386869 -0.005470 
3.017383 -4.579705 -19.003706 -0.003203 0.001170 -0.999990 
-5.131713 -0.965383 10.578022 -0.986362 -0.133940 0.081991 
-5.546595 5.790848 1.576982 -0.003854 -0.965881 -0.256587 
2.587553 -6.968359 -17.351181 0.115848 -0.993159 -0.005969 
-3.416477 -4.667704 14.079819 -0.732569 -0.680686 0.000564 
10.614824 -5.946233 0.708325 -0.009369 0.991475 -0.128875 
5.543210 9.369015 -4.673321 -0.623182 0.091938 0.773601 
-1.881120 0.119460 -6.001412 0.001045 -0.009325 0.999850 
11.807714 8.216164 1.170137 0.999972 -0.005825 -0.001734 
-0.707197 1.899125 5.709251 0.049763 -0.248398 -0.966896 
7.780001 3.645524 -13.127736 0.857056 0.514971 0.002991 
2.132572 -7.005110 16.365250 0.049267 -0.998621 -0.016078 
6.703438 -5.303872 -10.099841 0.461152 -0.317129 -0.812342 
2.311854 -3.966817 5.977443 -0.086879 -0.006102 -0.995308 
11.492190 -5.194455 -9.922697 0.383509 -0.029235 -0.910414 
8.622656 -1.700608 17.829391 0.968969 -0.245575 -0.001944 
11.310845 -9.988490 6.511469 0.108897 -0.985364 0.025010 
-6.535941 -10.010047 3.704013 -0.000103 -0.999993 0.001242 
-3.954295 8.698558 1.577791 0.962061 0.013640 -0.271710 
-3.548642 8.624550 10.015555 -0.001589 -0.003993 0.999963 
6.625834 0.577996 5.986197 0.003203 -0.102471 -0.994020 
-8.167298 -9.677200 -3.667525 -0.937471 -0.301311 0.013966 
10.188890 -0.860405 -5.938777 -0.012631 0.151783 0.987764 
4.127082 -4.383145 -5.528941 -0.392692 -0.001123 0.919590 
-8.141533 9.655666 -3.431333 -0.936035 0.314590 -0.021620 
11.804735 2.856673 -7.921160 0.999942 -0.004018 0.007976 
-0.078140 -3.455191 -19.003407 0.003857 0.000668 -0.999990 
-5.585940 7.856059 -10.006581 0.001536 -0.010449 -0.999901 
7.861870 5.861854 -1.589559 -0.451098 -0.818284 0.331560 
7.411217 -3.386732 -4.947667 -0.004723 0.562720 0.826512 
6.848525 4.848674 14.178097 0.718671 0.695107 -0.002858 
3.998035 -8.984394 -10.008251 0.005549 -0.010810 -0.999878 
-3.860617 -5.545708 9.996092 -0.004453 -0.002510 0.999951 
11.597795 8.300220 -9.948414 0.503259 -0.056709 -0.860357 
8.677320 -1.292385 12.449650 0.982842 -0.184316 -0.005459 
11.805909 7.709815 -3.884392 0.999986 -0.000083 -0.002740 
7.459960 4.094671 -4.384732 0.005659 -0.703829 0.709392 
-6.607606 10.029912 8.076343 0.011056 0.999725 0.006227 
-7.528003 -2.048686 10.004125 -0.052615 -0.001435 0.998142 
-0.512385 0.017748 6.001754 -0.004259 -0.000719 -0.999946 
10.861853 10.025177 4.657738 0.016506 0.999574 -0.009088 
-0.911129 6.451273 12.761826 -0.399470 0.916696 -0.004055 
3.661059 -1.362426 5.854613 -0.071203 0.187928 -0.979016 
-1.630510 -1.846915 19.003948 -0.001751 0.002140 0.999994 
2.571387 -1.070482 -5.971516 -0.095870 0.046051 0.993975 
2.681857 6.953004 16.348370 0.121343 0.992527 -0.000609 
9.685232 -10.006546 5.013638 -0.010671 -0.999932 0.003265 
-1.511642 -2.913423 -19.005127 0.000450 -0.002743 -0.999995 
0.560167 9.798571 5.941331 0.090633 0.569412 -0.814149 
-8.209335 0.041223 -9.142840 -0.999046 0.015063 -0.040340 
-8.119246 -9.747952 3.305986 -0.868274 -0.475410 -0.000792 
6.718181 4.960027 3.670643 -0.524413 -0.508244 -0.674951 
-4.368457 10.005960 2.703751 0.044915 0.998670 -0.007908 
9.726390 10.006167 6.206648 -0.008204 0.999944 -0.000567 
0.655576 -3.322760 5.895136 0.171527 -0.002389 -0.984719 
11.757933 9.641109 3.373050 0.915719 0.347455 -0.006456 
10.894857 -4.154541 4.294946 0.030182 0.709635 -0.703109 
-4.008420 -8.978998 -1.412641 0.968901 -0.034858 0.243377 
7.814513 -1.735511 -19.011501 0.025120 -0.021887 -0.999439 
11.809468 -1.250808 -8.286002 0.999960 -0.002136 0.005418 
11.813850 8.495869 4.372675 0.999519 -0.029148 0.007363 
-1.634363 -4.353427 -4.916067 0.561643 0.026016 0.826729 
8.236823 2.758661 15.940387 0.916993 0.398555 -0.009337 
8.456411 7.970880 -10.016630 0.007230 -0.014278 -0.999841 
10.318686 -7.593682 -10.013220 -0.009813 0.003274 -0.999938 
10.373180 7.321054 10.017187 -0.013781 -0.007452 0.999790 
8.566362 0.255885 5.999065 -0.010086 -0.031842 -0.999369 
-3.516071 -4.544963 -10.691210 -0.755059 -0.633567 -0.117710 
-0.133473 -5.952395 5.678421 0.310345 0.001254 -0.950593 
8.161177 -3.729921 -10.021770 0.268659 -0.145056 -0.938843 
2.610265 -9.296878 10.000216 0.007719 -0.070770 0.996332 
-4.219105 9.622148 -0.626679 0.896808 0.366120 0.114020 
1.054723 -9.517186 -9.985765 0.020789 -0.177503 -0.976541 
5.406477 4.062961 -4.791403 -0.525722 -0.114058 0.835784 
7.924215 3.393895 13.952303 0.868555 0.495107 0.005483 
-2.959573 -5.127052 -12.078855 -0.677773 -0.734894 0.003980 
6.943560 5.093438 -3.307723 -0.442253 -0.590426 0.617914 
-5.382643 10.003793 6.715247 0.003143 0.999994 -0.000414 
2.213113 1.424619 19.002148 0.000239 -0.000358 1.000000 
1.529041 -6.999537 -11.533060 -0.040670 -0.998988 0.015376 
8.787731 -0.117170 -11.999904 0.999750 -0.013999 0.015436 
4.838503 8.264036 5.161166 -0.521247 0.004750 -0.853272 
5.924478 -5.658183 -14.540800 0.577717 -0.816169 0.003780 
-5.699566 10.014386 -0.737155 -0.008750 0.999937 -0.004908 
2.188999 1.681139 -19.002895 0.000118 -0.002134 -0.999997 
11.122128 -10.014853 8.078981 0.087040 -0.995721 -0.013914 
-6.644221 -10.011765 -3.278409 0.011244 -0.999918 -0.005255 
-5.160764 0.795890 17.323479 -0.991760 0.126425 -0.006285 
-6.097169 3.652075 -10.011240 0.012748 -0.002835 -0.999878 
1.494411 7.158865 -5.995174 0.058039 0.005085 0.998257 
1.252602 1.893050 5.976183 0.080125 -0.005231 -0.996643 
-3.527181 10.009863 9.130678 -0.008157 0.999622 0.025905 
3.992272 -6.650048 11.429695 0.334051 -0.942160 -0.009445 
-4.307476 -2.777947 -5.323506 -0.004110 0.460773 0.887117 
-8.070010 -0.571415 9.745588 -0.818846 -0.030019 0.545802 
5.094661 -7.746280 5.008165 -0.545371 0.009968 -0.838124 
-1.315826 6.278620 -16.476093 -0.435881 0.898601 0.012572 
4.282072 -7.336617 -9.989681 0.016264 -0.030692 -0.999083 
-6.817100 5.333913 -2.731449 0.003857 -0.899058 0.437355 
11.803153 -7.059036 6.267653 0.999999 0.000747 0.000433 
1.475434 -9.998834 -6.623774 0.014616 -0.994588 0.095525 
-5.579724 5.997431 -0.024200 -0.013827 -0.999612 -0.009695 
-8.159998 -6.161397 1.644487 -0.946542 0.274460 -0.109179 
2.042982 6.994639 13.424224 0.038077 0.998942 -0.002198 
9.783404 -5.941272 -0.876672 0.000875 0.984802 0.167927 
-1.399123 -4.639119 5.080759 0.544523 -0.027037 -0.838037 
1.804663 4.814029 6.018366 0.024800 -0.004101 -0.999604 
11.777853 -2.622764 9.552336 0.942388 -0.080464 0.268266 
0.110384 6.795674 13.852768 -0.239519 0.970801 0.003014 
-2.260293 -5.718999 16.496725 -0.568861 -0.822248 -0.015765 
7.164196 -9.717253 2.844191 -0.780830 -0.457799 -0.373487 
-4.193544 -8.786733 10.013270 -0.004087 -0.001772 0.999956 
8.805902 0.037629 -16.698130 0.999759 0.004311 0.020675 
-3.530082 0.284545 6.000477 0.003218 -0.021265 -0.999738 
4.666649 -4.649211 -19.006271 -0.002774 -0.001143 -0.999991 
7.995338 2.159316 -18.998234 0.158997 0.027789 -0.986462 
11.747273 6.188419 0.393536 0.838021 -0.511512 0.020817 
3.852993 -8.421195 10.006927 -0.007591 0.016936 0.999825 
-3.213406 -8.050165 -3.285755 0.842073 0.006384 0.539241 
-5.115611 1.065648 11.032876 -0.986247 0.163540 -0.018723 
7.670869 1.950952 5.683524 0.004119 -0.325788 -0.945369 
-8.173729 9.711302 -7.022974 -0.924552 0.340905 -0.013716 
-3.803758 -9.483316 2.219879 0.925222 -0.169167 -0.331196 
8.514658 -1.984059 11.017819 0.952901 -0.302455 -0.003564 
-2.691982 10.010082 -8.212177 0.003138 0.999924 0.009566 
-0.127239 -9.070730 5.694768 0.291799 0.003274 -0.956212 
9.014687 8.051325 10.011392 -0.005775 -0.011522 0.999910 
7.115770 -8.137197 -2.764550 -0.882780 0.016365 0.468545 
-2.967897 5.496454 10.080066 -0.252691 0.373023 0.855818 
-2.608641 -2.711779 -5.350618 -0.003642 0.448623 0.893582 
6.859981 6.748700 -3.230142 -0.848085 0.002419 0.529543 
3.145393 1.737181 -5.842454 -0.145131 -0.080535 0.984888 
5.417034 -6.120192 -10.226657 0.613261 -0.597612 -0.461861 
-7.518832 2.674773 5.377393 -0.120102 -0.412373 -0.900817 
-6.281561 10.009772 2.190251 0.024103 0.999565 0.012029 
-6.013947 -4.660246 -10.005378 0.013237 0.001776 -0.999908 
7.079158 -5.777641 -2.900734 -0.845365 0.210986 0.465252 
10.079883 -2.100687 10.005132 -0.016738 -0.000670 0.999855 
0.038640 -10.010494 7.199546 -0.004363 -0.999963 0.003157 
11.767559 -2.470056 -9.581704 0.950815 0.012986 -0.265585 
-2.540495 -4.760076 -18.994810 -0.148696 -0.079148 -0.976053 
1.173344 -9.853176 6.026601 0.043549 -0.580115 -0.742231 
10.435780 -5.506527 -2.323423 -0.005148 0.921240 0.388155 
-3.864047 10.004625 6.980242 -0.000302 0.999997 -0.002147 
8.184320 3.073188 -10.295576 0.769847 0.379469 -0.458706 
9.332458 -0.591480 9.998104 0.077571 -0.004979 0.996688 
11.806374 5.544816 8.364357 0.999919 0.004278 -0.009081 
-5.807296 6.281396 -10.005875 0.007337 0.007048 -0.999936 
10.108737 -4.467887 -10.010246 -0.014249 0.002816 -0.999888 
1.149552 6.972812 15.065108 -0.072487 0.997357 0.002672 
8.790743 0.435144 12.753092 0.998543 0.044794 -0.005465 
0.494632 -7.800633 -9.995266 0.007367 0.000951 -0.999794 
-5.100612 1.677913 -10.196184 -0.799196 0.088652 -0.551630 
-0.328809 -8.383252 -5.603007 0.334825 0.016593 0.941318 
0.995694 -6.968150 -17.010206 -0.106102 -0.994085 0.011448 
-4.946387 4.949314 -9.996372 0.009744 -0.004364 -0.999940 
2.578343 -2.955711 -5.952087 -0.154713 0.002759 0.987867 
8.756345 0.690927 10.777030 0.996494 0.078554 0.012210 
8.016911 -1.443558 -5.826878 0.000230 0.249605 0.968256 
3.709530 8.181739 -5.667684 -0.336890 -0.037861 0.940453 
-4.073382 -8.353376 1.136547 0.973763 0.002778 -0.226750 
10.254406 -2.645479 -10.012571 -0.034678 -0.005796 -0.999360 
-5.087001 10.017748 0.794295 -0.000566 0.999956 0.000997 
-2.298437 10.004413 7.058772 0.000903 0.999992 -0.000882 
1.744658 7.012658 -17.470562 -0.036863 0.999270 -0.001272 
7.290139 9.730287 2.567675 -0.826728 0.370403 -0.396912 
-8.090726 2.696732 9.788489 -0.788145 0.011092 0.605744 
-7.300009 -0.858766 -5.928587 -0.031116 0.145054 0.988438 
-5.150475 -0.945940 17.602617 -0.989239 -0.143679 -0.020819 
-6.592340 5.864156 -1.204017 0.038676 -0.974409 0.221153 
3.824659 6.712837 -11.597402 0.317874 0.947943 0.012282 
-0.020915 2.645052 -5.711559 0.284253 -0.029625 0.958164 
4.351031 2.874649 -5.415641 -0.315031 -0.106767 0.938319 
8.456242 2.188732 -13.478645 0.944523 0.326913 0.003010 
0.942329 -1.223184 5.956045 0.104870 0.034816 -0.993379 
5.172132 10.005024 -6.885564 0.002244 0.999986 -0.004158 
11.805223 4.854493 -5.758013 0.999967 0.001988 -0.007578 
4.807641 -6.319096 12.943799 0.432250 -0.901734 -0.004106 
-4.336845 -3.673222 10.106958 -0.601004 -0.389225 0.629881 
1.430562 7.164066 -10.063293 -0.059387 0.504506 -0.833940 
-4.398507 -3.307456 -17.450401 -0.874694 -0.484030 0.008694 
-5.006811 10.003522 -6.272195 0.000943 0.999995 0.002953 
-5.441031 -1.007760 -5.922159 0.001012 0.185811 0.982490 
-5.104001 1.178809 12.550975 -0.986664 0.162420 -0.001583 
-1.323116 -1.693081 -5.750033 0.008546 0.277495 0.960422 
0.506129 -4.461296 19.003571 -0.002585 0.001901 0.999983 
6.366860 2.358301 -19.008892 -0.013931 -0.002930 -0.999894 
2.208858 -8.031219 -9.996468 -0.005257 0.021745 -0.999721 
-0.905627 6.424327 -18.540331 -0.383546 0.863868 -0.299188 
-1.842157 5.992826 17.731474 -0.502380 0.864511 0.009309 
2.575393 9.434788 -5.946234 -0.121756 0.039143 0.990639 
11.818100 -6.930225 -2.388340 0.999626 -0.021557 0.010084 
-5.807613 -2.972476 9.997601 0.006683 0.003992 0.999955 
-1.189562 -6.326622 -14.408733 -0.424351 -0.905468 0.000418 
7.792919 -3.392761 -18.878906 0.650956 -0.360819 -0.619897 
-7.772937 -9.970631 -5.619504 -0.264751 -0.947345 -0.034421 
2.295406 6.260177 5.994728 -0.105212 0.000088 -0.993662 
