-0.201783 -0.291672 0.193789 0.298963 -0.414076 0.859417 
-0.235744 0.213523 -0.939914 0.385149 -0.623141 -0.676615 
-0.473699 0.189272 -0.460414 0.074230 0.792527 -0.600659 
-0.459863 -0.421056 -0.627567 -0.808172 -0.479112 -0.338270 
0.118895 0.423457 -0.713164 0.156834 0.971692 -0.169006 
0.226405 -0.501080 0.111779 0.042108 -0.804055 0.590830 
-0.064181 -0.430281 0.117371 -0.319799 -0.619317 0.716960 
-0.316781 0.371553 -0.942291 -0.389389 0.894447 0.182245 
-0.883420 -0.080374 -0.378799 -0.928746 0.339175 -0.138908 
0.129332 0.115234 0.184037 -0.139355 0.692537 0.702826 
0.142983 0.299451 -0.126847 0.020002 0.884682 0.448098 
0.011150 0.251651 -0.007551 0.056124 0.895658 0.439807 
-0.668305 0.169674 -0.107513 -0.435044 0.890036 0.127372 
-0.539829 -0.400951 0.588441 0.180480 -0.207151 0.961442 
0.410584 -0.633390 -0.197740 0.352931 -0.764802 0.530069 
0.286947 -0.213116 -0.996381 0.097757 -0.003686 -0.994867 
-0.226916 0.380773 -0.917195 0.149906 0.985387 0.067852 
0.221919 -0.604892 -0.853455 -0.085148 -0.689253 -0.719273 
-0.420749 -0.068246 0.377092 0.905289 0.390242 0.151912 
0.162685 -0.749637 -0.395288 -0.021553 -0.976665 0.210172 
-0.970628 -0.381908 0.264446 -0.914019 -0.250681 0.317544 
-0.004761 0.164708 -0.926122 0.001545 0.027204 -0.999601 
-0.862535 -0.653087 0.331232 -0.662292 -0.613564 0.428576 
-0.651127 -0.638610 0.395740 0.587343 -0.746350 0.309185 
0.204893 0.392364 -0.183967 0.178945 0.519317 0.835615 
0.001835 -0.695645 -0.210969 -0.339139 -0.678702 0.645045 
-0.746056 0.372166 0.547718 -0.978513 0.143454 0.079599 
0.405428 0.167433 0.110771 0.347103 0.708995 0.612579 
0.276948 -0.690637 -0.755083 0.094266 -0.982105 -0.120736 
-0.259726 -0.562900 -0.467750 0.065844 -0.996228 -0.000052 
-0.903600 -0.185913 0.018023 -0.779988 0.110265 -0.611813 
-0.236850 0.012417 -0.932761 0.260315 0.290507 -0.917021 
-0.026842 0.395014 -0.783957 -0.228219 0.863585 -0.447683 
0.200778 -0.394686 -0.932604 0.036564 -0.035026 -0.998525 
0.071481 -0.670813 -0.171047 -0.173190 -0.542682 0.820695 
-0.492272 0.101535 -0.854714 -0.355289 0.785934 0.505734 
-0.377873 0.261814 -0.169029 -0.122650 0.981785 0.119892 
-0.828273 -0.168664 0.587667 -0.300908 0.174421 0.937430 
-0.652118 0.064938 0.377036 -0.024468 0.981155 0.186310 
0.930863 -0.199474 -0.811985 0.775842 -0.081941 -0.624739 
-0.053423 0.049821 -0.929882 0.013346 0.042479 -0.998334 
-0.729959 -0.189682 0.612271 -0.103414 0.099811 0.989540 
0.579307 0.283682 -0.394781 0.578807 0.793891 0.169604 
0.812869 -0.190816 -0.467491 0.994805 -0.061407 0.048214 
-0.626356 0.023513 -0.982458 -0.075340 -0.000126 -0.996800 
0.544772 0.109391 0.069079 0.602415 0.599736 0.525636 
-0.873942 -0.076130 0.041024 -0.748005 0.555302 -0.337972 
0.677017 0.074212 -0.886500 0.181202 0.833535 -0.521741 
-0.878691 -0.359857 0.565143 -0.443970 -0.281875 0.847267 
0.728351 -0.292700 -0.069627 0.896004 -0.194633 0.397675 
-0.433435 -0.190956 -0.971452 0.152840 0.046704 -0.986889 
-0.686465 0.016589 -0.978185 -0.172931 0.129177 -0.974527 
-0.077047 -0.709074 -0.897977 0.165492 -0.979478 0.065419 
0.283584 -0.195555 0.270603 0.059767 -0.039984 0.997254 
-0.241808 0.102862 0.150704 0.371632 0.643447 0.668399 
-0.680702 -0.040337 0.619230 0.179756 -0.288623 0.937494 
-0.316918 -0.567111 -0.493175 0.137778 -0.967221 -0.211063 
0.395199 0.273846 -0.093806 -0.022788 0.709994 0.701292 
-0.625905 -0.539813 -0.454527 -0.370856 -0.795609 -0.478503 
-0.080807 0.496806 -0.444896 -0.098340 0.994089 -0.002178 
0.125197 -0.314041 -0.937700 0.026102 -0.042701 -0.998408 
-0.903951 -0.042876 -0.185830 -0.985777 0.164237 -0.000164 
0.556043 0.141730 0.021817 0.451251 0.653632 0.603953 
-0.583843 -0.102665 -0.649778 -0.320331 0.178034 -0.930348 
-0.685093 -0.554604 -0.113409 -0.346691 -0.848610 0.399226 
0.807307 -0.348884 -0.836524 0.499179 -0.571168 -0.651489 
0.651268 0.105684 -0.802702 -0.037912 0.995802 -0.067839 
-0.273633 -0.250667 0.223648 0.045203 -0.289618 0.955500 
-0.635589 0.576255 0.847111 0.673105 -0.374933 0.636847 
-0.245696 0.168199 -0.616487 -0.712093 0.614929 -0.308292 
-0.464191 0.101921 -0.670294 -0.594625 0.771563 -0.225582 
0.794920 -0.292829 -0.465174 0.938217 -0.329336 -0.100259 
-0.923609 -0.387815 0.512166 -0.748480 -0.435118 0.496494 
0.034725 0.289568 0.990514 0.547474 0.101216 0.751354 
-0.680212 -0.012423 -0.862092 -0.620592 0.495208 0.600727 
0.985829 -0.224621 -0.602536 0.948345 -0.275182 0.135606 
0.319990 -0.333231 0.239776 0.126538 -0.338563 0.931444 
-0.453623 -0.260639 -0.714374 -0.906513 0.126205 -0.396868 
0.521773 -0.525472 -0.778732 0.632674 -0.581644 -0.507918 
-0.475688 -0.411337 0.529546 0.897363 -0.437077 -0.044078 
0.287088 0.412508 -0.621304 0.141366 0.901077 -0.408259 
0.231492 -0.730637 -0.646881 -0.016608 -0.931583 -0.353781 
0.142692 -0.162902 0.260738 -0.147914 -0.006878 0.988808 
-0.891291 -0.373198 -0.286901 -0.813955 -0.445021 -0.372831 
0.443077 0.356052 -0.752827 0.317038 0.813976 -0.479327 
-0.567339 0.099885 -0.909195 -0.353267 0.867168 0.348345 
0.583449 -0.505079 -0.740613 0.492595 -0.731079 -0.466235 
-0.423619 -0.017946 0.472190 0.074325 0.734582 -0.669817 
-0.091648 0.459561 -0.577674 -0.448354 0.810078 -0.373975 
0.266753 0.180149 -0.961641 -0.335270 -0.744341 -0.565859 
-0.178444 0.228340 -0.936453 0.085537 -0.793029 -0.602208 
0.006308 0.039415 -0.930615 0.008509 0.062302 -0.997977 
0.527546 0.285190 -0.729443 0.640553 0.753935 -0.104608 
-0.971305 -0.244181 0.077913 -0.868170 0.027400 -0.492325 
0.111367 0.394546 -0.805242 -0.001221 0.949782 -0.312328 
0.396613 -0.569121 -0.920714 0.224146 -0.967257 -0.118039 
-0.593768 0.096189 -0.966474 -0.328545 0.787477 -0.500761 
-0.464966 -0.454128 0.328244 0.640479 -0.623182 0.446665 
0.973081 -0.263860 -0.642491 0.922781 -0.381555 -0.008490 
-0.774036 0.367094 0.792908 -0.605085 -0.350709 0.710615 
0.714235 -0.352481 -0.089357 0.785116 -0.500260 0.357082 
-0.629746 -0.006223 -0.830729 -0.372997 0.309169 0.874070 
-0.055252 0.495625 -0.387112 0.004943 0.995997 -0.072369 
-0.462730 -0.267214 -0.813284 -0.839237 0.226189 0.482931 
-0.469794 -0.100080 0.667584 -0.438600 -0.414783 0.791057 
-0.192576 0.431875 -0.443911 -0.724015 0.668346 -0.149611 
-0.177625 -0.347138 -0.943269 0.381911 -0.092487 -0.908123 
-0.342059 0.204351 -0.983090 0.050412 -0.036049 -0.997440 
0.476745 -0.006088 0.188858 0.462267 0.344741 0.816345 
0.816062 -0.116097 -0.488389 0.923160 0.110435 0.349015 
-0.197700 0.358586 -0.274132 -0.854508 0.260201 0.447108 
-0.451506 -0.423017 -0.684651 -0.917233 -0.396685 0.005709 
-0.313264 0.213554 -0.453356 0.033745 0.962392 -0.267036 
-0.655159 -0.424566 -0.961083 -0.778670 0.134337 -0.586300 
0.757854 0.092997 -0.266677 0.913860 0.325456 0.241306 
-0.507191 -0.342913 -0.819463 -0.517950 0.380315 0.761086 
-0.191475 -0.498788 0.004003 -0.085127 -0.781242 0.617704 
-0.657276 0.273667 0.762449 0.500968 -0.327077 0.800537 
-0.729475 0.365936 0.617234 -0.992637 0.095748 -0.040421 
0.169862 -0.743374 -0.534119 -0.060945 -0.859882 -0.505352 
-0.749926 0.039226 0.430988 -0.510681 0.850961 0.112967 
-0.088320 0.321300 -0.984692 0.156019 0.336718 -0.924022 
-0.880582 -0.165406 0.557814 -0.679200 0.423284 0.593784 
0.479807 0.350726 -0.373468 0.401892 0.913392 -0.063238 
0.060180 -0.274428 -0.938372 0.023480 -0.029303 -0.998867 
-0.661759 -0.591020 -0.258947 -0.467831 -0.868131 0.156552 
-0.799593 -0.713405 0.193238 -0.246975 -0.801562 -0.539303 
-0.153127 -0.433525 -0.932461 0.068191 -0.044742 -0.996286 
-0.408049 0.197227 -0.465212 -0.453935 0.865552 -0.208106 
-0.807965 0.466429 0.793528 -0.949857 0.127763 -0.193025 
0.660835 -0.161688 0.056905 0.799959 0.001141 0.599869 
0.875291 0.063286 -0.740860 0.587781 0.774387 -0.231067 
-0.810336 -0.721909 0.266947 -0.411604 -0.893021 0.172844 
0.161777 -0.451021 -0.931301 -0.054387 0.141058 -0.986092 
-0.535273 0.171994 -0.498695 -0.012276 0.789270 -0.612418 
-0.904102 -0.148911 -0.032856 -0.924688 0.155738 0.344191 
-0.164845 0.202236 0.048720 0.159823 0.811718 0.559062 
-0.722726 0.287101 0.508271 -0.560604 0.095227 -0.821838 
-0.177264 -0.417130 0.105047 0.141434 -0.684364 0.714443 
-0.842945 -0.098917 0.552006 -0.655208 0.546037 0.515068 
-0.905411 -0.133591 -0.344286 -0.963459 0.200906 -0.161840 
0.166237 0.402457 -0.774657 0.112355 0.985981 -0.082727 
-0.680900 0.092760 0.059599 -0.447213 0.768064 0.458032 
-0.729393 0.605726 0.839094 -0.711091 0.523514 -0.467902 
0.127395 0.444820 -0.220610 0.113067 0.850155 0.513025 
-0.001088 -0.066182 -0.933904 -0.008293 0.036453 -0.999180 
-0.116499 0.097555 0.835834 0.760613 -0.561299 -0.321569 
0.332099 0.365093 -0.800575 0.224985 0.881003 -0.409177 
0.483680 0.045181 0.156264 0.450965 0.440719 0.776022 
-0.576783 -0.633287 0.138650 0.927024 -0.333230 -0.168816 
-0.673532 0.139156 -0.467579 -0.460049 0.580321 -0.671564 
-0.676842 -0.577853 -0.167411 -0.231049 -0.936120 0.252077 
-0.358554 0.294091 -0.884245 -0.643814 0.464470 0.594449 
-0.342330 -0.400971 0.127593 -0.075501 -0.640519 0.762905 
0.067458 -0.550058 -0.974626 -0.195343 0.564312 -0.801450 
0.301286 0.414939 -0.545326 0.283151 0.898732 -0.322209 
-0.820439 0.084024 -0.336207 -0.772131 0.553370 -0.311747 
0.419884 -0.229009 0.236672 0.378272 -0.082807 0.921925 
0.426279 -0.634399 -0.680908 0.403606 -0.897898 -0.171076 
0.218885 -0.097198 -0.992694 -0.249683 0.034150 -0.965427 
-0.585190 0.363560 0.590505 0.933222 0.174978 -0.310161 
-0.731638 -0.056569 -0.903889 -0.910560 0.038278 0.401043 
-0.141702 0.360580 -0.711946 -0.634721 0.703765 -0.313065 
-0.206004 0.224141 -0.001268 -0.014023 0.901612 0.424665 
0.676499 -0.314765 0.013633 0.809563 -0.276979 0.515355 
0.154812 0.026416 -0.929989 -0.024306 0.066900 -0.997254 
0.350362 -0.570987 -0.977377 0.208686 -0.846865 -0.467713 
-0.657272 -0.500286 0.558535 -0.000347 -0.497926 0.866514 
-0.595371 0.717301 0.713549 0.789195 0.362683 -0.479978 
-0.508111 -0.152775 -0.725225 -0.770214 -0.634049 0.052888 
0.661658 0.240201 -0.331630 0.569893 0.815003 0.097725 
-0.594507 0.042393 0.567413 0.872836 -0.123279 0.469581 
-0.229729 -0.583035 -0.271837 -0.134462 -0.931200 -0.336329 
-0.599560 0.426441 0.746772 0.859058 -0.091656 0.502863 
0.265252 -0.746008 -0.341818 0.072432 -0.988715 0.082701 
-0.533719 0.170815 0.062173 -0.287987 0.806354 0.515706 
0.453729 -0.152531 0.223052 0.452544 -0.000727 0.891500 
-0.856903 -0.182097 -0.435752 -0.916174 -0.088907 -0.385527 
0.849653 -0.344813 -0.796878 0.616510 -0.627973 -0.474282 
0.232606 -0.732904 -0.586695 0.149063 -0.984792 0.076490 
0.061546 0.158669 0.126911 -0.187355 0.616876 0.762089 
0.809383 -0.211155 -0.395425 0.997717 -0.042371 0.050862 
-0.786373 0.102518 -0.107663 -0.642340 0.722563 0.251144 
-0.675718 -0.506381 -0.474631 -0.358399 -0.738087 -0.570489 
0.805371 -0.266186 -0.412638 0.972574 -0.224887 0.042382 
0.399413 -0.442061 0.138739 0.301125 -0.752932 0.584053 
-0.786031 0.017872 0.067105 -0.565032 0.788450 -0.181105 
-0.175408 -0.596256 -0.809052 -0.476794 -0.526674 0.696351 
-0.119449 0.227076 -0.935410 -0.044439 -0.661621 -0.742770 
-0.514188 0.141818 0.112002 -0.282814 0.738640 0.611424 
-0.163709 0.443479 -0.496179 -0.637059 0.708453 -0.302324 
0.381465 -0.402489 0.184553 0.196416 -0.639536 0.742814 
-0.923245 -0.076036 -0.256383 -0.900688 0.410169 0.112146 
0.471971 0.365674 -0.545065 0.611611 0.788626 0.047371 
-0.573688 0.361036 0.650654 0.997135 0.060899 0.010840 
-0.571035 -0.522303 0.398854 0.807473 -0.563859 -0.163632 
-0.640618 0.089327 0.100375 -0.350719 0.846363 0.399919 
-0.833966 -0.138303 -0.482276 -0.717713 0.119155 -0.684096 
0.452508 0.331021 -0.254937 0.365948 0.825355 0.424267 
-0.102491 -0.135372 -0.935600 0.028593 0.051787 -0.997919 
-0.907631 -0.250724 -0.353222 -0.976388 -0.130454 -0.138392 
0.410448 -0.615818 -0.142355 0.220913 -0.943758 0.236543 
-0.799613 -0.494800 -0.166189 -0.585077 -0.806868 0.064890 
0.485104 -0.525469 -0.930054 0.622787 -0.698530 -0.321199 
0.040007 -0.024134 -0.932849 0.032434 0.047391 -0.998273 
0.185662 -0.700875 -0.677199 -0.087053 -0.920954 -0.344324 
-0.917690 -0.444247 0.361888 -0.986259 0.143834 0.059698 
0.445753 -0.268722 -0.994442 -0.014011 0.079374 -0.992494 
-0.930222 -0.146991 -0.107864 -0.924485 0.266643 0.259543 
-0.819601 -0.212680 -0.503328 -0.688756 -0.020922 -0.721356 
-0.371694 -0.373400 -0.985282 0.002646 -0.011171 -0.997449 
-0.168015 -0.513043 -0.959001 0.338000 0.348174 -0.874042 
0.165101 -0.609422 -0.862478 0.291107 -0.916434 0.132973 
0.543690 0.153533 -0.845242 0.661586 0.180822 -0.727494 
-0.766834 0.097954 -0.412026 -0.712134 0.613638 -0.337039 
-0.886067 -0.318825 -0.350910 -0.842890 -0.477069 -0.242138 
0.542412 0.198835 -0.047964 0.335790 0.802297 0.492531 
-0.629964 0.530245 0.598230 0.841547 0.211178 -0.496151 
-0.551332 -0.586562 0.160433 0.721535 -0.668647 -0.167935 
-0.677559 0.576852 0.575167 -0.048071 0.433693 -0.896510 
-0.093359 -0.696682 -0.327022 -0.812479 -0.548135 0.194967 
-0.856612 -0.408898 -0.071274 -0.707771 -0.641717 0.294304 
0.424108 0.114773 0.144821 0.413042 0.556480 0.719782 
-0.527120 -0.279183 0.603887 0.253675 -0.027838 0.966747 
-0.493634 -0.204240 -0.807529 -0.487061 -0.633482 0.598452 
-0.735714 0.305682 0.613084 -0.985724 0.099128 -0.086781 
-0.753424 0.060262 0.278991 -0.340682 0.913077 0.217816 
-0.385069 0.164276 -0.578436 -0.206580 0.874889 -0.430063 
0.552613 -0.364799 0.118727 0.641321 -0.427889 0.636663 
-0.461481 -0.289762 0.569604 0.781852 -0.091095 0.611622 
0.122300 -0.750894 -0.465350 -0.258718 -0.960638 -0.031860 
0.044332 -0.748624 -0.314144 -0.030184 -0.996749 0.061302 
-0.679846 -0.552048 0.005298 0.266214 -0.261606 -0.926738 
-0.611150 -0.550899 -0.885341 -0.823180 -0.450456 0.344022 
-0.228841 0.359432 -0.443706 -0.904801 0.316156 -0.277344 
-0.500688 0.095855 -0.592389 -0.691015 0.681146 -0.225076 
-0.108875 -0.634397 -0.257586 -0.716793 -0.536668 0.443356 
0.131357 0.485382 -0.358337 0.136743 0.973508 -0.162110 
0.396293 -0.560497 -0.070180 0.038973 -0.654733 0.750733 
0.924635 -0.276962 -0.781163 0.683700 -0.478893 -0.549043 
-0.187283 -0.033496 0.588041 0.490573 -0.663571 -0.563972 
-0.456421 -0.347104 0.482909 0.962603 -0.261278 -0.055824 
0.187519 0.134576 0.153555 0.048875 0.706965 0.704542 
-0.753029 0.059938 0.141384 -0.329362 0.933900 -0.137018 
0.637612 -0.473261 -0.729469 0.614063 -0.627030 -0.474737 
0.808716 -0.081217 -0.328224 0.995048 0.088877 0.043565 
0.591965 0.134023 -0.798730 0.690655 0.409867 -0.590450 
0.606849 -0.517291 -0.673933 0.539099 -0.821547 -0.182842 
-0.201794 -0.640597 -0.855482 -0.570968 -0.536490 0.620197 
-0.822194 -0.367418 0.584705 -0.294396 -0.240324 0.924851 
-0.199054 0.281706 -0.639551 -0.936227 0.271232 -0.218824 
0.418704 -0.319066 -0.994816 0.025737 -0.030726 -0.998798 
-0.552234 -0.093534 0.603510 -0.480795 0.133025 0.863365 
-0.335582 0.149870 -0.610737 0.068139 0.901260 -0.426760 
0.654615 -0.425498 -0.080481 0.731261 -0.571550 0.371901 
0.713996 -0.206529 -0.945891 0.362780 -0.152942 -0.918803 
0.212943 0.120557 -0.926962 -0.075817 -0.021646 -0.995001 
-0.447956 0.218559 0.000179 -0.056262 0.960295 0.260776 
0.328607 0.237417 0.040668 0.293739 0.797019 0.526179 
0.642642 0.230840 -0.435126 0.749929 0.600478 -0.270043 
-0.461870 -0.502981 0.229998 0.701715 -0.660057 0.266442 
0.083123 -0.099806 -0.935115 -0.005142 0.041471 -0.998947 
0.388679 0.041289 -0.994995 0.084960 0.064493 -0.993807 
-0.188678 -0.371087 0.142879 0.345095 -0.544346 0.764224 
-0.630430 0.381890 0.533141 0.603627 0.286962 -0.742610 
0.165567 -0.482121 0.132961 -0.052681 -0.798843 0.598503 
-0.067550 -0.089953 -0.934806 -0.007615 0.045730 -0.998692 
0.325680 0.276447 -0.985054 0.169329 0.405727 -0.894529 
-0.806867 -0.634712 0.037498 -0.243597 -0.745995 -0.595067 
-0.961109 -0.158950 0.261384 -0.924771 0.348785 0.147691 
-0.810935 0.107729 -0.200154 -0.757782 0.651325 0.029857 
0.755816 -0.381754 -0.447020 0.905764 -0.413228 -0.078846 
-0.752467 0.313032 0.551719 -0.973283 0.094398 0.175386 
-0.949853 -0.573098 0.230266 -0.891566 -0.260326 0.368884 
-0.841308 -0.544055 0.478816 -0.489352 -0.573047 0.656570 
0.467563 0.362574 -0.486180 0.378104 0.912777 0.147718 
0.661793 -0.228344 0.053284 0.799053 -0.043002 0.598767 
-0.029163 0.227233 0.739431 -0.258138 0.823743 -0.504393 
-0.668927 -0.670550 0.346258 0.543490 -0.780375 0.307847 
0.397749 0.313405 -0.192452 0.211027 0.843700 0.482571 
-0.386074 -0.552429 -0.827497 0.071968 -0.745154 0.661970 
0.512763 -0.082394 0.184599 0.515803 0.137721 0.844407 
-0.108515 -0.533868 -0.679418 -0.817602 -0.574355 -0.033083 
0.000469 0.182418 0.787591 0.486815 -0.779996 0.389698 
0.067966 0.295219 0.918354 0.783976 -0.528965 0.321328 
0.635996 0.154224 -0.726540 0.626286 0.535739 -0.565361 
-0.026033 -0.167055 0.227867 -0.228272 -0.001110 0.973409 
-0.609760 -0.509851 -0.843049 -0.761605 -0.277739 0.582399 
0.325262 0.413614 -0.345410 0.423299 0.900033 0.099356 
0.926164 -0.327526 -0.676260 0.786706 -0.604195 -0.121081 
0.557171 0.049833 -0.942177 0.151466 0.690867 -0.704284 
0.099293 -0.722009 -0.652357 -0.229323 -0.912057 -0.317755 
0.728395 -0.265620 -0.926213 0.398270 -0.267617 -0.876769 
0.112850 -0.633152 -0.873308 0.346977 -0.883280 0.314549 
0.660451 -0.088138 0.052928 0.800165 0.050097 0.597662 
-0.439435 -0.470712 -0.594150 -0.515689 -0.658831 -0.540342 
0.634784 -0.372069 0.030381 0.722191 -0.454261 0.521316 
-0.499243 -0.541758 -0.801598 -0.061718 -0.354404 0.928626 
-0.900213 -0.020919 -0.240252 -0.974419 0.214359 -0.030680 
-0.487815 0.008686 0.369854 0.682669 0.723918 0.090006 
0.761500 -0.281166 -0.154946 0.914832 -0.193290 0.352981 
-0.657456 0.190377 -0.167152 -0.450545 0.866600 0.205860 
-0.578355 0.037297 0.511620 0.973301 0.142596 0.153917 
-0.763209 0.188455 0.601148 -0.643962 0.309909 -0.695275 
-0.209338 -0.594670 -0.980509 -0.064390 -0.066188 -0.995407 
-0.443475 -0.298218 0.449241 0.988240 -0.119097 0.089861 
-0.415083 0.235863 -0.049320 -0.150225 0.883952 0.441629 
-0.474284 -0.038680 0.669434 -0.742449 0.347160 0.566655 
0.753525 -0.038322 -0.101751 0.904828 0.135582 0.400266 
-0.134931 0.048044 0.877781 0.646740 -0.740321 0.008387 
0.399214 0.029841 0.208719 0.342750 0.459731 0.817773 
0.406657 0.394242 -0.516299 0.367355 0.923999 0.091113 
0.523063 0.242884 -0.106303 0.357466 0.779709 0.513559 
-0.301426 0.117056 0.660653 -0.465267 0.863656 -0.173615 
-0.526453 0.062073 -0.820357 -0.467391 0.712059 0.515942 
0.694756 -0.149089 -0.960479 0.418395 -0.077224 -0.904434 
-0.579696 -0.165969 -0.825244 -0.259495 -0.432459 0.863293 
0.600234 0.096606 0.035868 0.503901 0.543476 0.670572 
-0.757451 -0.511685 -0.109604 -0.526472 -0.816592 0.235755 
-0.531986 0.119325 -0.542956 -0.199451 0.560546 -0.801094 
0.680679 -0.039430 0.016440 0.823399 0.161588 0.542143 
0.805446 -0.236190 -0.343819 0.995481 -0.060826 0.072344 
-0.478628 -0.238971 -0.980531 0.157291 0.028235 -0.987141 
-0.045376 0.257164 0.813740 -0.420375 0.863125 -0.276217 
-0.101952 0.365574 -0.780173 -0.483879 0.825908 -0.282083 
-0.603546 0.160048 0.652779 0.775068 -0.345257 0.528879 
0.503478 0.153626 0.063594 0.429147 0.700464 0.569411 
-0.284316 -0.502977 0.004455 0.224322 -0.847103 0.481735 
-0.289823 0.022260 -0.952246 0.436816 0.315284 -0.842369 
-0.224905 -0.563777 -0.397856 0.437784 -0.870723 -0.213423 
-0.354428 -0.201217 0.283508 0.848260 -0.005443 0.529151 
-0.771416 0.134120 -0.154471 -0.591381 0.758800 0.262727 
0.275385 -0.429844 -0.942568 -0.237061 0.571024 -0.782760 
-0.944592 -0.267413 -0.235852 -0.977596 -0.055498 -0.183938 
-0.723487 -0.642704 0.433734 0.051514 -0.781741 0.621105 
-0.877028 -0.022275 -0.074197 -0.876204 0.368412 0.308705 
-0.218801 -0.521128 -0.041703 -0.182165 -0.902639 0.388319 
-0.208386 0.216263 -0.760351 -0.878314 0.234370 0.387712 
-0.755868 0.064925 0.023316 -0.601383 0.683814 0.411790 
0.771348 -0.339867 -0.515156 0.915829 -0.387223 -0.102716 
-0.662830 0.310603 0.498669 0.137095 0.265437 -0.950772 
-0.638492 0.048091 -0.866612 -0.367167 0.637712 0.674442 
-0.530431 -0.502550 0.517044 0.586966 -0.750019 0.294523 
-0.130350 0.244265 -0.000716 -0.231126 0.716790 0.656114 
0.543974 -0.038485 0.152816 0.636874 0.214904 0.740390 
0.800792 -0.029652 -0.469005 0.960532 0.275005 0.006398 
0.141189 -0.719451 -0.209778 -0.024130 -0.830236 0.556052 
-0.790150 -0.574445 0.487560 -0.376591 -0.625219 0.683168 
0.193721 0.271154 -0.989788 -0.011786 0.177874 -0.983653 
0.098412 0.195758 -0.935717 -0.096137 -0.611087 -0.776160 
0.219665 -0.692084 -0.777498 0.334317 -0.757095 -0.553879 
-0.620099 -0.140288 0.604271 0.077174 0.127495 0.988596 
-0.940262 -0.508376 0.066745 -0.748077 0.041256 -0.659195 
0.319271 0.360545 -0.198312 0.274829 0.619362 0.732516 
0.862403 -0.084139 -0.513204 -0.053752 0.259314 0.963803 
-0.595550 -0.617626 -0.273330 -0.166703 -0.979267 -0.085496 
-0.141540 0.203588 0.830868 -0.542996 0.822869 0.160431 
0.012720 0.095814 0.153097 -0.067698 0.619013 0.772249 
-0.364178 0.022880 0.771310 -0.661139 0.142344 0.734733 
0.384130 -0.103017 0.249161 0.294576 0.081843 0.952014 
-0.465879 -0.368794 -0.706271 -0.993411 -0.106795 0.014169 
-0.476261 -0.512506 0.012467 0.039559 -0.790334 0.611188 
0.575100 -0.250399 0.140220 0.643834 -0.091839 0.759439 
0.710019 -0.104706 -0.017014 0.821886 0.050710 0.566934 
0.224042 -0.753099 -0.417249 0.228505 -0.951246 0.204318 
-0.137702 0.357123 -0.841187 -0.023712 0.898499 0.434077 
-0.761579 0.513605 0.873337 -0.266514 -0.504249 0.820844 
0.260953 -0.561667 -0.085162 0.287709 -0.905384 0.295786 
0.440381 -0.676188 -0.381287 0.282889 -0.890311 0.354855 
0.276057 0.374680 -0.791403 -0.012188 0.871422 -0.486551 
-0.246430 -0.390753 0.150775 0.173945 -0.639634 0.744312 
-0.546242 -0.386940 -0.821756 -0.376138 0.396923 0.837061 
-0.828714 -0.413992 -0.399955 -0.668566 -0.418383 -0.613731 
-0.895141 -0.040966 -0.322370 -0.839562 0.193981 -0.503957 
-0.230208 -0.558891 -0.814615 -0.599700 -0.387017 0.700040 
0.244614 -0.654248 -0.155466 0.213897 -0.469783 0.853930 
-0.324572 0.257740 -0.120419 -0.130810 0.976264 0.165683 
0.766040 0.008365 -0.169167 0.940853 0.258084 0.213701 
-0.766171 -0.533083 0.527494 -0.229491 -0.540709 0.808799 
0.247601 -0.297831 0.253927 -0.048234 -0.232569 0.970846 
-0.354101 0.225691 -0.831164 -0.694397 0.176539 0.696053 
-0.209660 0.174611 0.082769 -0.078140 0.672623 0.734233 
-0.630964 0.745469 0.830346 -0.668816 0.737362 -0.070628 
0.535693 -0.498464 -0.043995 0.264592 -0.863649 0.419620 
-0.261313 0.213318 0.033899 0.031378 0.855742 0.515400 
-0.435068 -0.479272 -0.976691 -0.006889 0.004348 -0.999939 
-0.033733 0.276035 -0.033116 0.111040 0.890218 0.438631 
0.563119 0.246201 -0.768041 0.848071 0.470142 -0.233751 
-0.232643 0.361825 -0.384374 -0.967429 0.252294 -0.005479 
0.696709 -0.441655 -0.194403 0.818321 -0.468203 0.331605 
0.112686 -0.638326 -0.947521 0.313523 -0.944848 0.090891 
0.510621 -0.593620 -0.597041 0.658245 -0.746146 -0.053901 
-0.694974 0.190094 -0.283655 -0.392196 0.907854 0.143360 
-0.411043 -0.295817 0.361561 0.868005 -0.256327 0.424160 
0.191716 -0.318506 0.248346 -0.021081 -0.277883 0.959883 
-0.871377 -0.675380 0.179136 -0.351182 -0.922977 0.100224 
-0.413888 -0.523851 -0.542511 -0.473533 -0.789207 -0.387124 
-0.261914 0.241930 -0.459600 -0.923540 0.335045 -0.185533 
0.337762 -0.612606 -0.139498 -0.192941 -0.858006 0.470745 
0.257169 0.443988 -0.407635 0.092925 0.985209 0.140046 
-0.613432 -0.606505 -0.327578 -0.110092 -0.973563 -0.199221 
-0.385383 -0.592884 -0.162243 0.346696 -0.900167 0.260655 
-0.728658 -0.268616 -0.582963 -0.673503 -0.263173 -0.682820 
-0.201534 0.047965 0.871852 -0.358316 -0.348689 0.861324 
0.526118 -0.456189 0.026458 0.388115 -0.821866 0.416388 
-0.726585 -0.603722 0.479200 -0.030010 -0.702504 0.709180 
0.026399 0.390148 -0.804064 -0.038048 0.903725 -0.425609 
0.026321 0.335603 -0.939514 0.117782 0.975094 -0.182714 
0.109110 -0.758068 -0.377252 0.031248 -0.993356 0.070596 
0.440795 0.229567 -0.921862 0.794403 0.268689 -0.542095 
-0.774335 0.419238 0.816092 -0.464719 -0.370579 0.803033 
0.261258 0.263360 -0.004723 -0.072122 0.994229 -0.028651 
0.782195 -0.231455 -0.188232 0.940589 -0.097865 0.325114 
0.011599 -0.455376 -0.930166 0.011756 -0.061252 -0.997952 
-0.567112 -0.166826 -0.664385 -0.263336 0.094901 -0.959264 
-0.611648 -0.019245 -0.621437 -0.298574 0.301083 -0.904999 
-0.267297 0.179229 0.083798 0.043175 0.736641 0.671803 
-0.116748 -0.479822 -0.928582 0.115365 0.068415 -0.990321 
-0.057213 0.239843 -0.967927 -0.137908 -0.809533 -0.569197 
-0.410573 -0.121366 0.672991 -0.105961 -0.740073 0.663693 
0.008389 -0.397416 0.165455 -0.351854 -0.456387 0.815791 
-0.643413 -0.447420 -0.900287 -0.925335 0.061662 0.363981 
-0.005595 0.428518 -0.721716 -0.119187 0.899962 -0.419068 
0.803968 -0.031310 -0.407866 0.979037 0.199967 0.011980 
-0.181987 0.100371 0.596036 0.111381 0.599891 -0.791520 
0.605320 0.033973 0.075043 0.651644 0.361852 0.666635 
-0.436587 -0.018311 -0.984347 -0.008088 0.031917 -0.999372 
-0.444701 -0.498996 0.175423 0.777785 -0.617503 0.005521 
0.006745 -0.529954 0.021739 -0.124106 -0.844579 0.520398 
-0.321839 0.053109 0.800356 -0.696748 0.276722 0.654642 
-0.429623 0.256404 -0.320271 -0.031675 0.989145 -0.136991 
-0.604566 -0.691127 0.136171 0.817756 -0.560478 -0.113775 
0.869346 -0.114070 -0.867916 0.625351 0.123501 -0.769174 
-0.620324 0.080657 0.158454 -0.016775 0.999476 -0.013720 
-0.687240 -0.161710 -0.620541 -0.422879 0.076942 -0.902687 
0.453665 0.057328 -0.974732 0.497171 0.349910 -0.792114 
0.219805 0.059543 -0.930495 -0.187412 0.163884 -0.967613 
0.392201 -0.647334 -0.736628 0.682902 -0.660652 -0.310000 
0.566900 -0.569288 -0.197870 0.629051 -0.683142 0.364720 
-0.746284 0.167974 -0.301184 -0.463581 0.885040 0.013243 
-0.761465 -0.611149 0.010608 -0.052314 -0.429189 -0.900563 
-0.050891 -0.721133 -0.295952 -0.456648 -0.791366 0.403353 
-0.969504 -0.523934 0.133761 -0.984833 0.000311 -0.159543 
0.264538 -0.703741 -0.208271 0.252363 -0.821047 0.508269 
-0.578060 0.160736 0.575459 0.990000 -0.129242 -0.013692 
0.795759 -0.130453 -0.213149 0.975518 -0.023141 0.217041 
-0.795923 -0.161944 -0.517541 -0.593196 0.077321 -0.798586 
-0.912206 -0.053864 0.134360 -0.725862 0.536326 -0.428433 
-0.629055 -0.553811 -0.940679 -0.831047 -0.539209 0.075998 
0.958339 -0.231425 -0.760356 0.898619 -0.211637 -0.380020 
-0.613941 -0.571207 -0.406824 -0.272401 -0.836049 -0.473887 
-0.533785 0.042209 0.374454 0.334890 0.918383 0.193076 
0.588606 -0.489063 -0.092921 0.519530 -0.769892 0.357538 
-0.623838 0.191365 0.699901 0.719318 -0.347716 0.597196 
-0.652693 0.180172 0.466333 0.122592 0.252491 -0.956554 
-0.488434 -0.502352 -0.976707 -0.014368 0.021512 -0.999308 
-0.312390 0.155568 -0.962721 0.633762 -0.289060 -0.716170 
0.010409 0.191089 0.684116 -0.062229 0.656890 -0.750204 
-0.658828 -0.689158 0.062026 0.350177 -0.595643 -0.711956 
-0.685996 -0.335534 0.612982 -0.030196 -0.108988 0.993569 
-0.326067 0.067218 -0.961173 0.575347 0.113266 -0.805929 
0.790945 -0.010453 -0.527470 0.810773 0.573557 -0.028633 
-0.543320 -0.621478 -0.895119 -0.425941 -0.823258 0.360678 
-0.112630 0.120825 0.621696 0.122185 0.579522 -0.803942 
0.665492 0.038090 0.001270 0.808109 0.305558 0.502248 
0.142623 -0.745486 -0.324107 0.200164 -0.978102 0.021772 
-0.375946 0.071286 0.656041 -0.574179 0.817678 0.021702 
-0.329420 0.225249 0.002200 -0.109214 0.871884 0.475927 
0.015986 0.495252 -0.395611 0.191601 0.962853 -0.182054 
-0.948693 -0.311163 0.487838 -0.997432 -0.029172 -0.054577 
0.737215 0.040870 -0.884159 0.460918 0.567315 -0.681616 
-0.473392 0.025249 0.315155 0.390390 0.825058 0.403748 
-0.090048 -0.298980 -0.937837 0.017728 -0.029097 -0.999371 
-0.426536 0.136116 0.151450 -0.186943 0.751487 0.632400 
-0.384665 0.255513 -0.110268 -0.006771 0.996919 0.076560 
0.506352 0.079222 -0.928139 0.379409 0.648380 -0.654625 
0.492494 0.333150 -0.724019 0.720117 0.639954 -0.261719 
-0.866539 -0.635616 0.053347 -0.345800 -0.622953 -0.695617 
-0.286130 -0.580369 -0.287239 -0.346060 -0.932776 0.097858 
-0.506388 -0.590715 -0.832947 -0.031010 -0.673400 0.733009 
-0.648896 0.419876 0.802655 0.572621 -0.176966 0.799486 
-0.050616 0.069355 0.170763 -0.094231 0.459261 0.882285 
0.151059 0.331776 -0.868886 0.166424 0.873623 -0.439369 
0.875967 0.029550 -0.798256 0.595838 0.627779 -0.496589 
-0.599818 0.095345 0.604108 0.849748 -0.324452 0.414107 
0.937203 -0.302200 -0.594116 0.635483 -0.662911 0.384964 
0.334464 -0.178908 -0.991013 0.105106 0.013825 -0.994318 
0.702265 0.062555 -0.089461 0.839811 0.308307 0.443698 
0.601841 -0.387614 -0.876846 0.644273 -0.575973 -0.501374 
-0.597558 -0.572049 0.323687 0.876922 -0.457596 0.134901 
-0.410890 -0.090350 -0.985988 0.024568 -0.231649 -0.968982 
-0.535187 -0.314076 -0.981786 -0.060577 -0.049144 -0.996692 
-0.634782 -0.487984 -0.515008 -0.337351 -0.685329 -0.644401 
0.325271 -0.154785 0.267404 0.132282 0.014714 0.990385 
-0.671712 0.149201 -0.048209 -0.436478 0.814932 0.379778 
-0.604215 0.145701 0.472130 0.649847 0.302670 -0.696560 
-0.655926 0.012812 -0.589007 -0.432354 0.562647 -0.698167 
0.213811 0.419781 -0.687199 0.257829 0.922421 -0.273748 
-0.214023 0.204069 -0.685390 -0.970093 0.156684 -0.183454 
0.328228 -0.463412 -0.991905 -0.264130 0.258115 -0.920655 
-0.834476 -0.487992 0.527090 -0.422901 -0.493251 0.759567 
-0.624815 -0.354558 -0.914267 -0.796837 0.535434 0.275817 
-0.141487 -0.021931 0.653774 0.135109 -0.503534 0.849819 
0.686219 -0.404557 -0.730169 0.724936 -0.580744 -0.364314 
-0.654444 0.199622 -0.223572 -0.513233 0.849211 0.115724 
-0.221907 0.255318 -0.976402 0.077023 -0.572054 -0.815048 
0.014082 -0.625349 -0.794650 -0.364083 -0.888336 -0.245347 
-0.686096 0.372696 0.510813 0.002685 0.199987 -0.979007 
0.468453 -0.614806 -0.228780 0.344472 -0.922257 0.131636 
0.244678 0.353384 -0.837239 0.245015 0.685575 -0.683941 
0.032495 0.496344 -0.332591 0.122188 0.987660 0.068605 
0.188082 -0.151192 -0.978460 -0.650054 -0.009703 -0.751250 
-0.215958 0.159604 -0.923515 0.008353 0.015817 -0.998151 
-0.423349 -0.490166 0.040524 0.072048 -0.800825 0.594365 
-0.996731 -0.306583 0.181956 -0.995951 -0.028079 -0.007063 
-0.451340 -0.617059 -0.292627 -0.062233 -0.989179 0.098464 
0.429316 -0.503404 0.008002 0.192020 -0.867023 0.458076 
0.091912 0.336185 0.797056 -0.298719 0.772203 -0.555731 
0.806131 -0.126966 -0.280227 0.995680 -0.047945 0.061723 
-0.486480 -0.202389 -0.693821 -0.436031 -0.191482 -0.873455 
-0.581403 -0.470418 -0.554722 -0.288609 -0.632752 -0.718110 
-0.611128 -0.622292 0.281641 0.800750 -0.481735 0.352248 
-0.235754 0.243876 -0.538098 -0.904370 0.329064 -0.270565 
0.534799 -0.604746 -0.238088 0.407187 -0.879916 0.228981 
0.716486 0.099663 -0.822673 0.074642 0.888760 -0.449861 
-0.001238 -0.012813 0.210997 -0.229978 0.313962 0.920449 
-0.000951 0.299338 0.941051 -0.710967 0.672728 0.189153 
-0.277751 0.068521 0.560365 -0.002147 0.719013 -0.690213 
0.493602 0.283330 -0.155780 0.369434 0.888171 0.265765 
-0.134479 0.183890 0.885435 -0.628856 0.601136 0.486813 
-0.544216 -0.335478 0.601328 0.228577 -0.146326 0.962396 
-0.224555 -0.006036 0.739155 0.801340 -0.482856 -0.344320 
-0.839394 -0.048917 0.417041 -0.777787 0.546591 0.297705 
-0.928449 -0.334010 -0.166035 -0.919620 -0.368335 0.129879 
0.569584 -0.595889 -0.310903 0.652472 -0.743489 0.140480 
0.812601 -0.139537 -0.426843 0.999142 0.008735 0.029593 
0.381360 -0.428640 -0.994801 -0.067312 0.080727 -0.994164 
-0.518517 0.243118 -0.136016 -0.423758 0.870168 0.233284 
-0.662391 -0.582883 0.490553 0.227872 -0.721457 0.648992 
0.642014 -0.161812 -0.979447 0.291010 -0.201835 -0.934380 
0.667322 0.162153 -0.671659 0.738700 0.560752 -0.368161 
-0.135202 -0.518829 -0.016900 -0.124959 -0.790828 0.594416 
0.246416 -0.358197 0.231435 0.053395 -0.486980 0.871102 
-0.701933 0.516167 0.865740 0.405660 -0.386092 0.826998 
-0.926419 -0.093894 0.279639 -0.874599 0.481510 0.007812 
-0.412939 0.180221 0.072567 0.035168 0.915614 0.393133 
-0.016649 -0.517362 -0.934048 -0.047551 0.512482 -0.854395 
-0.179327 0.375582 -0.955703 0.158022 0.978938 -0.066926 
0.087385 0.328031 -0.950020 0.035732 0.946439 -0.316943 
0.276954 0.431615 -0.286744 0.241182 0.965082 0.078906 
-0.589594 -0.507410 0.545706 0.199683 -0.674209 0.705942 
-0.558860 -0.556770 0.267425 0.543754 -0.714786 0.429556 
0.262151 -0.005237 0.250051 -0.001938 0.358282 0.932331 
-0.652897 -0.674545 0.287813 0.676798 -0.675447 0.282286 
0.228003 0.432612 -0.252468 0.246965 0.932957 0.256855 
-0.591259 0.753898 0.773709 0.169168 0.914183 -0.305715 
-0.186082 0.042436 0.751420 0.703862 -0.704882 -0.033484 
0.384458 0.356587 -0.233441 0.584807 0.562726 0.581667 
-0.732953 0.172084 0.494387 -0.757352 0.140982 -0.637532 
-0.271280 -0.564073 -0.143114 -0.130599 -0.945520 0.288331 
-0.613681 0.163258 -0.003061 -0.579715 0.753809 0.307288 
0.023577 0.298693 -0.988993 0.032168 0.327763 -0.941189 
-0.274933 -0.534152 -0.072195 0.218804 -0.881973 0.405615 
0.065130 -0.654590 -0.913806 0.336839 -0.940125 -0.044935 
0.960437 -0.020760 -0.682956 0.855467 0.483224 -0.168617 
-0.649250 0.014436 0.624289 0.598628 -0.330694 0.727260 
-0.632005 -0.169818 -0.644254 -0.401761 0.109312 -0.908868 
0.239412 0.235422 0.070000 -0.053294 0.799547 0.596036 
0.538671 0.314261 -0.357084 0.610767 0.774482 0.160176 
-0.873042 -0.672322 0.116253 -0.397971 -0.865632 -0.292494 
0.518000 -0.410842 -0.951075 0.642957 -0.204924 -0.735708 
0.666304 -0.505959 -0.459415 0.712018 -0.670032 -0.199847 
0.674506 0.026624 -0.934536 0.297590 0.509728 -0.806569 
-0.167729 -0.498641 -0.649318 0.273763 -0.929198 -0.245786 
-0.853697 -0.102199 0.494208 -0.880982 0.456239 0.089983 
0.038540 0.276626 0.766449 -0.465694 0.724594 -0.507337 
0.508826 0.179411 0.011763 0.490497 0.813734 0.311579 
0.851236 0.078087 -0.669415 0.211006 0.920095 0.317435 
-0.443004 -0.546606 -0.977987 -0.002418 0.009798 -0.999563 
-0.580959 0.697260 0.809646 0.989339 -0.128338 0.064014 
0.311037 -0.583740 -0.924665 0.181073 -0.981639 -0.053800 
0.360603 0.405606 -0.564057 0.184249 0.942809 -0.273238 
0.845244 -0.351545 -0.618048 0.031134 -0.854708 0.517113 
-0.120743 -0.283246 0.177762 -0.081467 -0.420283 0.900228 
0.263343 0.117575 0.178185 -0.064360 0.671623 0.734788 
0.699117 -0.466664 -0.494865 0.852495 -0.499691 -0.147915 
-0.581275 0.217980 0.560671 0.973115 0.043014 -0.224171 
0.704367 0.126196 -0.634078 0.864097 0.405910 -0.294173 
-0.655860 0.330444 0.783708 0.533308 -0.287749 0.794853 
-0.623118 0.129443 0.059750 -0.459624 0.735566 0.494479 
-0.801130 -0.506091 -0.274934 -0.752486 -0.656090 0.036252 
-0.057697 -0.628392 -0.984688 -0.051829 -0.011530 -0.998457 
0.784161 0.020062 -0.380858 0.910055 0.359061 0.203630 
0.445787 0.314498 -0.799404 0.257538 0.667426 -0.696761 
-0.708142 0.656251 0.867182 -0.689200 0.584821 -0.424558 
-0.514863 -0.388612 -0.618261 -0.195398 -0.411773 -0.889527 
-0.659861 0.110690 0.444350 0.010875 0.356654 -0.933565 
-0.134007 -0.691911 -0.875501 -0.394256 -0.657055 0.641572 
0.532753 0.313654 -0.563492 0.503612 0.827656 -0.245182 
-0.126110 0.265632 -0.984733 -0.062198 -0.455902 -0.882176 
0.011795 0.484258 -0.535145 0.127656 0.955558 -0.255842 
-0.696440 0.077921 0.268759 -0.161858 0.972402 0.151875 
-0.913696 -0.043495 0.230140 -0.883218 0.453717 0.096336 
-0.688604 -0.633787 0.024805 0.182907 -0.313342 -0.929694 
-0.769587 0.017696 0.485204 -0.848812 0.490615 -0.122906 
0.421229 0.382351 -0.583278 0.268131 0.953357 -0.138379 
-0.302409 0.130188 -0.666200 0.031078 0.979777 -0.192271 
0.114370 -0.111580 0.254404 -0.150180 0.068797 0.986181 
-0.592766 0.077369 0.455895 0.821207 0.285370 -0.477675 
-0.406422 -0.181910 0.508866 0.785016 -0.613908 -0.047310 
-0.156929 0.045738 0.819955 0.785766 -0.503196 -0.356362 
0.800175 -0.238989 -0.279856 0.988760 -0.102793 0.107789 
-0.434276 -0.351143 0.368404 0.855333 -0.267607 0.438789 
0.195903 -0.576324 -0.102378 -0.039932 -0.990113 0.053474 
-0.025800 0.326114 -0.974676 0.104427 0.544368 -0.828127 
0.280996 -0.717211 -0.261205 0.244360 -0.951352 0.181173 
0.554002 0.000682 -0.974537 0.167246 0.372550 -0.912794 
-0.732032 0.467307 0.852630 0.018178 -0.441857 0.893397 
0.740044 -0.158031 -0.066487 0.889815 -0.039182 0.454404 
-0.082569 -0.233031 0.203929 -0.256705 -0.241576 0.935693 
-0.830282 -0.468725 -0.308842 -0.772037 -0.625477 -0.108401 
-0.684954 -0.239258 -0.617859 -0.491431 -0.120744 -0.861874 
-0.838449 -0.262522 -0.460626 -0.900436 -0.255935 -0.346738 
-0.660514 -0.723212 0.110437 0.276337 -0.895303 -0.334550 
-0.210512 -0.534572 -0.579596 0.477342 -0.849060 -0.224726 
-0.936790 -0.283283 -0.133287 -0.975719 -0.206749 0.058527 
-0.494513 -0.541128 0.141871 0.606795 -0.746503 -0.266092 
0.684583 -0.423772 -0.132809 0.758800 -0.539708 0.361804 
0.109071 -0.733642 -0.530003 -0.278900 -0.847162 -0.449875 
-0.601592 0.209484 0.502350 0.793192 0.186438 -0.573556 
-0.631243 0.093793 -0.531616 -0.454671 0.480161 -0.748908 
0.811280 -0.087530 -0.394307 0.997500 0.064270 0.023115 
-0.598338 -0.082529 -0.983106 -0.049459 -0.028652 -0.998265 
0.669859 -0.299276 -0.936745 0.245544 -0.417272 -0.873032 
0.690097 -0.345710 -0.032375 0.767256 -0.476726 0.427856 
0.606621 0.269318 -0.479954 0.756417 0.639748 -0.121409 
-0.648907 -0.192182 0.612790 0.072463 0.085578 0.993432 
-0.494405 -0.007181 -0.984400 0.000321 0.005159 -0.999515 
-0.480958 -0.014911 0.474278 0.117009 0.982512 -0.130501 
-0.473643 0.077677 -0.758908 -0.562427 0.822009 0.079801 
-0.572567 0.298902 0.624938 0.994746 0.048628 -0.065386 
-0.433037 -0.237512 0.469667 0.974418 -0.207455 0.035043 
-0.321070 0.147718 0.137146 0.193633 0.827870 0.524338 
-0.019000 0.349417 -0.905934 0.234115 0.966105 -0.085292 
0.679735 -0.466022 -0.658852 0.777606 -0.570385 -0.259991 
-0.551038 -0.433104 -0.976688 -0.033984 -0.038602 -0.998554 
-0.161037 0.197976 0.773237 -0.424632 0.902218 -0.013974 
-0.618909 0.256066 0.723903 0.699007 -0.236563 0.673830 
-0.121157 -0.359184 -0.936395 -0.000487 -0.054488 -0.998464 
-0.850334 -0.436737 0.548611 -0.434606 -0.427517 0.792260 
-0.416700 0.226428 -0.396447 -0.027399 0.906769 -0.418066 
0.395433 -0.684504 -0.586408 0.382893 -0.891425 -0.233187 
-0.174001 0.260490 -0.036225 -0.227343 0.739231 0.633425 
-0.911591 -0.075931 -0.129127 -0.912791 0.323114 0.239829 
0.740992 0.076441 -0.573827 0.922613 0.295928 -0.246294 
-0.671053 -0.086308 -0.613454 -0.405602 0.251483 -0.878312 
-0.062525 0.079540 0.612912 0.304500 0.147761 -0.938584 
-0.270657 0.111746 0.807697 -0.617147 0.645732 0.442927 
-0.149756 -0.648870 -0.823389 -0.450949 -0.607566 0.651123 
-0.710678 -0.432002 0.588704 -0.089222 -0.333694 0.937712 
0.080131 0.004891 0.227064 -0.208879 0.277974 0.937049 
0.791431 -0.068817 -0.200311 0.963501 0.096855 0.248557 
-0.066605 0.014395 0.189898 -0.184117 0.306768 0.933756 
-0.581991 0.078541 0.210591 0.116242 0.982973 0.130520 
0.472091 0.127973 0.104800 0.324853 0.594128 0.735344 
0.322432 -0.009124 0.246327 0.158750 0.329872 0.930208 
-0.888679 -0.396516 -0.137224 -0.791078 -0.582432 0.181716 
-0.733769 0.093571 0.469932 -0.740051 0.262432 -0.617206 
0.459200 0.210298 -0.002699 0.311323 0.906894 0.281797 
-0.935718 -0.443794 0.305471 -0.870461 -0.200203 0.449137 
0.576020 0.287894 -0.535593 0.740131 0.626615 -0.241610 
-0.266909 -0.586845 -0.361481 -0.010853 -0.982190 -0.149503 
0.883886 -0.322831 -0.582442 0.190727 -0.799598 0.568196 
-0.459847 -0.364635 -0.981688 -0.062279 -0.091001 -0.992539 
-0.539903 -0.495730 0.347617 0.417930 -0.729171 0.541370 
0.638719 0.227045 -0.513503 0.739951 0.665272 0.077511 
-0.711012 0.525724 0.702591 -0.962911 0.230330 -0.140445 
0.995970 -0.126502 -0.626669 0.991518 0.093119 0.075909 
-0.729998 0.453559 0.537395 -0.764151 0.225394 -0.578482 
0.072395 -0.512193 0.075321 -0.194245 -0.867655 0.456878 
0.769163 -0.313323 -0.201516 0.884179 -0.360804 0.294252 
0.812160 0.077297 -0.803759 0.456886 0.792539 -0.401914 
-0.164226 -0.570351 -0.371267 -0.822270 -0.549445 -0.116650 
-0.927134 -0.371498 0.406606 -0.936249 -0.054677 -0.332710 
-0.935229 -0.141247 -0.273392 -0.955170 0.008407 -0.287332 
-0.630199 -0.599006 0.445397 0.593287 -0.705036 0.382962 
-0.787879 0.135407 -0.258704 -0.729083 0.682774 0.039777 
-0.314876 0.261394 -0.321302 -0.296900 0.944612 -0.089095 
-0.748702 -0.728499 0.219058 0.024619 -0.965389 -0.243378 
-0.202060 -0.002557 0.675348 0.311347 -0.663428 0.675574 
-0.208607 0.030811 0.553474 0.377508 0.191271 -0.901605 
-0.502000 0.115899 -0.981945 -0.149391 0.296005 -0.940534 
-0.474213 -0.498958 -0.557977 -0.053829 -0.727198 -0.679240 
-0.921772 -0.102997 0.339069 -0.757842 0.490717 0.424254 
-0.678081 0.670019 0.819291 -0.842356 0.485223 -0.231817 
-0.749558 -0.370592 0.602113 -0.135684 -0.216132 0.966642 
-0.380613 -0.144925 -0.964992 0.015904 -0.030578 -0.996693 
-0.303505 -0.159120 -0.965842 -0.192375 -0.193585 -0.958249 
0.257839 -0.591175 -0.134080 0.108164 -0.461026 0.880222 
-0.990994 -0.245305 0.190822 -0.987504 0.136043 0.074544 
-0.717581 0.170231 -0.190348 -0.358906 0.926813 0.100345 
0.169621 0.352707 -0.154927 0.030752 0.474292 0.878692 
0.063770 -0.495341 -0.933719 -0.142757 0.461025 -0.867929 
-0.854743 -0.693247 0.233223 -0.662156 -0.739524 -0.093289 
0.638898 -0.287635 0.074220 0.753900 -0.156384 0.635455 
0.582680 0.260704 -0.654204 0.546332 0.784126 -0.280817 
-0.196991 0.430859 -0.386994 -0.773500 0.629570 0.062308 
-0.005821 -0.706107 -0.536942 -0.456893 -0.859522 -0.224036 
-0.558134 -0.583898 -0.403924 -0.270985 -0.941305 -0.196269 
-0.190450 -0.525248 -0.771783 -0.360055 -0.316057 0.876718 
0.201123 -0.449381 0.166689 0.086818 -0.599298 0.795608 
-0.633008 -0.255200 -0.637525 -0.314877 -0.246281 -0.916307 
-0.639128 0.078797 0.277222 0.038050 0.994073 0.091572 
-0.688247 -0.461678 -0.508070 -0.451309 -0.555650 -0.698218 
-0.394882 -0.504474 -0.612560 -0.696418 -0.709294 -0.101464 
0.322571 0.330831 -0.871707 0.017351 0.944031 -0.323277 
0.674678 -0.504501 -0.258917 0.743626 -0.632990 0.211836 
0.013773 0.347536 -0.852647 0.025900 0.708887 -0.695898 
-0.370541 -0.058323 0.264862 0.626556 0.340576 0.693633 
-0.433784 -0.068799 0.703879 -0.491830 -0.305473 0.812643 
-0.464907 -0.312666 -0.750419 -0.972311 0.218157 0.083485 
0.151452 -0.263066 -0.939000 -0.019512 -0.028532 -0.999289 
0.590778 -0.285992 -0.962773 0.228995 -0.367840 -0.900944 
0.391388 -0.155007 -0.984056 0.098508 -0.009697 -0.994877 
-0.755999 0.141064 0.551693 -0.867302 -0.101557 0.482360 
0.327826 -0.718392 -0.403965 0.259928 -0.956475 -0.043996 
-0.252620 -0.001043 0.528687 0.439469 0.101668 -0.887227 
-0.361907 -0.032426 0.474578 0.324780 0.314926 -0.888177 
0.362999 -0.513481 0.005934 0.359838 -0.920324 0.141320 
0.238347 -0.737262 -0.520410 0.316807 -0.908667 -0.264714 
0.055506 0.406390 -0.178432 0.031815 0.541191 0.836694 
-0.630111 -0.543124 0.523624 0.249101 -0.718134 0.642093 
0.489175 0.179083 -0.872617 0.543607 0.300635 -0.777737 
-0.071014 0.401349 -0.194977 -0.238829 0.390272 0.887112 
0.366370 0.252782 -0.046510 0.235131 0.948096 0.212102 
0.428998 0.291691 -0.885745 0.549568 0.702585 -0.425283 
-0.966125 -0.496991 0.184434 -0.982961 0.055718 0.171895 
0.578858 -0.588118 -0.416858 0.710504 -0.701291 -0.022643 
-0.095500 0.092580 0.889779 0.755235 -0.569091 -0.316694 
0.317692 0.024401 -0.995307 -0.062468 0.072460 -0.995207 
-0.252370 0.245622 -0.044384 -0.128292 0.963284 0.211838 
0.274660 0.060008 -0.973916 -0.658340 0.450170 -0.598372 
0.219238 -0.552056 0.022007 0.005482 -0.944083 0.325048 
0.202646 -0.011578 -0.945217 -0.574156 0.389235 -0.710995 
0.067053 0.225612 0.790648 0.495860 -0.709787 0.499377 
0.792619 0.042097 -0.858484 0.418930 0.567021 -0.708764 
0.978617 -0.230686 -0.696402 0.955723 -0.227051 -0.175728 
-0.482907 -0.335690 -0.656908 -0.609670 -0.291942 -0.717829 
-0.182698 0.321681 -0.230066 -0.702358 0.452463 0.543563 
0.555544 0.310724 -0.452139 0.571690 0.816196 0.074209 
0.141202 -0.524017 0.071330 0.074407 -0.830305 0.549943 
0.542428 -0.325298 -0.961998 0.330995 -0.293798 -0.894923 
0.489512 -0.436607 0.102329 0.304422 -0.739066 0.597245 
0.290851 0.273959 -0.070790 0.088831 0.968057 0.215105 
-0.515100 0.049530 0.278371 0.321936 0.942129 0.091269 
-0.436078 -0.605366 -0.967131 0.108130 -0.540783 -0.830643 
-0.314023 0.001493 0.503174 0.283620 0.381982 -0.877082 
0.350647 -0.237383 -0.990725 0.031294 0.046582 -0.998203 
-0.540757 -0.219705 -0.672193 -0.277622 -0.101020 -0.955076 
0.160168 0.327371 -0.943868 0.049338 0.972957 -0.208034 
-0.347347 -0.527072 -0.735781 -0.288936 -0.952159 -0.062884 
-0.312690 -0.360202 -0.981813 -0.042579 0.277904 -0.952318 
0.724674 -0.437156 -0.323974 0.830545 -0.555831 0.003061 
-0.272724 -0.553108 -0.622410 0.157999 -0.967185 -0.197184 
-0.556612 -0.279181 -0.654493 -0.329271 -0.271261 -0.903278 
-0.201255 -0.456349 -0.956074 0.482336 0.246649 -0.839421 
-0.455598 -0.602981 -0.856461 0.305788 -0.778489 0.540635 
-0.081017 0.208073 0.928583 -0.701071 0.508998 0.497164 
0.166556 0.217742 0.064013 -0.167084 0.768430 0.611192 
-0.144905 -0.041664 -0.932142 -0.028200 0.047768 -0.998374 
-0.407531 0.256578 -0.223570 -0.122319 0.983680 0.091907 
0.647602 -0.090988 -0.977387 0.305210 0.165945 -0.937428 
-0.094441 -0.678150 -0.831758 -0.325448 -0.766896 0.546803 
0.365799 -0.213063 0.256958 0.267578 -0.055053 0.961921 
0.586404 -0.531776 -0.157723 0.434623 -0.824363 0.361208 
0.692622 -0.476957 -0.400759 0.819895 -0.571208 0.019558 
-0.621227 -0.561754 0.034631 0.534618 -0.233530 -0.811690 
0.723813 -0.008838 -0.931174 0.427340 0.363538 -0.825607 
0.384374 -0.354537 0.216707 0.257521 -0.420462 0.867884 
-0.415681 0.214036 -0.979959 -0.649259 0.188576 -0.732079 
-0.868817 -0.614843 0.379420 -0.667689 -0.600471 0.439556 
0.081875 0.028659 -0.930499 0.010951 0.047404 -0.998729 
0.103634 -0.441823 -0.931462 0.005318 -0.045236 -0.998833 
-0.756766 -0.667785 0.049750 -0.413041 -0.527684 -0.741056 
-0.408955 -0.119537 0.407491 0.988646 0.139278 -0.013552 
0.730068 0.152847 -0.373976 0.871879 0.446213 -0.199812 
-0.983344 -0.204764 0.141946 -0.964884 0.213084 -0.144182 
0.068053 0.350314 0.946997 0.020267 0.790691 0.518108 
0.916976 -0.093172 -0.824236 0.680042 0.162266 -0.714035 
-0.713703 0.001081 -0.539139 -0.654390 0.538269 -0.529982 
-0.198897 -0.497245 -0.709141 0.397551 -0.907020 -0.127096 
0.375295 0.208783 0.068307 0.166359 0.895241 0.408035 
-0.118150 -0.613942 -0.786746 -0.127537 -0.395586 0.906996 
-0.664249 -0.059885 -0.827801 -0.439932 0.208676 0.870959 
-0.625618 -0.170312 -0.978798 -0.069877 -0.029418 -0.997074 
-0.456702 -0.225269 0.573371 0.705977 -0.200921 0.671734 
-0.743944 -0.111143 -0.920924 -0.952357 0.057273 0.265383 
-0.378589 -0.511836 -0.978507 -0.018722 0.037569 -0.998928 
-0.529457 -0.516808 0.075176 0.240123 -0.737488 -0.630176 
-0.126027 0.366234 -0.934501 0.141784 0.987817 -0.048756 
0.593477 -0.469433 -0.787449 0.467204 -0.769595 -0.430210 
0.430608 -0.475823 -0.992588 0.182135 -0.073116 -0.978867 
-0.320203 0.283259 -0.828631 -0.485900 0.550146 0.661480 
-0.597117 -0.047523 -0.805364 -0.325084 0.209343 0.920884 
0.463619 0.120869 -0.935724 0.743173 0.259275 -0.614584 
-0.718767 -0.724850 0.111792 -0.175613 -0.933952 -0.308159 
-0.951401 -0.513949 0.244773 -0.938604 -0.026987 0.338806 
-0.317141 -0.105567 0.609411 0.141833 -0.734298 0.660142 
0.872204 -0.366277 -0.675457 0.424724 -0.902224 0.058602 
0.456086 -0.584702 -0.107513 0.300327 -0.755322 0.581375 
