1.470170 5.644821 0.436248 0.495538 -0.194841 0.846371 
-3.054417 5.985311 -0.869331 -0.763931 0.465448 0.443600 
-2.787018 5.394896 -1.353353 -0.664221 -0.726949 0.173970 
0.714820 5.816533 -5.271688 0.187886 0.109771 -0.975948 
0.538348 7.025222 -4.555719 -0.092873 0.991089 0.095132 
2.392635 5.134852 -0.812046 0.800085 -0.462053 0.382393 
-1.172626 6.780386 -3.025928 0.677070 0.339204 0.651992 
-2.066694 7.043952 -3.139877 -0.374543 0.892343 -0.251604 
-2.823851 6.228733 -0.800251 -0.699628 0.566922 0.434756 
-2.529266 4.893105 -2.754732 -0.830357 -0.555491 -0.042275 
0.699839 6.813053 -5.141011 0.328000 0.178548 -0.927491 
-0.188069 6.120415 -3.412942 0.138218 0.028123 0.989822 
-3.024819 5.558584 -2.267079 -0.796780 -0.602540 -0.044343 
0.690163 5.008332 -0.223521 -0.055421 -0.993567 -0.098088 
-0.721206 6.503410 -5.275286 -0.180105 -0.028546 -0.983126 
-2.134721 6.712334 -0.343293 -0.684967 0.483371 0.544947 
0.768466 6.207824 -2.854256 -0.877830 -0.384499 0.283068 
3.082663 6.457203 -1.770507 0.653517 0.756718 0.016712 
-2.835782 6.653855 -3.035921 -0.534246 0.841068 -0.084589 
-1.853862 4.848319 -4.026883 0.253552 -0.965347 0.060128 
1.388276 5.351188 -2.007986 -0.619709 -0.765461 -0.171511 
-2.170355 5.209063 -0.584777 -0.440848 -0.841705 0.311597 
1.274817 6.474862 -1.967896 -0.804340 0.582131 -0.111209 
-0.042803 5.395421 -5.338872 -0.069590 -0.005718 -0.997491 
0.073895 5.920733 -1.037122 -0.080593 -0.032667 -0.995923 
1.234666 5.264504 -5.173849 0.315289 -0.630141 -0.702266 
-2.862285 6.664858 -2.668251 -0.587144 0.808276 -0.042951 
0.540809 7.023955 -0.569098 -0.113773 0.987126 0.111683 
-3.021301 5.554312 -1.869750 -0.756277 -0.652869 0.042013 
-1.316970 7.165175 -0.219794 0.305872 0.927813 -0.213391 
0.974355 5.888269 -2.708765 -0.841033 -0.517010 0.155621 
0.735016 5.675249 0.757582 0.278444 -0.067628 0.957997 
1.401000 6.509452 -4.885266 0.485077 0.250213 -0.837827 
2.084852 5.866162 0.068651 0.618771 -0.297267 0.726981 
0.185074 6.878386 -5.259864 0.145487 0.283799 -0.944881 
1.430338 5.204087 -1.574368 -0.459336 -0.852385 -0.249689 
1.754609 7.202024 -4.170560 0.107075 0.973815 -0.188109 
-1.174374 5.135020 -3.344766 0.160229 -0.948506 0.272760 
-1.524885 6.033842 -4.952670 -0.471841 -0.130397 -0.871885 
1.259352 4.864122 -3.689522 0.096904 -0.930970 -0.351892 
-0.935897 5.349251 -2.898783 0.164401 -0.865108 0.473695 
-1.277001 6.462852 -2.502790 0.842039 0.518707 0.146889 
-1.402977 6.527795 0.393597 -0.478879 0.315665 0.819103 
-3.225821 6.328558 -2.083060 -0.689575 0.712752 0.127810 
-2.773273 6.010585 -0.487553 -0.677590 0.501983 0.537359 
-1.902160 4.704446 -1.418354 -0.273161 -0.918906 0.259448 
0.183121 6.434130 0.841626 -0.004494 0.048620 0.998746 
2.331259 6.604660 0.033435 0.524508 0.744460 0.401640 
-2.578317 5.161917 -3.332187 -0.848777 -0.450272 -0.276995 
-1.109482 6.722286 0.485607 -0.436035 0.274187 0.857078 
-0.771227 6.886780 -5.196389 -0.171038 0.813194 -0.539621 
-0.110641 6.427986 -1.098371 0.325571 -0.108091 -0.938765 
0.974199 6.531766 -2.843642 -0.296507 0.816270 0.495317 
-1.327768 6.526730 -2.149676 0.767654 0.631120 -0.104890 
0.397274 5.129300 0.798320 0.189624 -0.363886 0.909218 
-0.408387 5.033279 -3.867088 -0.056039 -0.994551 0.087689 
2.163937 4.713338 -2.015293 -0.381969 -0.916156 0.084304 
1.609663 6.962911 -0.489760 0.203609 0.948181 0.243785 
0.994571 5.822185 -2.330857 -0.736141 -0.627347 -0.251670 
-1.900465 5.000442 -0.777874 -0.378320 -0.848851 0.369095 
2.452875 5.125570 -3.119558 0.555995 -0.799497 -0.227128 
1.501344 7.062778 -3.732887 -0.346638 0.913140 0.214113 
0.136747 5.664626 -3.438643 -0.016590 -0.065604 0.997240 
-0.369897 6.602935 -3.408678 0.178887 0.078379 0.980439 
-2.146343 6.094840 -4.541140 -0.626820 -0.225510 -0.745714 
1.252565 4.972340 -4.009452 0.121053 -0.949928 -0.287843 
-1.040113 5.481162 -1.392853 0.671250 -0.489691 -0.555009 
-1.260093 7.022777 -3.892530 -0.081157 0.978699 -0.188433 
-2.206216 6.899251 -3.497799 -0.355464 0.913481 -0.197753 
-2.200503 5.101850 -0.906623 -0.480885 -0.814271 0.324975 
-0.060894 6.988400 -4.131933 0.056503 0.998183 0.018208 
-2.731249 6.514560 -1.066898 -0.718987 0.610099 0.332836 
2.322911 5.511078 -4.605587 0.652708 -0.301086 -0.688128 
1.241980 5.069407 -4.377326 0.151454 -0.961965 -0.227206 
1.902653 7.284043 -1.811874 -0.211185 0.958544 -0.070254 
1.450355 6.918022 -0.154108 0.173054 0.966641 0.188602 
-0.096592 6.239311 0.846298 -0.055665 0.085836 0.994711 
2.155229 6.947709 -1.055126 0.401169 0.879182 0.257082 
1.390773 5.387609 -2.344619 -0.731658 -0.681266 0.019516 
-1.423579 5.149456 -1.556471 0.677474 -0.592268 -0.435689 
2.617061 6.557421 -0.321750 0.501523 0.831962 0.234869 
-1.537364 5.035541 -3.378824 0.301391 -0.934404 0.189315 
0.711963 5.072241 -0.670913 0.007093 -0.981012 -0.193429 
-1.266297 5.226394 0.422158 -0.227759 -0.939319 0.256417 
-2.187090 4.777917 -1.640897 -0.580917 -0.750515 0.314874 
2.436234 5.216371 -3.476866 0.500043 -0.833691 -0.234222 
0.125672 5.028416 0.296885 -0.070089 -0.995911 0.056445 
1.284959 7.059590 -0.655135 0.093570 0.957022 0.274465 
-1.597681 4.707694 -1.214422 0.162615 -0.977284 -0.098477 
-0.841371 5.601421 -2.695383 0.961946 0.076518 0.244319 
1.066671 6.396963 -5.077288 0.372073 0.186918 -0.909162 
0.688963 6.987199 -4.169973 -0.079526 0.982521 0.168132 
2.591517 5.429567 -0.864887 0.787450 -0.471192 0.397162 
2.637310 5.717753 -4.277997 0.689946 0.295713 -0.659204 
-0.655841 6.544977 -1.417632 0.098312 0.787987 -0.606632 
1.665567 5.806419 -4.951397 0.437079 0.253530 -0.862917 
-0.828887 5.168719 -3.319169 -0.022822 -0.947857 0.317577 
-2.514360 5.276658 -0.992869 -0.566347 -0.782268 0.259326 
0.935871 6.883472 0.668153 0.202012 0.915663 0.325217 
2.864339 6.604465 -1.426191 0.586416 0.803669 0.100721 
-2.089776 7.290798 -2.197115 -0.409717 0.896969 -0.133299 
-0.324576 5.401853 0.910354 -0.000263 0.039058 0.999110 
-1.372348 5.166084 -3.069057 0.315714 -0.911281 0.263789 
-0.284295 5.866219 -1.063925 0.253960 -0.182437 -0.949313 
-1.668132 5.825916 0.515290 -0.422058 0.304867 0.853744 
-0.597239 5.197591 0.812403 -0.173132 -0.862300 0.462914 
-2.638520 5.855542 -0.211086 -0.666630 0.393702 0.631819 
1.009219 6.758276 -3.265666 -0.195565 0.901486 0.385710 
-0.236147 5.727015 -5.324830 -0.094147 -0.009051 -0.995419 
2.202490 7.195803 -1.944090 0.571344 0.789498 0.223900 
2.621321 6.815304 -3.028748 0.769814 0.610753 -0.184956 
3.018947 6.503868 -2.263383 0.704384 0.707376 -0.057990 
-1.003478 5.993785 -2.520022 0.880653 0.470971 -0.028983 
2.780542 5.427925 -3.418268 0.570918 -0.804040 -0.165787 
1.393025 7.102992 -4.085279 -0.278547 0.942567 0.184065 
-3.135681 6.458211 -2.634454 -0.625128 0.780401 0.012251 
-0.578389 5.346621 -3.157722 0.708504 -0.009198 0.702609 
1.867120 7.176471 -3.458544 -0.464266 0.875347 0.134514 
-0.419545 6.331362 -1.251100 0.619349 -0.247404 -0.744658 
-1.014504 5.102047 0.143102 -0.148213 -0.956478 0.251236 
-0.517595 6.854208 -0.780360 -0.025247 0.953355 -0.300448 
-0.845628 5.821024 -1.437501 0.735234 -0.452240 -0.503154 
1.105698 5.320621 -1.506178 -0.282232 -0.872872 -0.396722 
-2.606642 6.466896 -4.230409 -0.735632 -0.053527 -0.666574 
2.107414 4.703627 -2.537756 0.288362 -0.947195 -0.137831 
-2.737126 6.589723 -3.907604 -0.516567 0.831507 -0.198545 
-2.400421 6.237295 -0.250980 -0.646110 0.478981 0.594129 
-1.420227 5.137027 -0.010297 -0.227980 -0.927221 0.296983 
0.794393 6.909649 -3.776355 -0.070393 0.963429 0.258382 
2.161894 5.157180 -3.765081 0.402603 -0.874524 -0.270296 
0.202730 6.990695 -4.346240 -0.007412 0.997779 0.065325 
1.857005 5.141635 -4.106241 0.301992 -0.914652 -0.268578 
3.084949 6.415844 -1.194262 0.612079 0.785086 0.094096 
0.270155 4.997169 -4.227166 -0.025936 -0.996814 -0.074813 
-1.399777 7.080334 -3.590599 -0.105708 0.958203 -0.265609 
-2.939436 6.592105 -2.081617 -0.666573 0.741407 0.076746 
1.945241 7.232841 -3.850734 0.099069 0.968458 -0.130918 
-0.308288 5.101115 0.601865 -0.123883 -0.981344 0.146903 
-1.420677 4.940793 -4.145755 0.183920 -0.976606 0.110919 
2.156585 6.820318 -4.047333 0.732451 0.439026 -0.520301 
2.501381 6.129387 -4.152902 0.677911 0.434061 -0.593199 
1.819568 4.913591 -0.126663 0.630556 -0.514131 0.574250 
-0.201023 6.942342 -3.471073 0.082549 0.538049 0.817521 
2.869006 6.377978 -0.502003 0.818854 0.080605 0.541234 
1.816166 4.991314 -1.987099 -0.648420 -0.760852 0.019602 
1.637761 7.073944 -0.883969 0.222890 0.922715 0.314287 
2.742525 6.745170 -1.814023 0.629707 0.771885 0.087214 
3.004011 5.571567 -1.791186 0.778283 -0.608146 0.155817 
1.456081 6.771872 -2.776684 -0.564941 0.793387 0.225216 
0.577563 5.129050 -5.244364 0.156689 -0.891476 -0.410070 
0.689394 7.065709 -4.893196 -0.109766 0.993637 -0.015084 
0.510592 5.507285 -3.401264 -0.282699 -0.199382 0.937124 
-1.689739 7.164533 -2.612460 0.740343 0.558438 0.373887 
2.468364 7.049470 -2.792603 0.758996 0.647796 -0.065300 
2.802186 5.566622 -3.972112 0.595570 -0.763648 -0.247294 
1.025519 5.137569 -4.904261 0.165496 -0.973069 -0.160326 
-1.986315 7.262354 -1.790979 0.626973 0.777049 0.033367 
-3.057808 6.434256 -1.805169 -0.693219 0.701706 0.164088 
-1.865187 7.012733 -3.504458 -0.263764 0.932106 -0.247951 
1.411012 5.620570 -5.109628 0.341655 0.197001 -0.918885 
-2.688319 5.128318 -2.201294 -0.776388 -0.626393 0.069019 
0.637255 6.101025 -3.150718 -0.684295 -0.295072 0.666661 
-0.931560 5.722438 -2.331997 0.720009 -0.579896 0.365040 
0.965316 5.187906 -1.117465 -0.107086 -0.935265 -0.336824 
1.694062 6.818676 0.099512 0.239053 0.955881 0.170588 
1.416452 6.109169 -4.989271 0.420359 0.231428 -0.877230 
1.830285 4.912335 -1.226261 -0.469623 -0.872959 -0.131548 
-0.226675 6.833064 -0.983458 -0.213357 0.929979 -0.296814 
0.961344 5.014973 -0.434652 -0.110526 -0.980101 -0.164657 
-2.614381 6.854889 -2.534573 -0.585290 0.806458 -0.083367 
2.484814 6.966168 -1.900426 0.618025 0.772346 0.146300 
1.557188 5.057245 -2.752591 -0.716144 -0.585524 0.379333 
-1.520447 5.035053 -0.373887 -0.240471 -0.906543 0.346762 
0.549809 5.431006 -1.334941 -0.757934 0.101321 -0.642659 
-0.211494 6.577795 0.799997 -0.144101 0.116820 0.982549 
-1.091841 6.220462 -2.200959 0.755786 0.601094 -0.256828 
1.305952 5.151422 -4.700301 0.192745 -0.961331 -0.196575 
-0.579294 4.982381 -4.770878 0.067026 -0.997453 0.024062 
1.115398 6.349237 -1.676312 -0.813396 0.471053 -0.339532 
2.961692 6.419841 -2.956415 0.750786 0.618883 -0.230736 
-1.715878 6.851285 -4.535062 -0.212290 0.967384 -0.138054 
2.353395 5.857045 -0.191286 0.681432 -0.353185 0.640882 
0.292236 6.915721 -3.705647 0.148001 0.974804 0.166209 
-1.982912 6.900122 -3.848175 -0.269951 0.944114 -0.188954 
0.827204 6.520367 0.786479 0.174978 -0.045971 0.983388 
2.740329 6.051751 -3.919827 0.706070 0.473786 -0.526089 
-1.943765 7.021309 -0.371911 -0.707446 0.479905 0.518709 
-1.883186 4.845729 -1.093082 -0.404206 -0.820222 0.404698 
-1.808615 6.118563 0.317407 -0.502946 0.357700 0.786713 
0.571308 6.870691 0.796579 0.109866 0.428847 0.883262 
0.587847 6.830753 -3.511099 0.072996 0.948756 0.306911 
-0.172661 6.170572 -5.328723 -0.028742 0.009107 -0.999420 
-3.251537 5.829647 -1.783342 -0.780618 -0.624772 0.009789 
1.211569 5.579078 -2.557575 -0.786992 -0.607174 0.104787 
2.204850 5.096024 -0.509004 0.773646 -0.409831 0.482989 
2.360242 5.448262 -0.461750 0.749044 -0.400003 0.528122 
0.185223 7.009629 -4.746952 -0.068049 0.997177 0.031277 
1.045011 7.052193 -4.259910 -0.184362 0.967225 0.174320 
1.115367 5.672907 0.620743 0.391413 -0.131007 0.910753 
2.009181 6.760503 -0.067274 0.302518 0.934815 0.185916 
0.739224 6.434303 -1.196097 -0.499368 0.241465 -0.831809 
-2.198990 4.971684 -1.218359 -0.524194 -0.782731 0.335316 
-2.785377 5.479771 -1.013584 -0.620695 -0.757779 0.201024 
2.968514 6.508290 -2.616174 0.734771 0.664956 -0.133577 
1.573499 5.130137 -4.355433 0.230626 -0.941748 -0.244658 
-1.457411 6.805789 -2.608091 0.802656 0.498196 0.327544 
-1.618917 6.987298 -3.838959 -0.174514 0.962336 -0.208255 
0.018982 5.082951 0.739330 -0.108413 -0.964895 0.236724 
-2.538419 6.738820 -3.597630 -0.416632 0.897328 -0.145560 
3.059561 5.565939 -2.804313 0.682776 -0.728786 -0.051042 
-2.679957 5.998719 -3.928003 -0.758969 -0.346837 -0.550949 
1.820881 5.481262 0.142007 0.617052 -0.272822 0.738075 
0.176231 5.010716 -0.124656 0.014301 -0.999638 0.018864 
1.516696 5.269175 0.308881 0.569516 -0.231473 0.788641 
1.885636 4.922545 -1.581279 -0.560029 -0.825337 -0.070514 
2.902130 6.126400 -3.597545 0.734856 0.524295 -0.430037 
0.824605 6.132249 -5.205763 0.263951 0.137807 -0.954624 
-2.539147 6.457341 -0.640336 -0.699533 0.544230 0.462972 
2.879671 5.672030 -1.157274 0.786565 -0.517905 0.336036 
-0.405141 5.084767 -3.481162 -0.100766 -0.965655 0.236816 
1.531016 5.033542 -1.116282 -0.369934 -0.903715 -0.215337 
0.331999 5.966683 0.846898 0.112682 0.008704 0.993514 
3.166323 5.691721 -3.128442 0.682772 -0.725710 -0.083915 
1.579647 6.732219 0.543708 0.407293 0.588860 0.690611 
-1.246221 7.138461 0.224353 -0.425278 0.629447 0.648398 
0.961156 5.057950 -3.354372 -0.433442 -0.349066 0.830612 
-3.012973 6.430842 -3.631875 -0.836508 0.369039 -0.375889 
-1.756757 7.082460 -2.263204 0.776687 0.602765 0.181947 
1.683907 6.916049 -2.514815 -0.681883 0.730650 0.032210 
-0.955958 7.003465 -4.133221 -0.042945 0.991498 -0.122595 
-0.617904 5.024418 -0.012654 -0.048510 -0.977118 0.206826 
0.901107 5.007216 -4.265891 0.059294 -0.977172 -0.203722 
0.359980 5.649438 -1.133223 -0.484928 0.096687 -0.868374 
1.116567 5.280539 -3.126869 -0.630643 -0.429211 0.645451 
2.906971 5.972297 -0.838014 0.758392 -0.465839 0.455765 
1.014452 7.079279 -1.124872 -0.429200 0.462458 -0.775337 
2.084611 5.452388 -0.120099 0.689147 -0.332016 0.644027 
-1.010950 5.078463 -3.638031 0.064832 -0.974916 0.212624 
1.609245 5.283159 -4.948891 0.307099 -0.898664 -0.311873 
-0.380477 7.022230 -3.801424 0.100660 0.992834 -0.063924 
0.395762 5.873505 -3.367564 -0.336176 -0.166741 0.925691 
2.552361 6.805746 -1.350385 0.530353 0.829691 0.174070 
-2.747957 6.657744 -1.449344 -0.717854 0.664500 0.207531 
-1.989322 7.185802 -2.796095 -0.422777 0.860139 -0.285195 
0.440870 5.426537 -5.338741 0.065241 0.048336 -0.996595 
-0.051062 6.468630 -3.420677 -0.088051 -0.004899 0.995083 
2.202037 6.210267 0.110451 0.591457 -0.290680 0.752087 
1.881238 4.875867 -2.352573 -0.690033 -0.694992 0.201994 
-1.791292 5.011616 -2.876737 0.489434 -0.866006 0.102047 
2.251493 4.710614 -1.677375 0.022955 -0.988473 0.038300 
-1.410971 6.372755 -5.052869 -0.401804 -0.100959 -0.910128 
0.768505 5.064041 -4.653393 0.098872 -0.984748 -0.142987 
-1.550474 4.836408 -0.851459 -0.251693 -0.870239 0.423333 
0.199223 5.021506 -4.621530 0.046297 -0.997279 -0.056901 
1.854011 6.025609 -4.769416 0.520819 0.301101 -0.798690 
-3.338479 6.115558 -2.627668 -0.917417 -0.335140 -0.190207 
2.850628 6.543846 -0.941752 0.529231 0.837713 0.134565 
-0.028959 5.006711 -3.688176 -0.145822 -0.987800 0.050807 
1.915304 5.358967 -4.827431 0.414375 -0.810300 -0.407014 
-1.489149 6.899547 0.174676 -0.573102 0.360252 0.735995 
0.575665 5.136919 -0.984954 0.129559 -0.954325 -0.268246 
1.789736 7.071978 -2.129969 -0.731161 0.652737 -0.197823 
2.330345 4.938563 -2.794503 0.589969 -0.770026 -0.242639 
0.774794 5.734403 -3.187967 -0.616082 -0.331381 0.714304 
-0.239034 7.060997 0.486180 0.133227 0.989710 -0.050674 
-0.115611 6.535393 -5.322358 0.029190 0.029271 -0.999087 
-2.123100 6.439559 -0.114841 -0.631178 0.447597 0.633404 
-0.751702 6.951240 -4.839272 -0.081472 0.993565 -0.078628 
-1.408985 6.090718 0.547023 -0.401206 0.288998 0.869139 
1.142420 5.581717 -2.099726 -0.613795 -0.731043 -0.296452 
-2.334730 6.768438 -3.930689 -0.348242 0.924347 -0.155778 
0.650341 6.090561 0.800395 0.188107 -0.037509 0.981399 
0.866774 5.325604 -5.292554 0.178831 -0.011651 -0.983267 
-1.289593 5.008198 -3.830398 0.161632 -0.973255 0.162824 
-0.714077 5.623541 -1.185938 0.521120 -0.355550 -0.775020 
-2.471458 6.826448 -3.274261 -0.441554 0.882657 -0.160826 
0.196974 6.976646 -0.595934 -0.155318 0.987678 -0.014721 
0.217648 6.527495 -1.044097 0.023113 0.027007 -0.998775 
0.159382 5.020869 -0.838541 0.240192 -0.964883 -0.102928 
3.054979 5.551468 -2.389631 0.729596 -0.683547 0.021178 
-1.436738 6.934291 -1.165933 0.471813 0.834736 -0.283686 
2.460408 4.887694 -2.004822 0.749372 -0.660002 -0.051542 
-0.621196 6.646466 0.699449 -0.278435 0.186366 0.942140 
1.076522 6.204852 -2.089050 -0.791943 0.594643 0.133634 
2.297696 6.710319 -0.334848 0.370949 0.909122 0.189389 
-1.837243 5.189488 -4.539253 -0.679890 -0.227464 -0.697018 
0.756487 4.974226 0.158302 -0.115478 -0.992070 -0.049024 
-0.660121 5.969213 -5.266953 -0.207080 -0.042720 -0.977330 
0.803786 5.468181 -1.624217 -0.321365 -0.729754 -0.595200 
-2.389502 4.895874 -3.480277 -0.833154 -0.471615 -0.287822 
1.602136 4.930663 -3.699584 0.234394 -0.908795 -0.345014 
-2.068188 5.110531 -4.249083 -0.755406 -0.289167 -0.587786 
-3.111952 5.752998 -2.648043 -0.821006 -0.544623 -0.170774 
2.233943 7.281683 -2.868361 0.402580 0.910896 -0.037445 
1.087395 4.944798 -0.050158 -0.163709 -0.981099 -0.103051 
-2.519744 6.906858 -1.452302 -0.729958 0.664178 0.160842 
-0.693768 5.101673 0.329935 -0.119761 -0.973076 0.196763 
-1.269423 6.963931 -4.250354 -0.109522 0.984686 -0.135624 
0.090306 5.723117 0.875966 0.079450 0.036203 0.996159 
2.502150 6.304230 -0.108293 0.653947 -0.312691 0.688760 
-2.449085 4.803545 -2.381119 -0.760541 -0.641685 0.097560 
1.237159 5.340544 0.504080 0.479073 -0.173755 0.860284 
1.717916 6.398593 0.473022 0.441410 -0.190791 0.876642 
-3.358659 6.022674 -2.241588 -0.888924 -0.447552 -0.091615 
-1.028711 4.957803 -4.962255 -0.066144 -0.949642 -0.300761 
0.162867 5.090685 -5.282813 0.073940 -0.800803 -0.567688 
-2.892166 5.697200 -0.575376 -0.715953 -0.625515 0.306629 
-2.910296 6.023578 -3.589015 -0.796019 -0.401026 -0.453245 
-1.769309 5.186421 -0.170816 -0.315299 -0.895803 0.313125 
-2.737978 5.645567 -3.552792 -0.815397 -0.413206 -0.405396 
-2.294678 6.876242 -0.769991 -0.735910 0.555999 0.386241 
-2.836630 5.321280 -2.498733 -0.814147 -0.578002 -0.054839 
-0.989498 6.208693 -5.195286 -0.291237 -0.066128 -0.954270 
-1.068886 7.077645 -3.240100 0.486293 0.452001 0.741862 
1.559208 4.786402 -3.375232 0.197304 -0.909881 -0.362693 
0.843695 6.113083 -1.415011 -0.743433 0.329638 -0.581155 
-0.990852 6.684346 -1.284055 0.261785 0.857184 -0.442508 
-2.719497 5.247099 -1.712745 -0.707290 -0.690758 0.149961 
-0.949477 7.059419 -3.761250 0.008048 0.983349 -0.181260 
1.932927 7.142281 -2.661843 -0.649817 0.759902 -0.009192 
-2.828376 6.617924 -3.393747 -0.494695 0.862530 -0.106002 
2.601794 5.158737 -2.801407 0.633923 -0.755715 -0.164119 
-1.851838 5.781201 -4.692095 -0.597353 -0.191237 -0.778732 
-0.207943 6.914786 -0.633385 -0.107455 0.978243 -0.177422 
1.604281 7.070431 -1.695408 -0.715715 0.549436 -0.430847 
3.231081 6.219361 -2.602479 0.738112 0.650241 -0.179663 
-2.559080 5.372792 -3.641608 -0.823777 -0.397758 -0.403819 
-0.333039 6.884784 -5.281563 -0.060235 0.518403 -0.850248 
1.074073 6.891480 -3.586504 -0.198635 0.932811 0.300430 
2.103104 4.757428 -0.932693 -0.130978 -0.986815 0.029464 
0.475501 6.098139 -5.286475 0.162355 0.086048 -0.982893 
-1.580178 5.671891 -4.860226 -0.533872 -0.151981 -0.831701 
-0.413651 7.000518 -4.225558 0.017585 0.998693 -0.047452 
2.552026 6.730516 -0.994716 0.479393 0.858778 0.180564 
-0.453186 4.955651 -0.345667 0.060712 -0.978041 0.198954 
0.411700 5.464621 0.829257 0.212572 -0.030334 0.976588 
0.792751 4.981222 0.560953 0.010001 -0.944043 0.324560 
-1.232813 4.746099 -0.985739 0.206033 -0.953495 -0.184429 
-1.033547 6.380067 0.619881 -0.352517 0.243109 0.903592 
-1.671323 4.937389 -3.708905 0.287502 -0.948303 0.133793 
3.404644 6.067911 -2.232051 0.958606 0.220871 -0.031555 
-3.032780 5.655803 -1.201003 -0.685662 -0.714945 0.136707 
-3.134432 6.242745 -3.366473 -0.860512 -0.300982 -0.410418 
2.676979 6.841127 -2.380257 0.710584 0.703549 -0.001901 
0.839611 5.773836 -1.770497 -0.921665 0.366763 -0.116603 
2.399884 4.891537 -2.415163 0.674365 -0.719015 -0.167648 
-0.914108 4.880371 -0.958843 0.320325 -0.464917 -0.823915 
-0.307028 5.004437 -4.376356 0.013846 -0.999578 0.024573 
2.265733 6.450832 -4.192672 0.688030 0.419896 -0.591772 
-1.742840 6.703660 0.069845 -0.598373 0.394408 0.697303 
-1.535630 5.216866 -4.801780 -0.579489 -0.172028 -0.796537 
2.516218 6.451744 -3.859766 0.732135 0.481778 -0.481488 
1.246439 6.654905 0.695126 0.291651 -0.020726 0.955871 
1.326927 4.949298 -0.423143 -0.222650 -0.961422 -0.161033 
-0.610885 6.031084 -3.252402 0.531457 0.145151 0.834077 
-2.092062 6.788529 -4.306171 -0.287935 0.945457 -0.152314 
-2.464301 5.529862 -0.127401 -0.524248 -0.791260 0.312593 
-0.731399 5.103616 -5.185372 -0.284531 -0.246833 -0.923446 
-1.625787 6.887283 -2.012856 0.750438 0.660523 -0.009242 
-0.970184 7.036635 0.451391 -0.421009 0.385654 0.820515 
3.149683 6.060071 -3.213253 0.753204 0.563439 -0.339336 
-0.698545 4.856484 -0.649134 0.089815 -0.952294 0.291376 
1.055496 6.964055 -4.945848 0.435348 0.326535 -0.838434 
0.688451 6.948967 0.448553 0.124588 0.990813 0.052498 
0.709395 7.093205 -0.856563 -0.174944 0.975309 0.129279 
-2.361795 7.085883 -2.212348 -0.626737 0.772592 -0.100642 
-0.620810 5.555242 -5.256076 -0.231528 -0.050471 -0.971434 
0.934725 4.920782 -3.905780 0.002984 -0.962325 -0.271850 
-2.304515 5.793837 -4.280779 -0.708290 -0.280471 -0.647707 
-1.243050 5.286612 -4.997589 -0.467511 -0.126094 -0.874917 
0.616223 5.895084 -1.265634 -0.640493 0.218352 -0.735108 
1.888950 4.706903 -2.834463 -0.074954 -0.986038 0.001894 
2.051786 7.273449 -2.335410 -0.519198 0.843807 -0.123994 
-1.139318 6.876938 -0.959653 0.301243 0.888488 -0.345776 
1.057898 6.934856 0.095769 0.118198 0.985434 0.122038 
-1.415997 7.072647 -0.703821 0.384672 0.884759 -0.262828 
-0.230241 6.985666 -0.182988 0.027297 0.989963 -0.137966 
1.872551 6.689363 0.380792 0.449934 0.678887 0.554875 
-2.036613 5.804303 0.314857 -0.508621 0.348394 0.787255 
-1.072757 5.667580 -1.694318 0.779646 -0.576237 -0.243153 
1.866895 7.215984 -1.454638 0.352146 0.875783 0.330078 
0.248248 6.197043 -3.371961 -0.323773 -0.112465 0.938627 
-1.019058 6.971240 -0.596963 0.226951 0.927843 -0.295655 
2.587810 5.666198 -0.619654 0.754421 -0.431080 0.494845 
0.823285 5.290910 0.691765 0.362537 -0.114732 0.924735 
-1.558471 6.756164 -4.987481 -0.423799 0.454842 -0.776722 
0.355395 6.992021 -0.950501 -0.206875 0.816659 -0.506712 
-1.082773 4.950882 -4.563265 0.108103 -0.991822 0.067493 
-1.217674 5.365113 -2.670815 0.411598 -0.846171 0.336425 
-1.322850 6.906326 -4.659680 -0.144054 0.982721 -0.116165 
0.384977 5.061419 -3.505081 -0.045607 -0.260356 0.963509 
1.045477 5.806649 -5.194081 0.272918 0.157581 -0.949021 
-2.109834 7.308084 -1.405130 -0.220488 0.965033 0.046510 
1.359416 6.875392 -3.269086 -0.379540 0.878736 0.289250 
-2.543292 5.667333 -3.907834 -0.779394 -0.351754 -0.518369 
2.009475 6.635464 -4.354796 0.667025 0.380849 -0.640237 
0.609385 6.591280 -3.046811 -0.342344 0.603057 0.691539 
1.470242 4.874161 -0.123368 -0.219551 -0.971669 -0.086986 
-1.892070 6.304928 -4.781682 -0.536815 -0.167596 -0.826821 
1.586692 7.110819 -4.494248 0.528701 0.592005 -0.604507 
3.294176 5.804681 -2.484100 0.750216 -0.659373 0.047314 
-1.168249 6.887634 -4.977186 -0.161116 0.969136 -0.185127 
1.803999 4.822467 -0.514284 -0.291630 -0.952363 -0.086116 
1.276136 6.870438 -1.439650 -0.668140 0.433602 -0.604484 
1.234352 6.524110 -2.537295 -0.599766 0.744245 0.292895 
1.482542 6.706963 -2.279830 -0.732653 0.679733 0.013452 
-0.252546 5.764042 0.882236 -0.026063 0.090622 0.995418 
-0.439294 5.727042 -3.309549 0.457298 0.089925 0.883729 
-0.262356 5.025207 0.063567 -0.025407 -0.991357 0.128403 
-0.702138 6.730642 -3.326258 0.372285 0.160406 0.914111 
-0.652860 6.975825 -0.364380 0.104193 0.965593 -0.237847 
-1.117606 6.364711 -2.822295 0.819986 0.393962 0.413148 
2.267439 7.041479 -1.572333 0.517903 0.821268 0.239186 
-1.662181 4.910691 -1.589161 0.652611 -0.622279 -0.432165 
2.493057 5.333166 -3.789175 0.476232 -0.851493 -0.219346 
-3.253286 6.172599 -1.616711 -0.751104 0.613653 0.241772 
-0.790660 5.222415 -1.055723 0.382995 -0.348200 -0.855110 
-2.122524 4.799546 -2.523511 0.577301 -0.812477 -0.080890 
1.522064 4.954925 -0.742938 -0.305786 -0.934054 -0.184333 
-1.240547 5.345195 0.741137 -0.333239 -0.599213 0.722471 
3.106906 5.809775 -3.585244 0.875330 0.176731 -0.446379 
-1.147142 5.622656 -2.021443 0.732082 -0.678105 0.059298 
1.483805 6.163252 0.537810 0.415222 -0.170545 0.893501 
-3.132886 5.968890 -3.044062 -0.824007 -0.479938 -0.300853 
-2.951424 6.403647 -1.360236 -0.712487 0.647915 0.269148 
2.841091 5.338079 -2.556540 0.696711 -0.714456 -0.063544 
2.269560 4.736061 -1.340224 0.346241 -0.914924 0.102394 
-0.382078 5.305428 -5.294478 -0.177575 -0.048700 -0.982868 
1.989513 6.839662 -0.408413 0.303139 0.928209 0.215578 
-1.797449 7.127273 -1.370162 0.614904 0.776475 -0.137665 
-0.724701 6.757730 -1.040389 0.053941 0.913022 -0.403110 
-2.422073 5.400791 -0.437570 -0.491050 -0.827760 0.271305 
-1.626253 5.111220 -1.913026 0.689256 -0.690002 -0.220808 
-1.400074 6.678928 -1.838168 0.667032 0.715176 -0.207269 
-0.095380 4.986506 -0.330685 0.086947 -0.992344 0.086918 
-1.387954 5.367239 -2.263593 0.638829 -0.763242 0.093492 
-2.140082 5.314238 -0.245919 -0.413086 -0.861824 0.294255 
2.628700 5.104938 -1.693534 0.792498 -0.602726 0.092618 
-1.885696 6.705402 -4.811343 -0.514718 0.443440 -0.720930 
-2.144325 6.074129 0.099412 -0.570425 0.410677 0.711218 
-1.316167 6.744881 -1.480567 0.505319 0.798125 -0.327215 
0.008955 7.003380 0.077899 0.054164 0.995889 -0.071742 
-3.167558 6.061705 -1.182496 -0.767479 0.532151 0.354874 
0.421240 5.059349 -4.914652 0.100120 -0.991050 -0.088249 
-2.630277 6.866696 -2.128336 -0.653280 0.757050 -0.005533 
2.236788 7.106488 -3.575029 0.774626 0.546930 -0.317238 
1.144951 4.991452 0.456470 0.387391 -0.545946 0.742161 
2.606614 5.208365 -1.243825 0.808797 -0.532531 0.249301 
-0.048806 5.352065 -3.431912 0.211261 -0.022566 0.976983 
2.900899 5.398789 -2.063536 0.758669 -0.648741 0.058337 
-2.098042 4.812678 -3.309884 0.423355 -0.904417 0.051968 
-1.074922 6.610313 -5.194464 -0.285277 -0.029074 -0.957889 
-1.769083 6.891895 -4.187176 -0.212872 0.964207 -0.158014 
0.384358 6.180153 -1.086992 -0.283542 0.096082 -0.953864 
-1.840035 5.534054 0.507779 -0.506617 -0.050412 0.859197 
-1.706590 4.881726 -4.462330 -0.148710 -0.936221 -0.267834 
1.357459 4.961771 -3.119361 -0.611604 -0.482546 0.626807 
2.643171 5.106362 -2.206932 0.734039 -0.677369 -0.047407 
1.926717 5.266732 -4.483560 0.315119 -0.920628 -0.230458 
-0.946212 6.489989 -1.589174 0.321831 0.788700 -0.522680 
1.397432 6.735330 -1.762686 -0.771604 0.535955 -0.340936 
2.719876 6.495027 -3.438439 0.758371 0.550086 -0.349493 
1.089050 6.025733 0.677164 0.327787 -0.111152 0.938136 
-2.311489 5.481567 -4.121553 -0.758001 -0.310126 -0.573632 
-0.710706 5.686157 -3.076958 0.781518 0.209549 0.586234 
2.116628 6.248769 -4.468512 0.620998 0.367774 -0.692143 
1.948547 6.943337 -0.758237 0.312619 0.913536 0.260124 
3.385528 6.124710 -1.880102 0.975161 0.181152 0.083673 
1.327503 5.291716 -2.839637 -0.735371 -0.540964 0.406492 
1.002380 7.021633 -0.430125 0.030239 0.980275 0.194967 
-0.683676 6.209790 -1.525592 0.838233 -0.375603 -0.394847 
-0.043890 6.951851 0.765267 -0.090563 0.405883 0.907373 
0.106707 5.898020 -5.334138 0.029136 0.032851 -0.998978 
1.467986 7.190644 -1.385689 -0.538548 0.670291 -0.496875 
2.354281 6.813620 -3.735080 0.765050 0.496400 -0.410122 
-0.915453 5.914143 -1.932513 0.819129 -0.566505 0.085388 
-2.495924 4.949224 -1.971442 -0.721927 -0.668057 0.180237 
-2.447752 4.834220 -3.122378 -0.821061 -0.548989 -0.155297 
1.935989 4.978033 -3.530192 0.362717 -0.872681 -0.326797 
2.842994 5.445567 -1.501396 0.794449 -0.570172 0.209071 
0.305530 6.993454 0.465413 0.112730 0.993595 -0.004347 
3.215748 5.896693 -1.649695 0.782236 -0.575585 0.238079 
3.280864 6.272173 -1.559171 0.755013 0.652726 0.055283 
2.267025 5.853519 -4.542801 0.588011 0.356372 -0.725960 
-1.379759 5.358305 -1.886922 0.722855 -0.670188 -0.164303 
-0.820831 5.612114 0.846114 -0.168020 0.158507 0.972875 
-2.929130 5.760386 -3.263448 -0.823592 -0.457793 -0.334634 
2.353696 5.370122 -4.211129 0.417013 -0.880679 -0.224605 
-0.276978 6.979562 -4.925413 -0.066099 0.997045 -0.039027 
2.083298 4.875272 -3.079809 0.473579 -0.819262 -0.323084 
-1.687821 7.170915 -0.187845 -0.606289 0.576284 0.546663 
0.089755 5.475281 -1.028316 -0.275211 -0.022026 -0.960384 
0.172387 6.717689 -3.355315 -0.397629 0.034601 0.915614 
-2.355918 6.950652 -2.951729 -0.473109 0.861296 -0.184944 
1.030199 5.626292 -2.963723 -0.749236 -0.457231 0.479081 
-1.410608 4.909622 -4.666960 0.042517 -0.992352 -0.100468 
1.256623 5.071984 -0.916089 -0.232202 -0.940006 -0.249832 
-1.679722 7.151592 -3.217879 -0.236107 0.915639 -0.325133 
-1.780094 7.264855 -0.557222 0.159260 0.983556 -0.013028 
-0.997582 5.003797 -0.197125 -0.098027 -0.951708 0.290742 
2.055030 5.681550 -4.769562 0.518210 0.291564 -0.803912 
-0.863981 6.263641 -1.828906 0.489011 0.639138 -0.592497 
-0.932799 7.063162 -0.198374 0.208128 0.950283 -0.231394 
2.225064 7.252619 -3.211331 0.565449 0.809853 -0.146311 
-0.752100 5.037878 -3.910161 0.005897 -0.990998 0.133359 
-0.258421 5.007328 -5.068666 0.078181 -0.995434 -0.053847 
-2.013108 4.821744 -3.693058 0.326803 -0.943123 0.060341 
-0.636897 6.308314 0.759427 -0.225450 0.174621 0.958426 
-1.676631 5.127677 -2.319159 0.627885 -0.777976 -0.013919 
2.602109 6.019745 -0.372884 0.704701 -0.388753 0.593407 
-0.277150 5.525394 -1.000982 0.098191 -0.169876 -0.979715 
-0.514341 5.047913 -0.923046 0.115078 -0.267897 -0.956230 
0.676511 6.968961 0.106796 0.068697 0.995603 0.063003 
1.424001 6.872769 -4.751566 0.553868 0.288052 -0.781075 
3.129645 5.996582 -1.234094 0.781521 -0.515735 0.350910 
0.227293 5.015834 -0.497759 0.114382 -0.992799 -0.032606 
1.662009 6.639627 -4.664828 0.580995 0.307944 -0.753354 
-1.538210 5.189127 -2.676094 0.504044 -0.846960 0.168005 
1.777747 7.045671 -2.990052 -0.570492 0.811671 0.124985 
1.400215 6.854788 0.281685 0.195678 0.970337 0.141789 
-2.460699 6.863884 -1.122252 -0.740656 0.614554 0.271389 
-2.147810 4.698004 -2.053672 0.385819 -0.905368 -0.161207 
-1.620833 5.308384 0.360024 -0.298641 -0.910845 0.284824 
-2.671279 5.148654 -2.929574 -0.844061 -0.515414 -0.147679 
-0.660145 7.004234 0.600374 -0.313675 0.368138 0.871744 
-2.372431 5.828699 0.055029 -0.593920 0.385833 0.705792 
-1.875601 4.904096 -2.013350 0.657736 -0.718838 -0.224394 
1.857000 5.991299 0.285755 0.540677 -0.245370 0.804597 
1.057180 6.594913 -1.383713 -0.665713 0.372955 -0.645473 
3.347905 5.967974 -2.837102 0.927615 0.289404 -0.230563 
-2.056778 7.173058 -0.737918 -0.721622 0.592038 0.356543 
-0.888179 6.972007 -4.465740 -0.064528 0.993736 -0.091214 
0.487687 6.508485 -5.244612 0.223639 0.102773 -0.969145 
0.811288 4.847520 -3.573098 -0.207279 -0.968693 0.101664 
-2.401350 6.211617 -4.351357 -0.669617 -0.262343 -0.694768 
-2.269984 6.482705 -4.548404 -0.622315 -0.141518 -0.769314 
-1.241297 5.088138 -1.279067 0.585257 -0.497654 -0.639795 
-1.249912 4.893770 -0.585297 -0.134712 -0.913939 0.382776 
0.932656 6.246382 -2.463595 -0.575594 0.650647 0.492962 
-1.011648 5.978724 0.728326 -0.277634 0.218705 0.935412 
2.389580 7.135886 -2.457909 0.708494 0.702917 0.061592 
0.241601 6.986896 -0.178810 -0.018195 0.999634 -0.017216 
-1.265497 5.702784 -5.040535 -0.429384 -0.109489 -0.896390 
0.528932 4.935954 -3.866702 -0.109054 -0.978971 -0.171987 
-1.518321 5.543237 0.662397 -0.374812 0.129607 0.917042 
-2.537848 5.166951 -1.383621 -0.627936 -0.741262 0.236998 
-2.309898 5.056027 -3.843371 -0.820613 -0.366135 -0.438732 
3.229395 5.773814 -2.135912 0.759333 -0.640484 0.114584 
-0.696359 4.992620 -4.393137 0.046333 -0.996745 0.065634 
-2.778046 5.453229 -3.208371 -0.837528 -0.469393 -0.279491 
-0.565906 5.945176 0.833539 -0.144970 0.147763 0.978310 
2.259823 6.803124 -0.681887 0.384550 0.897925 0.214011 
-0.568792 6.009630 -1.250699 0.602982 -0.318638 -0.730474 
0.714769 6.823238 -1.085150 -0.313878 0.224624 -0.922116 
-0.183159 5.005930 -4.702774 0.050647 -0.998674 -0.007862 
1.325133 7.173110 -1.008152 0.076134 0.941671 0.327502 
0.693838 6.998894 -0.263876 -0.003956 0.994336 0.105832 
-0.701142 7.079464 0.087195 0.168878 0.969450 -0.177684 
-3.236968 6.349302 -3.046096 -0.825134 0.539768 -0.147650 
-1.047617 4.996758 -4.115655 0.089918 -0.988558 0.120865 
-1.719147 7.143825 -1.032453 0.525416 0.827672 -0.196921 
-2.072299 5.534923 -4.423041 -0.692186 -0.248938 -0.677364 
1.112005 7.113878 -4.596365 -0.175661 0.980845 0.083112 
-0.290164 4.914578 -0.679188 0.200000 -0.970199 0.136397 
1.115937 6.991378 -3.908182 -0.204671 0.950301 0.234498 
-0.938839 6.560816 -3.147964 0.605262 0.255075 0.753387 
-0.129979 6.992882 -4.464408 -0.007450 0.999950 0.000364 
-2.493070 6.986690 -1.822317 -0.695919 0.717170 0.035548 
-2.134465 4.807722 -2.896426 0.511065 -0.859467 0.001208 
2.731936 6.754976 -2.716083 0.746756 0.655985 -0.109252 
-0.736430 7.058695 -3.407749 0.314707 0.693163 0.619537 
-0.929927 5.967694 -2.853595 0.867791 0.343505 0.358577 
-0.970110 5.826004 -5.172987 -0.320584 -0.075051 -0.944139 
-0.888016 6.232962 -3.074872 0.708312 0.264882 0.653562 
-1.217549 5.689824 0.735142 -0.288538 0.222560 0.931167 
2.458114 6.890430 -3.385977 0.782443 0.554255 -0.283644 
-1.402361 7.046544 -2.931954 0.695655 0.416542 0.585089 
-0.944606 5.376550 -5.143601 -0.354600 -0.088229 -0.930746 
0.152023 6.326486 -5.313515 0.095270 0.050835 -0.994111 
-1.951046 5.377771 0.196464 -0.369200 -0.881082 0.295548 
-2.187126 7.170491 -1.049003 -0.744738 0.619992 0.246753 
-2.894919 5.469332 -2.805152 -0.831016 -0.530525 -0.166777 
-2.747343 6.735658 -1.790090 -0.695222 0.710778 0.106551 
-0.931060 5.207869 0.637520 -0.198177 -0.947085 0.251920 
